-1.398245453834533691e+00 3.239246129989624023e+00 8.581121563911437988e-01
-1.279379129409790039e+00 3.293693304061889648e+00 7.587949633598327637e-01
-1.274109125137329102e+00 3.281823158264160156e+00 6.220211982727050781e-01
-1.289136171340942383e+00 3.322247743606567383e+00 4.963914752006530762e-01
-1.298672914505004883e+00 3.350292444229125977e+00 3.681511580944061279e-01
-1.315526008605957031e+00 3.397288084030151367e+00 2.400585412979125977e-01
-1.332357406616210938e+00 3.442538499832153320e+00 1.095574423670768738e-01
-1.260150551795959473e+00 3.307584285736083984e+00 1.043075561523437500e+00
-1.385480284690856934e+00 3.261415004730224609e+00 1.004045128822326660e+00
-1.258701562881469727e+00 3.302048683166503906e+00 8.974749445915222168e-01
-1.371890187263488770e+00 3.232558727264404297e+00 8.540945053100585938e-01
-1.264023065567016602e+00 3.314270973205566406e+00 7.617344260215759277e-01
-1.365662693977355957e+00 3.221011161804199219e+00 7.156069874763488770e-01
-1.267627716064453125e+00 3.325465202331542969e+00 6.288068294525146484e-01
-1.271195292472839355e+00 3.336573839187622070e+00 4.973572194576263428e-01
-1.277737617492675781e+00 3.357267856597900391e+00 3.680492043495178223e-01
-1.295010447502136230e+00 3.406228542327880859e+00 2.401242852210998535e-01
-1.309079051017761230e+00 3.445042610168457031e+00 1.093794479966163635e-01
-1.238824009895324707e+00 3.312559127807617188e+00 1.042227625846862793e+00
-1.364330291748046875e+00 3.267191171646118164e+00 1.003227353096008301e+00
-1.232982277870178223e+00 3.295185565948486328e+00 8.935365080833435059e-01
-1.347166299819946289e+00 3.229257822036743164e+00 8.510222434997558594e-01
-1.243663311004638672e+00 3.321964502334594727e+00 7.617344260215759277e-01
-1.344742536544799805e+00 3.226617097854614258e+00 7.150058150291442871e-01
-1.242022633552551270e+00 3.319346189498901367e+00 6.261969804763793945e-01
-1.251739263534545898e+00 3.347094058990478516e+00 4.977711141109466553e-01
-1.264772772789001465e+00 3.385546445846557617e+00 3.702915608882904053e-01
-1.273736953735351562e+00 3.413175821304321289e+00 2.400585412979125977e-01
-1.278484463691711426e+00 3.427723646163940430e+00 1.085784584283828735e-01
-1.221119046211242676e+00 3.327301740646362305e+00 1.044489026069641113e+00
-1.344988107681274414e+00 3.277281284332275391e+00 1.003772497177124023e+00
-1.205724358558654785e+00 3.283582687377929688e+00 8.883672952651977539e-01
-1.335067152976989746e+00 3.256343126296997070e+00 8.559851646423339844e-01
-1.223256707191467285e+00 3.329532861709594727e+00 7.617344260215759277e-01
-1.326033115386962891e+00 3.237527608871459961e+00 7.156069874763488770e-01
-1.220613837242126465e+00 3.324131488800048828e+00 6.256750226020812988e-01
-1.342161655426025391e+00 3.280169486999511719e+00 5.905419588088989258e-01
-1.233908176422119141e+00 3.362149953842163086e+00 4.988748133182525635e-01
-1.355747818946838379e+00 3.316676139831542969e+00 4.640878140926361084e-01
-1.242605924606323242e+00 3.389507055282592773e+00 3.698838651180267334e-01
-1.381123542785644531e+00 3.382124900817871094e+00 3.395453095436096191e-01
-1.258603334426879883e+00 3.436855792999267578e+00 2.411763072013854980e-01
-1.381803035736083984e+00 3.387166738510131836e+00 2.064454555511474609e-01
-1.259146094322204590e+00 3.440196990966796875e+00 1.087267920374870300e-01
-1.201654911041259766e+00 3.337439298629760742e+00 1.045337080955505371e+00
-1.336008191108703613e+00 3.313133716583251953e+00 1.012223601341247559e+00
-1.184239983558654785e+00 3.287271499633789062e+00 8.873826861381530762e-01
-1.328132271766662598e+00 3.296920061111450195e+00 8.644930720329284668e-01
-1.198825597763061523e+00 3.325938463211059570e+00 7.592148780822753906e-01
-1.308703422546386719e+00 3.251965045928955078e+00 7.170097231864929199e-01
-1.205534458160400391e+00 3.346381902694702148e+00 6.284589171409606934e-01
-1.320169925689697266e+00 3.283766984939575195e+00 5.897201299667358398e-01
-1.210235476493835449e+00 3.361270666122436523e+00 4.976331293582916260e-01
-1.330936312675476074e+00 3.313889026641845703e+00 4.625464081764221191e-01
-1.220774888992309570e+00 3.394259452819824219e+00 3.695780932903289795e-01
-1.348480582237243652e+00 3.360964298248291016e+00 3.365838825702667236e-01
-1.236479401588439941e+00 3.441696405410766602e+00 2.409790605306625366e-01
-1.369908571243286133e+00 3.417823314666748047e+00 2.077977210283279419e-01
-1.246458530426025391e+00 3.471376895904541016e+00 1.094684451818466187e-01
-1.380275011062622070e+00 3.447170734405517578e+00 7.518783956766128540e-02
-1.179237723350524902e+00 3.339322805404663086e+00 1.043640971183776855e+00
-1.313173651695251465e+00 3.315007448196411133e+00 1.010315299034118652e+00
-1.430448770523071289e+00 3.252481937408447266e+00 9.693641662597656250e-01
-1.165338993072509766e+00 3.298131465911865234e+00 8.883672952651977539e-01
-1.301799654960632324e+00 3.289647817611694336e+00 8.604754805564880371e-01
-1.175136685371398926e+00 3.324013710021972656e+00 7.571153044700622559e-01
-1.299530625343322754e+00 3.287267208099365234e+00 7.230216264724731445e-01
-1.193508505821228027e+00 3.377856731414794922e+00 6.329826712608337402e-01
-1.294199228286743164e+00 3.277126550674438477e+00 5.870904326438903809e-01
-1.188598871231079102e+00 3.365831613540649414e+00 4.972192347049713135e-01
-1.309485793113708496e+00 3.319225788116455078e+00 4.621610939502716064e-01
-1.198601484298706055e+00 3.397933721542358398e+00 3.691703975200653076e-01
-1.323451638221740723e+00 3.358058929443359375e+00 3.354733586311340332e-01
-1.197763085365295410e+00 3.399338960647583008e+00 2.374942302703857422e-01
-1.335378408432006836e+00 3.391791582107543945e+00 2.057129740715026855e-01
-1.220155000686645508e+00 3.464817762374877930e+00 1.090234518051147461e-01
-1.345557808876037598e+00 3.421149492263793945e+00 7.443879544734954834e-02
-1.159981131553649902e+00 3.350121259689331055e+00 1.044771671295166016e+00
-1.288971185684204102e+00 3.313139438629150391e+00 1.007316589355468750e+00
-1.412379860877990723e+00 3.265625238418579102e+00 9.706801772117614746e-01
-1.144762873649597168e+00 3.304303884506225586e+00 8.881211280822753906e-01
-1.273846387863159180e+00 3.277648687362670898e+00 8.552761673927307129e-01
-1.403978109359741211e+00 3.250869989395141602e+00 8.253403306007385254e-01
-1.147353649139404297e+00 3.309914588928222656e+00 7.522861957550048828e-01
-1.286427497863769531e+00 3.313445091247558594e+00 7.270295023918151855e-01
-1.165990233421325684e+00 3.365576028823852539e+00 6.293288469314575195e-01
-1.274066805839538574e+00 3.285006046295166016e+00 5.870904326438903809e-01
-1.171164870262145996e+00 3.382420539855957031e+00 4.985988736152648926e-01
-1.291602730751037598e+00 3.333671331405639648e+00 4.630602300167083740e-01
-1.172201871871948242e+00 3.389241695404052734e+00 3.674376904964447021e-01
-1.306416153907775879e+00 3.375402212142944336e+00 3.363988101482391357e-01
-7.415794134140014648e-01 2.146588087081909180e+00 1.496502906084060669e-01
-1.318502187728881836e+00 3.410164833068847656e+00 2.063327580690383911e-01
-7.662996053695678711e-01 2.219398736953735352e+00 6.968601047992706299e-02
-1.322379350662231445e+00 3.423745393753051758e+00 7.431732863187789917e-02
-1.136320590972900391e+00 3.348092555999755859e+00 1.041944861412048340e+00
-1.268617868423461914e+00 3.320986032485961914e+00 1.007316589355468750e+00
-1.385520339012145996e+00 3.258249282836914062e+00 9.659425616264343262e-01
-1.123531460762023926e+00 3.308512687683105469e+00 8.873826861381530762e-01
-1.250939726829528809e+00 3.278140306472778320e+00 8.533855080604553223e-01
-1.366876006126403809e+00 3.219084024429321289e+00 8.151257038116455078e-01
-1.125135540962219238e+00 3.311337947845458984e+00 7.510264515876770020e-01
-1.272702693939208984e+00 3.338669538497924805e+00 7.308369278907775879e-01
-1.375366687774658203e+00 3.245376348495483398e+00 6.864255666732788086e-01
-1.141517758369445801e+00 3.361477851867675781e+00 6.272409558296203613e-01
-1.253184318542480469e+00 3.290917873382568359e+00 5.867617130279541016e-01
-1.142112493515014648e+00 3.365157842636108398e+00 4.950118064880371094e-01
-1.277117609977722168e+00 3.357291221618652344e+00 4.652438759803771973e-01
-1.094852685928344727e+00 3.229613780975341797e+00 3.493970632553100586e-01
-1.289571046829223633e+00 3.393593072891235352e+00 3.374167978763580322e-01
-7.277541756629943848e-01 2.149207830429077148e+00 1.495187878608703613e-01
-1.299324512481689453e+00 3.422857761383056641e+00 2.066144794225692749e-01
-7.433750033378601074e-01 2.196601390838623047e+00 6.882569193840026855e-02
-1.303119182586669922e+00 3.436469078063964844e+00 7.441855221986770630e-02
-1.117571949958801270e+00 3.360462903976440430e+00 1.043640971183776855e+00
-1.247541189193725586e+00 3.326905727386474609e+00 1.006771326065063477e+00
-1.359548926353454590e+00 3.252447843551635742e+00 9.617313742637634277e-01
-1.104127764701843262e+00 3.318103075027465820e+00 8.881211280822753906e-01
-1.227393388748168945e+00 3.276654958724975586e+00 8.510222434997558594e-01
-1.338095188140869141e+00 3.205840349197387695e+00 8.096778988838195801e-01
-1.098001360893249512e+00 3.297771215438842773e+00 7.464073300361633301e-01
-1.249789714813232422e+00 3.339992761611938477e+00 7.294341921806335449e-01
-1.351653099060058594e+00 3.244693517684936523e+00 6.845140457153320312e-01
-1.121803402900695801e+00 3.371221780776977539e+00 6.277629137039184570e-01
-1.231931924819946289e+00 3.295773506164550781e+00 5.862686038017272949e-01
-1.111128449440002441e+00 3.341088056564331055e+00 4.904590249061584473e-01
-1.257187366485595703e+00 3.366922140121459961e+00 4.655007421970367432e-01
-7.109277248382568359e-01 2.140206098556518555e+00 2.310627549886703491e-01
-1.266288280487060547e+00 3.394911289215087891e+00 3.367689847946166992e-01
-7.158101201057434082e-01 2.157421112060546875e+00 1.497817933559417725e-01
-1.281783819198608398e+00 3.440121889114379883e+00 2.071779370307922363e-01
-7.207593917846679688e-01 2.173607110977172852e+00 6.796536594629287720e-02
-1.293517589569091797e+00 3.475321054458618164e+00 7.508661597967147827e-02
-1.105844736099243164e+00 3.394618272781372070e+00 1.052121281623840332e+00
-1.222120046615600586e+00 3.320954084396362305e+00 1.002682089805603027e+00
-1.339566707611083984e+00 3.260728836059570312e+00 9.617313742637634277e-01
-1.093359351158142090e+00 3.354303836822509766e+00 8.959980010986328125e-01
-1.205588817596435547e+00 3.279564619064331055e+00 8.498405814170837402e-01
-1.324682712554931641e+00 3.229308128356933594e+00 8.135367631912231445e-01
-1.080171346664428711e+00 3.311882495880126953e+00 7.480870485305786133e-01
-1.232649445533752441e+00 3.356795310974121094e+00 7.314381003379821777e-01
-1.328743577003479004e+00 3.245659112930297852e+00 6.829848289489746094e-01
-1.099265813827514648e+00 3.372424125671386719e+00 6.267189979553222656e-01
-1.218480110168457031e+00 3.321791648864746094e+00 5.895557999610900879e-01
-1.350231647491455078e+00 3.299789428710937500e+00 5.595943927764892578e-01
-1.008082985877990723e+00 3.094518184661865234e+00 4.533469676971435547e-01
-1.236845970153808594e+00 3.375504255294799805e+00 4.656292200088500977e-01
-1.362740516662597656e+00 3.338668823242187500e+00 4.331902861595153809e-01
-6.922418475151062012e-01 2.127500295639038086e+00 2.292281091213226318e-01
-1.244406819343566895e+00 3.399811983108520508e+00 3.364913463592529297e-01
-1.383922815322875977e+00 3.393950462341308594e+00 3.058480322360992432e-01
-6.973159909248352051e-01 2.145640134811401367e+00 1.486640274524688721e-01
-1.269222736358642578e+00 3.471364259719848633e+00 2.085865288972854614e-01
-1.402595639228820801e+00 3.443181276321411133e+00 1.746813207864761353e-01
-7.129667401313781738e-01 2.195100784301757812e+00 6.849935650825500488e-02
-1.275599122047424316e+00 3.492583513259887695e+00 7.528906315565109253e-02
-1.095489263534545898e+00 3.434238195419311523e+00 1.062297582626342773e+00
-1.193878531455993652e+00 3.306671857833862305e+00 9.961393475532531738e-01
-1.343729019165039062e+00 3.328825235366821289e+00 9.793657660484313965e-01
-1.076588392257690430e+00 3.372952699661254883e+00 8.991979956626892090e-01
-1.182146549224853516e+00 3.277759790420532227e+00 8.474773168563842773e-01
-1.306299328804016113e+00 3.240988492965698242e+00 8.144447207450866699e-01
-1.062506794929504395e+00 3.326830387115478516e+00 7.499766945838928223e-01
-1.208708763122558594e+00 3.355078220367431641e+00 7.294341921806335449e-01
-1.308070898056030273e+00 3.251929521560668945e+00 6.826025247573852539e-01
-1.065976142883300781e+00 3.339704513549804688e+00 6.194112896919250488e-01
-1.205089211463928223e+00 3.348696470260620117e+00 5.930073261260986328e-01
-1.322957396507263184e+00 3.290596723556518555e+00 5.566483139991760254e-01
-6.799523234367370605e-01 2.131575584411621094e+00 3.116587698459625244e-01
-1.212756156921386719e+00 3.373697280883789062e+00 4.643447101116180420e-01
-1.340381264686584473e+00 3.342360019683837891e+00 4.325939416885375977e-01
-6.779667735099792480e-01 2.127916336059570312e+00 2.288204133510589600e-01
-1.221840143203735352e+00 3.402698040008544922e+00 3.360286355018615723e-01
-1.362701296806335449e+00 3.401453256607055664e+00 3.057648837566375732e-01
-6.841374635696411133e-01 2.149878263473510742e+00 1.486640274524688721e-01
-1.247224807739257812e+00 3.477207422256469727e+00 2.084738463163375854e-01
-1.374019145965576172e+00 3.433174848556518555e+00 1.737426817417144775e-01
-6.922139525413513184e-01 2.176573038101196289e+00 6.778737157583236694e-02
-1.255493879318237305e+00 3.504109859466552734e+00 7.537004351615905762e-02
-1.382562637329101562e+00 3.459772109985351562e+00 3.966814279556274414e-02
-1.081544041633605957e+00 3.463785886764526367e+00 1.069364547729492188e+00
-1.170033693313598633e+00 3.303958654403686523e+00 9.931405186653137207e-01
-1.320077776908874512e+00 3.328936338424682617e+00 9.769969582557678223e-01
-1.427980303764343262e+00 3.245235919952392578e+00 9.321331977844238281e-01
-1.058184504508972168e+00 3.386896133422851562e+00 9.011672735214233398e-01
-1.160068154335021973e+00 3.279455184936523438e+00 8.460593223571777344e-01
-1.302522063255310059e+00 3.289690494537353516e+00 8.246593475341796875e-01
-1.041490197181701660e+00 3.331420660018920898e+00 7.495567202568054199e-01
-1.182224392890930176e+00 3.345804214477539062e+00 7.258270978927612305e-01
-1.293503522872924805e+00 3.273587942123413086e+00 6.854698061943054199e-01
-1.039296984672546387e+00 3.326443672180175781e+00 6.157574653625488281e-01
-1.182221055030822754e+00 3.349516391754150391e+00 5.918567776679992676e-01
-1.298387169837951660e+00 3.287626266479492188e+00 5.547876358032226562e-01
-6.636132597923278809e-01 2.125308036804199219e+00 3.101412057876586914e-01
-1.193351626396179199e+00 3.384816169738769531e+00 4.648585021495819092e-01
-1.314025402069091797e+00 3.335741043090820312e+00 4.306856095790863037e-01
-6.648973226547241211e-01 2.132036209106445312e+00 2.288204133510589600e-01
-1.193000555038452148e+00 3.387590885162353516e+00 3.338075578212738037e-01
-1.340709924697875977e+00 3.406968593597412109e+00 3.055154085159301758e-01
-6.721200942993164062e-01 2.157846212387084961e+00 1.489270329475402832e-01
-1.206318020820617676e+00 3.429226398468017578e+00 2.051495313644409180e-01
-1.346714973449707031e+00 3.425737142562866211e+00 1.729448437690734863e-01
-6.776573657989501953e-01 2.176961898803710938e+00 6.766870617866516113e-02
-1.217728734016418457e+00 3.465527772903442383e+00 7.437806576490402222e-02
-1.361673235893249512e+00 3.469121217727661133e+00 3.967878967523574829e-02
-1.052983164787292480e+00 3.446505784988403320e+00 1.062014937400817871e+00
-1.153841733932495117e+00 3.322891235351562500e+00 9.966845512390136719e-01
-1.289823770523071289e+00 3.311802387237548828e+00 9.696273803710937500e-01
-1.409193277359008789e+00 3.256599664688110352e+00 9.328960180282592773e-01
-1.042766809463500977e+00 3.410935878753662109e+00 9.058441519737243652e-01
-1.140879154205322266e+00 3.289265632629394531e+00 8.467683196067810059e-01
-1.274900197982788086e+00 3.278559207916259766e+00 8.198925256729125977e-01
-9.984351992607116699e-01 3.263887882232666016e+00 7.329699397087097168e-01
-1.163597106933593750e+00 3.358549594879150391e+00 7.270295023918151855e-01
-1.284045815467834473e+00 3.308915376663208008e+00 6.912043690681457520e-01
-8.098536729812622070e-01 2.649067163467407227e+00 4.894393384456634521e-01
-1.157130360603332520e+00 3.343657255172729492e+00 5.895557999610900879e-01
-1.276761293411254883e+00 3.291846990585327148e+00 5.541674494743347168e-01
-6.462191343307495117e-01 2.115131616592407227e+00 3.080717325210571289e-01
-1.181308388710021973e+00 3.417381763458251953e+00 4.683266282081604004e-01
-1.303204894065856934e+00 3.368742942810058594e+00 4.339059293270111084e-01
-6.488995552062988281e-01 2.126560926437377930e+00 2.278011739253997803e-01
-1.172192215919494629e+00 3.394847154617309570e+00 3.338075578212738037e-01
-1.311517834663391113e+00 3.393751382827758789e+00 3.036028444766998291e-01
-6.539220213890075684e-01 2.145703315734863281e+00 1.478092521429061890e-01
-7.519738078117370605e-01 2.180297136306762695e+00 1.301552951335906982e-01
-1.326029419898986816e+00 3.434867858886718750e+00 1.729917675256729126e-01
-6.663256287574768066e-01 2.187772274017333984e+00 6.787636876106262207e-02
-7.600693702697753906e-01 2.206268072128295898e+00 4.725051671266555786e-02
-1.341440439224243164e+00 3.480210065841674805e+00 3.971073031425476074e-02
-6.451253294944763184e-01 2.158867835998535156e+00 6.640067100524902344e-01
-1.135291337966918945e+00 3.335373401641845703e+00 9.983202219009399414e-01
-1.264654278755187988e+00 3.307038784027099609e+00 9.659425616264343262e-01
-1.386534214019775391e+00 3.258955478668212891e+00 9.311161637306213379e-01
-6.344712376594543457e-01 2.121864795684814453e+00 5.624603033065795898e-01
-1.122551798820495605e+00 3.301723718643188477e+00 8.481863141059875488e-01
-1.252327680587768555e+00 3.279951333999633789e+00 8.183035850524902344e-01
-1.371852278709411621e+00 3.232273578643798828e+00 7.848794460296630859e-01
-6.227389574050903320e-01 2.081304788589477539e+00 4.665308296680450439e-01
-1.144542694091796875e+00 3.370264530181884766e+00 7.280314564704895020e-01
-1.276299715042114258e+00 3.349752187728881836e+00 6.980857849121093750e-01
-1.372896671295166016e+00 3.242599487304687500e+00 6.513563394546508789e-01
-6.260088682174682617e-01 2.093564033508300781e+00 3.860881030559539795e-01
-1.141978979110717773e+00 3.366574287414550781e+00 5.923498868942260742e-01
-1.259351491928100586e+00 3.307004928588867188e+00 5.554078817367553711e-01
-6.309601664543151855e-01 2.111465215682983398e+00 3.069680333137512207e-01
-1.150770187377929688e+00 3.396387815475463867e+00 4.644731581211090088e-01
-1.284625411033630371e+00 3.382244825363159180e+00 4.346215426921844482e-01
-6.349855065345764160e-01 2.127642869949340820e+00 2.274954020977020264e-01
-1.020150303840637207e+00 3.014337301254272461e+00 2.957718372344970703e-01
-1.291730046272277832e+00 3.404530048370361328e+00 3.038522899150848389e-01
-6.415989995002746582e-01 2.152544260025024414e+00 1.480065137147903442e-01
-7.369828820228576660e-01 2.180140972137451172e+00 1.298735737800598145e-01
-1.305636525154113770e+00 3.444807767868041992e+00 1.730856299400329590e-01
-6.546012759208679199e-01 2.197567462921142578e+00 6.805437058210372925e-02
-7.497161030769348145e-01 2.220362663269042969e+00 4.745296016335487366e-02
-1.321122765541076660e+00 3.491181135177612305e+00 3.974266722798347473e-02
-6.046981811523437500e-01 2.069792270660400391e+00 6.354563832283020020e-01
-1.114500045776367188e+00 3.341363906860351562e+00 9.980476498603820801e-01
-1.245695233345031738e+00 3.318349123001098633e+00 9.669954180717468262e-01
-1.361287355422973633e+00 3.254910469055175781e+00 9.275564551353454590e-01
-6.062097549438476562e-01 2.073621511459350586e+00 5.486757159233093262e-01
-1.102578759193420410e+00 3.309471368789672852e+00 8.484226465225219727e-01
-1.234571218490600586e+00 3.293957471847534180e+00 8.198925256729125977e-01
-1.351617693901062012e+00 3.239729404449462891e+00 7.846612930297851562e-01
-6.113290786743164062e-01 2.089778423309326172e+00 4.675806164741516113e-01
-1.120748162269592285e+00 3.367927789688110352e+00 7.260274887084960938e-01
-1.253315091133117676e+00 3.351084947586059570e+00 6.967477798461914062e-01
-1.354108095169067383e+00 3.253685951232910156e+00 6.519020199775695801e-01
-6.112170219421386719e-01 2.090749502182006836e+00 3.848701715469360352e-01
-1.121300578117370605e+00 3.373517990112304688e+00 5.923498868942260742e-01
-1.232118248939514160e+00 3.296162605285644531e+00 5.523068308830261230e-01
-6.193813085556030273e-01 2.120050430297851562e+00 3.076578378677368164e-01
-1.093349099159240723e+00 3.293264150619506836e+00 4.494445621967315674e-01
-1.266276001930236816e+00 3.396575689315795898e+00 4.354564547538757324e-01
-6.216399669647216797e-01 2.130543947219848633e+00 2.273934781551361084e-01
-7.170656919479370117e-01 2.162389039993286133e+00 2.117415368556976318e-01
-1.270120263099670410e+00 3.410524129867553711e+00 3.036859929561614990e-01
-6.294957995414733887e-01 2.160272359848022461e+00 1.482695192098617554e-01
-7.223362326622009277e-01 2.180830955505371094e+00 1.296481937170028687e-01
-1.285519957542419434e+00 3.455562829971313477e+00 1.732264310121536255e-01
-9.446097016334533691e-01 3.243772268295288086e+00 1.002719104290008545e-01
-7.341939210891723633e-01 2.219225883483886719e+00 4.733149334788322449e-02
-1.302113413810729980e+00 3.505783319473266602e+00 3.981719166040420532e-02
-5.872466564178466797e-01 2.056861162185668945e+00 6.303681731224060059e-01
-1.103538990020751953e+00 3.377404689788818359e+00 1.006771326065063477e+00
-1.223309636116027832e+00 3.320498466491699219e+00 9.654161930084228516e-01
-1.344966769218444824e+00 3.272146940231323242e+00 9.300991296768188477e-01
-5.921435952186584473e-01 2.072642564773559570e+00 5.474449992179870605e-01
-1.090993881225585938e+00 3.342962265014648438e+00 8.552761673927307129e-01
-1.207276582717895508e+00 3.282275915145874023e+00 8.151257038116455078e-01
-1.332454204559326172e+00 3.249767780303955078e+00 7.850975990295410156e-01
-5.990324616432189941e-01 2.095370292663574219e+00 4.680005609989166260e-01
-1.099150896072387695e+00 3.371946811676025391e+00 7.254263162612915039e-01
-1.234758853912353516e+00 3.364240884780883789e+00 6.978946924209594727e-01
-1.338957428932189941e+00 3.273765087127685547e+00 6.542665958404541016e-01
-5.970243215560913086e-01 2.089725971221923828e+00 3.840001821517944336e-01
-1.095083117485046387e+00 3.363451719284057617e+00 5.893914103507995605e-01
-1.218334436416625977e+00 3.321282386779785156e+00 5.552528500556945801e-01
-1.356389641761779785e+00 3.323005914688110352e+00 5.293628573417663574e-01
-6.063612699508666992e-01 2.123811006546020508e+00 3.076578378677368164e-01
-7.455725669860839844e-01 2.292679071426391602e+00 3.122605979442596436e-01
-1.242682099342346191e+00 3.396821975708007812e+00 4.345022737979888916e-01
-1.373763203620910645e+00 3.370612382888793945e+00 4.024823307991027832e-01
-6.093738079071044922e-01 2.137188196182250977e+00 2.276992499828338623e-01
-7.025536298751831055e-01 2.162960290908813477e+00 2.113713622093200684e-01
-1.250880002975463867e+00 3.422933101654052734e+00 3.041017651557922363e-01
-1.382991194725036621e+00 3.398343563079833984e+00 2.713644504547119141e-01
-9.460682868957519531e-01 3.322436332702636719e+00 2.276315093040466309e-01
-7.040116786956787109e-01 2.170027017593383789e+00 1.287466883659362793e-01
-1.275938868522644043e+00 3.495288610458374023e+00 1.748221218585968018e-01
-1.389652252197265625e+00 3.419839143753051758e+00 1.385832726955413818e-01
-7.107008695602416992e-01 2.193253517150878906e+00 4.668366909027099609e-02
-1.281262636184692383e+00 3.515585899353027344e+00 3.983848169445991516e-02
-5.740996599197387695e-01 2.058577775955200195e+00 6.298028230667114258e-01
-1.097455024719238281e+00 3.429930448532104492e+00 1.020402193069458008e+00
-1.195041775703430176e+00 3.306167125701904297e+00 9.590994119644165039e-01
-1.353476285934448242e+00 3.351181745529174805e+00 9.501860141754150391e-01
-5.770702362060546875e-01 2.067834615707397461e+00 5.452295541763305664e-01
-1.068686604499816895e+00 3.344040155410766602e+00 8.538581728935241699e-01
-1.169924020767211914e+00 3.241986036300659180e+00 8.033221960067749023e-01
-1.315041661262512207e+00 3.264218807220458984e+00 7.866245508193969727e-01
-5.843234062194824219e-01 2.092414855957031250e+00 4.665308296680450439e-01
-1.069205045700073242e+00 3.349694728851318359e+00 7.192140817642211914e-01
-1.220078706741333008e+00 3.388376951217651367e+00 7.013353705406188965e-01
-1.314078330993652344e+00 3.270057916641235352e+00 6.519020199775695801e-01
-5.873671770095825195e-01 2.104732036590576172e+00 3.860881030559539795e-01
-1.066335201263427734e+00 3.344733476638793945e+00 5.849537253379821777e-01
-1.203619480133056641e+00 3.344497919082641602e+00 5.578888058662414551e-01
-1.330450892448425293e+00 3.317492723464965820e+00 5.271741747856140137e-01
-5.951808094978332520e-01 2.134169578552246094e+00 3.086235821247100830e-01
-6.773286461830139160e-01 2.127116680145263672e+00 2.891396880149841309e-01
-1.219803929328918457e+00 3.398775815963745117e+00 4.337866306304931641e-01
-1.352686166763305664e+00 3.378055572509765625e+00 4.023724496364593506e-01
-5.938467383384704590e-01 2.132261991500854492e+00 2.267819344997406006e-01
-6.865527033805847168e-01 2.158690452575683594e+00 2.105384618043899536e-01
-1.230526328086853027e+00 3.432420015335083008e+00 3.042680621147155762e-01
-1.363594174385070801e+00 3.410469532012939453e+00 2.716594934463500977e-01
-6.888697743415832520e-01 2.168596506118774414e+00 1.284086108207702637e-01
-1.257162332534790039e+00 3.510575294494628906e+00 1.751975864171981812e-01
-1.377163887023925781e+00 3.449647188186645508e+00 1.394461393356323242e-01
-7.008582353591918945e-01 2.209008932113647461e+00 4.692660644650459290e-02
-1.256637692451477051e+00 3.514907360076904297e+00 3.974266722798347473e-02
-1.390634298324584961e+00 3.486923217773437500e+00 4.586375318467617035e-03
-5.546536445617675781e-01 2.037072658538818359e+00 6.221706271171569824e-01
-1.075525999069213867e+00 3.433845281600952148e+00 1.019584298133850098e+00
-1.173765897750854492e+00 3.310709714889526367e+00 9.583098292350769043e-01
-1.328251600265502930e+00 3.347736835479736328e+00 9.468805789947509766e-01
-5.664097070693969727e-01 2.078817605972290039e+00 5.471987724304199219e-01
-1.051048874855041504e+00 3.359808206558227539e+00 8.562214970588684082e-01
-1.155858635902404785e+00 3.265629053115844727e+00 8.074079751968383789e-01
-1.305761575698852539e+00 3.299449443817138672e+00 7.931688427925109863e-01
-5.704448819160461426e-01 2.092187643051147461e+00 4.656910002231597900e-01
-1.041327118873596191e+00 3.332813739776611328e+00 7.142042517662048340e-01
-1.191420316696166992e+00 3.373586654663085938e+00 6.967477798461914062e-01
-1.293266892433166504e+00 3.276230335235595703e+00 6.515382528305053711e-01
-5.708174705505371094e-01 2.094995021820068359e+00 3.836522400379180908e-01
-9.379512667655944824e-01 3.005640029907226562e+00 5.246340036392211914e-01
-1.186034560203552246e+00 3.360204219818115234e+00 5.592842698097229004e-01
-1.310432553291320801e+00 3.326514244079589844e+00 5.273200869560241699e-01
-5.792123675346374512e-01 2.127269506454467773e+00 3.071059882640838623e-01
-6.651494503021240234e-01 2.134073257446289062e+00 2.895250320434570312e-01
-1.213101267814636230e+00 3.446467638015747070e+00 4.389152526855468750e-01
-1.326476097106933594e+00 3.372417211532592773e+00 4.007238149642944336e-01
-5.841453671455383301e-01 2.148344993591308594e+00 2.281069457530975342e-01
-6.694468855857849121e-01 2.150503158569335938e+00 2.093353718519210815e-01
-1.205475807189941406e+00 3.428624391555786133e+00 3.032701909542083740e-01
-1.336809396743774414e+00 3.403919935226440430e+00 2.704793214797973633e-01
-6.746612787246704102e-01 2.169922351837158203e+00 1.282395869493484497e-01
-1.204484820365905762e+00 3.429631233215332031e+00 1.707859635353088379e-01
-1.348675370216369629e+00 3.439425706863403320e+00 1.386958211660385132e-01
-6.792852878570556641e-01 2.187487602233886719e+00 4.638000577688217163e-02
-1.217181205749511719e+00 3.471595764160156250e+00 3.916776552796363831e-02
-1.365200638771057129e+00 3.485148191452026367e+00 4.572936333715915680e-03
-5.431292057037353516e-01 2.044145822525024414e+00 6.233012676239013672e-01
-1.051898598670959473e+00 3.432101011276245117e+00 1.017130732536315918e+00
-1.152796030044555664e+00 3.316026926040649414e+00 9.577834010124206543e-01
-1.293990373611450195e+00 3.320679664611816406e+00 9.369642734527587891e-01
-5.504059791564941406e-01 2.070076942443847656e+00 5.439987778663635254e-01
-1.027285218238830566e+00 3.355973720550537109e+00 8.536219000816345215e-01
-1.139311790466308594e+00 3.282780408859252930e+00 8.099048733711242676e-01
-1.279481768608093262e+00 3.291935682296752930e+00 7.894604206085205078e-01
-5.580994486808776855e-01 2.097537994384765625e+00 4.661108851432800293e-01
-9.738822579383850098e-01 3.185487508773803711e+00 6.813396215438842773e-01
-1.171019077301025391e+00 3.381761074066162109e+00 6.969388723373413086e-01
-1.282025575637817383e+00 3.307024717330932617e+00 6.560855507850646973e-01
-5.622537732124328613e-01 2.114636659622192383e+00 3.866100907325744629e-01
-6.420884132385253906e-01 2.102842569351196289e+00 3.663562536239624023e-01
-1.164425134658813477e+00 3.364617586135864258e+00 5.588191151618957520e-01
-1.287855267524719238e+00 3.328956365585327148e+00 5.264446139335632324e-01
-5.664031505584716797e-01 2.131740570068359375e+00 3.072439432144165039e-01
-6.529103517532348633e-01 2.140959978103637695e+00 2.899103760719299316e-01
-1.190635800361633301e+00 3.450092077255249023e+00 4.384381771087646484e-01
-1.301818966865539551e+00 3.370294094085693359e+00 3.995148241519927979e-01
-6.544983386993408203e-01 2.148855209350585938e+00 2.087801098823547363e-01
-7.466331720352172852e-01 2.165962219238281250e+00 1.911758035421371460e-01
-1.317333698272705078e+00 3.415780544281005859e+00 2.707743644714355469e-01
-6.601719260215759277e-01 2.170200347900390625e+00 1.280142068862915039e-01
-7.512218952178955078e-01 2.181745529174804688e+00 1.084131821990013123e-01
-1.325750470161437988e+00 3.442973375320434570e+00 1.385082453489303589e-01
-6.754413247108459473e-01 2.223182916641235352e+00 4.704807326197624207e-02
-7.625660896301269531e-01 2.218464851379394531e+00 2.497623860836029053e-02
-1.345944523811340332e+00 3.499058961868286133e+00 4.580266308039426804e-03
-5.286512970924377441e-01 2.040011405944824219e+00 6.210398674011230469e-01
-6.763460636138916016e-01 2.256077527999877930e+00 6.673642992973327637e-01
-1.132738709449768066e+00 3.323951005935668945e+00 9.580465555191040039e-01
-1.268060922622680664e+00 3.314104557037353516e+00 9.328960180282592773e-01
-5.374505519866943359e-01 2.072477102279663086e+00 5.437526702880859375e-01
-6.432457566261291504e-01 2.148391485214233398e+00 5.454483032226562500e-01
-1.118206620216369629e+00 3.286943197250366211e+00 8.092238903045654297e-01
-1.257518887519836426e+00 3.295165538787841797e+00 7.883697152137756348e-01
-5.444819331169128418e-01 2.098083972930908203e+00 4.654810130596160889e-01
-6.267624497413635254e-01 2.096000909805297852e+00 4.474798142910003662e-01
-1.153401732444763184e+00 3.398177385330200195e+00 6.988503932952880859e-01
-1.265557765960693359e+00 3.324937820434570312e+00 6.580863595008850098e-01
-5.453128814697265625e-01 2.102795124053955078e+00 3.838262259960174561e-01
-6.390528678894042969e-01 2.139823198318481445e+00 3.721088171005249023e-01
-1.149153470993041992e+00 3.387603521347045898e+00 5.614550709724426270e-01
-1.267053604125976562e+00 3.335870981216430664e+00 5.262987017631530762e-01
-5.518216490745544434e-01 2.129423379898071289e+00 3.064161837100982666e-01
-6.380606293678283691e-01 2.139223814010620117e+00 2.891396880149841309e-01
-1.141766786575317383e+00 3.375508069992065430e+00 4.280616641044616699e-01
-1.282876849174499512e+00 3.382865190505981445e+00 4.000643491744995117e-01
-6.401638388633728027e-01 2.149013757705688477e+00 2.084099352359771729e-01
-7.384326457977294922e-01 2.185608386993408203e+00 1.925062984228134155e-01
-1.297409415245056152e+00 3.426597118377685547e+00 2.709956467151641846e-01
-6.548150777816772461e-01 2.201005220413208008e+00 1.295918524265289307e-01
-7.390984296798706055e-01 2.190099477767944336e+00 1.086009070277214050e-01
-1.309193491935729980e+00 3.463194847106933594e+00 1.389959454536437988e-01
-6.615027189254760742e-01 2.226327180862426758e+00 4.702783003449440002e-02
-7.502164244651794434e-01 2.226892471313476562e+00 2.501882426440715790e-02
-1.327628850936889648e+00 3.515671491622924805e+00 4.591261968016624451e-03
-5.147145986557006836e-01 2.037636995315551758e+00 6.193438172340393066e-01
-6.059296131134033203e-01 2.067219734191894531e+00 6.103875041007995605e-01
-1.112016439437866211e+00 3.329923868179321289e+00 9.577834010124206543e-01
-1.241580963134765625e+00 3.305526256561279297e+00 9.283192753791809082e-01
-5.242488384246826172e-01 2.073856353759765625e+00 5.432603359222412109e-01
-6.158560514450073242e-01 2.103805780410766602e+00 5.331591367721557617e-01
-1.096785306930541992e+00 3.290046930313110352e+00 8.083159327507019043e-01
-1.234879970550537109e+00 3.296422243118286133e+00 7.868427038192749023e-01
-5.380722284317016602e-01 2.126977443695068359e+00 4.711499810218811035e-01
-6.171888709068298340e-01 2.111091613769531250e+00 4.498845636844635010e-01
-1.136556267738342285e+00 3.417298793792724609e+00 7.013353705406188965e-01
-1.254080414772033691e+00 3.356590032577514648e+00 6.628155708312988281e-01
-5.333654284477233887e-01 2.109920501708984375e+00 3.845221698284149170e-01
-6.176173090934753418e-01 2.115298032760620117e+00 3.671780526638031006e-01
-1.123048424720764160e+00 3.378653526306152344e+00 5.588191151618957520e-01
-1.242414116859436035e+00 3.332459211349487305e+00 5.245478153228759766e-01
-5.372899770736694336e-01 2.127007484436035156e+00 3.055884242057800293e-01
-6.238121390342712402e-01 2.139290332794189453e+00 2.886258959770202637e-01
-1.003276586532592773e+00 3.027146816253662109e+00 3.830966949462890625e-01
-1.264522910118103027e+00 3.397193431854248047e+00 4.008337259292602539e-01
-6.266873478889465332e-01 2.151945352554321289e+00 2.083173990249633789e-01
-7.268871665000915527e-01 2.195774555206298828e+00 1.930052489042282104e-01
-1.273927927017211914e+00 3.427949428558349609e+00 2.704793214797973633e-01
-6.491047143936157227e-01 2.231824874877929688e+00 1.311694830656051636e-01
-7.278413772583007812e-01 2.201232194900512695e+00 1.089294329285621643e-01
-1.289309620857238770e+00 3.474910259246826172e+00 1.391460001468658447e-01
-9.841546416282653809e-01 3.388241291046142578e+00 7.144261896610260010e-02
-7.337175607681274414e-01 2.222907781600952148e+00 2.492300607264041901e-02
-1.307074785232543945e+00 3.526564359664916992e+00 4.594927188009023666e-03
-4.996808469295501709e-01 2.030510902404785156e+00 6.162343621253967285e-01
-5.895246267318725586e-01 2.057950019836425781e+00 6.065708994865417480e-01
-1.102662086486816406e+00 3.370610475540161133e+00 9.675217270851135254e-01
-1.214919567108154297e+00 3.295840501785278320e+00 9.234882593154907227e-01
-5.115140676498413086e-01 2.077033996582031250e+00 5.432603359222412109e-01
-5.962543487548828125e-01 2.084190368652343750e+00 5.272509455680847168e-01
-1.092902898788452148e+00 3.346707344055175781e+00 8.205735087394714355e-01
-1.210926175117492676e+00 3.293861627578735352e+00 7.844431400299072266e-01
-5.222036838531494141e-01 2.118847131729125977e+00 4.686304330825805664e-01
-5.993792414665222168e-01 2.097882270812988281e+00 4.462774395942687988e-01
-1.114958643913269043e+00 3.422341585159301758e+00 7.009530663490295410e-01
-1.229399204254150391e+00 3.353142976760864258e+00 6.606328487396240234e-01
-5.204091668128967285e-01 2.113153457641601562e+00 3.845221698284149170e-01
-6.065209507942199707e-01 2.125687599182128906e+00 3.683285713195800781e-01
-1.093120694160461426e+00 3.357299804687500000e+00 5.541674494743347168e-01
-1.213785409927368164e+00 3.317721843719482422e+00 5.210459232330322266e-01
-5.220987200736999512e-01 2.121608495712280273e+00 3.043467402458190918e-01
-6.133916974067687988e-01 2.152615308761596680e+00 2.899103760719299316e-01
-6.965132951736450195e-01 2.145558595657348633e+00 2.709824740886688232e-01
-1.243313312530517578e+00 3.403954982757568359e+00 4.007238149642944336e-01
-6.110185980796813965e-01 2.147130966186523438e+00 2.074844986200332642e-01
-7.097120285034179688e-01 2.188817739486694336e+00 1.920073628425598145e-01
-1.260045409202575684e+00 3.455377101898193359e+00 2.720282971858978271e-01
-9.582832455635070801e-01 3.371895790100097656e+00 1.978247761726379395e-01
-7.143211960792541504e-01 2.205656528472900391e+00 1.089294329285621643e-01
-1.269331097602844238e+00 3.486511707305908203e+00 1.392960697412490845e-01
-7.126821279525756836e-01 2.204532861709594727e+00 2.466749586164951324e-02
-1.281310200691223145e+00 3.523240566253662109e+00 4.580266308039426804e-03
-4.858714938163757324e-01 2.027941703796386719e+00 6.145383119583129883e-01
-5.737748742103576660e-01 2.050410032272338867e+00 6.032994389533996582e-01
-1.085785984992980957e+00 3.389256477355957031e+00 9.709433317184448242e-01
-1.197634220123291016e+00 3.311418533325195312e+00 9.257766604423522949e-01
-4.974040687084197998e-01 2.074478626251220703e+00 5.417834520339965820e-01
-5.790088176727294922e-01 2.071900367736816406e+00 5.232332944869995117e-01
-1.066711068153381348e+00 3.335725307464599609e+00 8.162606954574584961e-01
-1.186719179153442383e+00 3.290213346481323242e+00 7.818254232406616211e-01
-5.094209313392639160e-01 2.122962236404418945e+00 4.688403904438018799e-01
-5.891291499137878418e-01 2.110957145690917969e+00 4.482813775539398193e-01
-1.091850280761718750e+00 3.422572374343872070e+00 6.996150016784667969e-01
-1.207803130149841309e+00 3.357847452163696289e+00 6.600871682167053223e-01
-5.051372647285461426e-01 2.106730699539184570e+00 3.827822506427764893e-01
-5.884349346160888672e-01 2.111315727233886719e+00 3.652057349681854248e-01
-1.035289645195007324e+00 3.247231721878051758e+00 5.349406003952026367e-01
-1.206104874610900879e+00 3.360490322113037109e+00 5.265905261039733887e-01
-5.999059677124023438e-01 2.155382871627807617e+00 2.897819280624389648e-01
-6.827338337898254395e-01 2.147899627685546875e+00 2.707439363002777100e-01
-1.226762175559997559e+00 3.423683643341064453e+00 4.021526277065277100e-01
-5.951660871505737305e-01 2.141246080398559570e+00 2.065590471029281616e-01
-6.950622200965881348e-01 2.189332008361816406e+00 1.916747391223907471e-01
-1.235796689987182617e+00 3.454592466354370117e+00 2.713644504547119141e-01
-6.974529027938842773e-01 2.199524164199829102e+00 1.084131821990013123e-01
-1.240520358085632324e+00 3.473531007766723633e+00 1.384707242250442505e-01
-6.991419792175292969e-01 2.208864450454711914e+00 2.466749586164951324e-02
-1.253283977508544922e+00 3.513141155242919922e+00 4.557054024189710617e-03
-4.732013940811157227e-01 2.029950618743896484e+00 6.142556071281433105e-01
-5.589007139205932617e-01 2.045539140701293945e+00 6.008458733558654785e-01
-1.065546870231628418e+00 3.397696256637573242e+00 9.714697599411010742e-01
-1.177293181419372559e+00 3.318704843521118164e+00 9.257766604423522949e-01
-4.853264987468719482e-01 2.080322980880737305e+00 5.425218343734741211e-01
-5.662850141525268555e-01 2.075414180755615234e+00 5.232332944869995117e-01
-1.045641541481018066e+00 3.340348720550537109e+00 8.158066868782043457e-01
-1.165857553482055664e+00 3.295593023300170898e+00 7.813891172409057617e-01
-4.974966049194335938e-01 2.130808591842651367e+00 4.698902070522308350e-01
-5.720445513725280762e-01 2.099408149719238281e+00 4.450751245021820068e-01
-1.063807368278503418e+00 3.406720876693725586e+00 6.950273513793945312e-01
-1.189466953277587891e+00 3.371686220169067383e+00 6.613603830337524414e-01
-4.861604571342468262e-01 2.083897590637207031e+00 3.780844807624816895e-01
-5.775409340858459473e-01 2.122500658035278320e+00 3.665205836296081543e-01
-6.730711460113525391e-01 2.156755924224853516e+00 3.546113669872283936e-01
-1.187104940414428711e+00 3.372493505477905273e+00 5.273200869560241699e-01
-5.858893394470214844e-01 2.156152248382568359e+00 2.893965542316436768e-01
-6.689517498016357422e-01 2.150152206420898438e+00 2.705053985118865967e-01
-1.213640332221984863e+00 3.453651905059814453e+00 4.047904014587402344e-01
-6.792499423027038574e-01 2.185942411422729492e+00 1.910095065832138062e-01
-1.200050473213195801e+00 3.420704364776611328e+00 2.681190073490142822e-01
-6.818712353706359863e-01 2.197084188461303711e+00 1.080846637487411499e-01
-6.891260743141174316e-01 2.224574327468872070e+00 2.479524910449981689e-02
-1.212881803512573242e+00 3.466962337493896484e+00 4.487414844334125519e-03
-4.607369303703308105e-01 2.032815933227539062e+00 6.142556071281433105e-01
-5.450996160507202148e-01 2.044281959533691406e+00 5.994828343391418457e-01
-1.047226190567016602e+00 3.412470817565917969e+00 9.738385677337646484e-01
-1.154048085212707520e+00 3.317644834518432617e+00 9.234882593154907227e-01
-4.719095826148986816e-01 2.080426454544067383e+00 5.417834520339965820e-01
-5.522897839546203613e-01 2.074155092239379883e+00 5.220516920089721680e-01
-1.023984909057617188e+00 3.342977046966552734e+00 8.148987293243408203e-01
-1.145614266395568848e+00 3.302684545516967773e+00 7.813891172409057617e-01
-4.880924820899963379e-01 2.150029659271240234e+00 4.734595119953155518e-01
-5.596555471420288086e-01 2.104772329330444336e+00 4.454758763313293457e-01
-9.875274896621704102e-01 3.232011318206787109e+00 6.581351161003112793e-01
-1.165541887283325195e+00 3.369628190994262695e+00 6.595414876937866211e-01
-5.634940862655639648e-01 2.122190952301025391e+00 3.658631742000579834e-01
-6.598248481750488281e-01 2.160845041275024414e+00 3.546113669872283936e-01
-1.166389346122741699e+00 3.379714012145996094e+00 5.273200869560241699e-01
-5.675650238990783691e-01 2.140534877777099609e+00 2.868275940418243408e-01
-6.566134691238403320e-01 2.157065868377685547e+00 2.708632051944732666e-01
-1.180446982383728027e+00 3.426263570785522461e+00 4.007238149642944336e-01
-6.620562076568603516e-01 2.177674293518066406e+00 1.899284720420837402e-01
-7.456973791122436523e-01 2.168082237243652344e+00 1.695751100778579712e-01
-6.698284149169921875e-01 2.206005811691284180e+00 1.083193123340606689e-01
-7.525606155395507812e-01 2.191767454147338867e+00 8.699908107519149780e-02
-6.780735850334167480e-01 2.237373590469360352e+00 2.489106729626655579e-02
-7.604350447654724121e-01 2.217220544815063477e+00 2.863735659047961235e-03
-4.482551515102386475e-01 2.035604715347290039e+00 6.142556071281433105e-01
-5.308506488800048828e-01 2.041069984436035156e+00 5.975745320320129395e-01
-1.004910469055175781e+00 3.347683429718017578e+00 9.535721540451049805e-01
-1.133045434951782227e+00 3.322832822799682617e+00 9.229797124862670898e-01
-4.610128402709960938e-01 2.091801404953002930e+00 5.439987778663635254e-01
-5.388198494911193848e-01 2.074683427810668945e+00 5.213426947593688965e-01
-6.386883854866027832e-01 2.131731271743774414e+00 5.186750888824462891e-01
-1.121871948242187500e+00 3.299487829208374023e+00 7.789895534515380859e-01
-4.908961355686187744e-01 2.225545644760131836e+00 4.894164502620697021e-01
-5.560762286186218262e-01 2.144203662872314453e+00 4.530908763408660889e-01
-6.351877450942993164e-01 2.125443458557128906e+00 4.320026934146881104e-01
-1.143265604972839355e+00 3.372060298919677734e+00 6.586320400238037109e-01
-5.509565472602844238e-01 2.127518415451049805e+00 3.661918938159942627e-01
-6.389205455780029297e-01 2.139294862747192383e+00 3.504248261451721191e-01
-1.148165822029113770e+00 3.394304275512695312e+00 5.284873843193054199e-01
-5.524339675903320312e-01 2.136296033859252930e+00 2.858000099658966064e-01
-6.430823206901550293e-01 2.160102844238281250e+00 2.707439363002777100e-01
-1.098983049392700195e+00 3.254518985748291016e+00 3.798413276672363281e-01
-6.483977437019348145e-01 2.180740356445312500e+00 1.898453086614608765e-01
-7.346101999282836914e-01 2.179232120513916016e+00 1.700914353132247925e-01
-6.588391661643981934e-01 2.218692302703857422e+00 1.087417080998420715e-01
-7.441974878311157227e-01 2.211497545242309570e+00 8.759932965040206909e-02
-7.035446763038635254e-01 2.373795747756958008e+00 2.636025846004486084e-02
-7.490463256835937500e-01 2.228479862213134766e+00 2.872287761420011520e-03
-4.363580644130706787e-01 2.041131019592285156e+00 6.151036620140075684e-01
-5.154793858528137207e-01 2.033097505569458008e+00 5.943031311035156250e-01
-6.115851998329162598e-01 2.083735466003417969e+00 5.924623608589172363e-01
-1.108650922775268555e+00 3.317797899246215820e+00 9.196742773056030273e-01
-4.481691122055053711e-01 2.094590663909912109e+00 5.439987778663635254e-01
-5.253642201423645020e-01 2.075124740600585938e+00 5.206336975097656250e-01
-6.223108768463134766e-01 2.124394655227661133e+00 5.159511566162109375e-01
-1.100680112838745117e+00 3.303531885147094727e+00 7.783350944519042969e-01
-4.796880185604095459e-01 2.239988327026367188e+00 4.919359982013702393e-01
-5.354654192924499512e-01 2.118130445480346680e+00 4.468786120414733887e-01
-6.221343278884887695e-01 2.129300832748413086e+00 4.320026934146881104e-01
-1.130613803863525391e+00 3.403274059295654297e+00 6.633611917495727539e-01
-5.333049297332763672e-01 2.112687349319458008e+00 3.630690574645996094e-01
-6.224593520164489746e-01 2.131795406341552734e+00 3.485642075538635254e-01
-1.116423726081848145e+00 3.368418216705322266e+00 5.233805179595947266e-01
-5.371339917182922363e-01 2.130990743637084961e+00 2.846439480781555176e-01
-6.300935149192810059e-01 2.164961099624633789e+00 2.708632051944732666e-01
-7.162065505981445312e-01 2.164697647094726562e+00 2.521284818649291992e-01
-6.344485282897949219e-01 2.182764053344726562e+00 1.896790117025375366e-01
-7.187228202819824219e-01 2.176122903823852539e+00 1.695013642311096191e-01
-9.738067388534545898e-01 3.354664564132690430e+00 1.641215980052947998e-01
-7.290495038032531738e-01 2.211277246475219727e+00 8.741176128387451172e-02
-9.950495958328247070e-01 3.434560298919677734e+00 3.807119652628898621e-02
-7.328562736511230469e-01 2.225435495376586914e+00 2.862513996660709381e-03
-4.255786836147308350e-01 2.052223205566406250e+00 6.176477670669555664e-01
-5.018411874771118164e-01 2.031551837921142578e+00 5.929400920867919922e-01
-5.947979688644409180e-01 2.073538541793823242e+00 5.885143280029296875e-01
-1.109032988548278809e+00 3.387958765029907227e+00 9.372184872627258301e-01
-4.317630231380462646e-01 2.080219030380249023e+00 5.395680665969848633e-01
-5.154139399528503418e-01 2.089630126953125000e+00 5.234696865081787109e-01
-6.041713356971740723e-01 2.110383749008178711e+00 5.116384029388427734e-01
-1.091289997100830078e+00 3.343622446060180664e+00 7.861882448196411133e-01
-4.677243828773498535e-01 2.251504898071289062e+00 4.938255846500396729e-01
-5.219901800155639648e-01 2.119473695755004883e+00 4.464778602123260498e-01
-6.109439730644226074e-01 2.139685392379760742e+00 4.333407878875732422e-01
-1.111536145210266113e+00 3.415757656097412109e+00 6.644525527954101562e-01
-4.746975898742675781e-01 2.287076473236083984e+00 4.127089083194732666e-01
-5.226871967315673828e-01 2.125498533248901367e+00 3.647126555442810059e-01
-6.090961694717407227e-01 2.134624719619750977e+00 3.484091460704803467e-01
-1.067936301231384277e+00 3.289577960968017578e+00 5.101026296615600586e-01
-6.195136904716491699e-01 2.178336620330810547e+00 2.720559239387512207e-01
-6.967825293540954590e-01 2.150140762329101562e+00 2.499303221702575684e-01
-6.161425113677978516e-01 2.169360399246215820e+00 1.881821900606155396e-01
-7.059707641601562500e-01 2.182389736175537109e+00 1.696488857269287109e-01
