-1.859568431973457336e-02 -6.522254347801208496e-01 1.334623992443084717e-01
-5.001385882496833801e-02 -7.583738565444946289e-01 7.787028700113296509e-02
-2.077017351984977722e-02 -7.026633620262145996e-01 6.533633172512054443e-02
-2.629448100924491882e-02 -7.293649315834045410e-01 4.118767008185386658e-02
-4.411252588033676147e-02 -7.315127253532409668e-01 6.811266392469406128e-02
-5.580491945147514343e-02 -7.538946270942687988e-01 8.048608899116516113e-03
-9.360056370496749878e-02 -7.248316407203674316e-01 1.479868311434984207e-02
-7.147501409053802490e-02 -7.276916503906250000e-01 3.435430675745010376e-02
-7.666488736867904663e-02 -7.341938614845275879e-01 3.468283265829086304e-02
-9.003107249736785889e-02 -7.284156680107116699e-01 7.814389653503894806e-03
-1.202340051531791687e-01 -7.179608345031738281e-01 7.750512100756168365e-03
-1.131263151764869690e-01 -7.004234194755554199e-01 2.663620002567768097e-02
-1.229023262858390808e-01 -7.043573856353759766e-01 8.735370938666164875e-04
-8.083509445190429688e+00 -6.788656711578369141e+00 1.289658434689044952e-02
-8.199672698974609375e+00 -6.800854206085205078e+00 1.301509235054254532e-02
-8.447800636291503906e+00 -6.919601440429687500e+00 1.334129367023706436e-02
-8.605167388916015625e+00 -6.960714817047119141e+00 1.352211087942123413e-02
-8.496138572692871094e+00 -6.786703586578369141e+00 1.328509487211704254e-02
-8.775518417358398438e+00 -6.922097682952880859e+00 1.365527976304292679e-02
-8.609549522399902344e+00 -6.705896854400634766e+00 1.333274133503437042e-02
-8.044133186340332031e+00 -6.186573028564453125e+00 1.239811908453702927e-02
-8.430768013000488281e+00 -6.401983261108398438e+00 1.293323654681444168e-02
-8.596307754516601562e+00 -6.444910526275634766e+00 1.312626991420984268e-02
-8.408224105834960938e+00 -6.223675251007080078e+00 1.278052013367414474e-02
-8.418801307678222656e+00 -6.151906013488769531e+00 1.273898035287857056e-02
-8.777550697326660156e+00 -6.331806659698486328e+00 1.322278659790754318e-02
-8.843932151794433594e+00 -6.297550678253173828e+00 1.326432451605796814e-02
-9.050941467285156250e+00 -6.361624240875244141e+00 1.351600140333175659e-02
-1.269281959533691406e+01 -6.903295993804931641e+00 4.288255870342254639e-01
-8.377442359924316406e+00 -5.811774253845214844e+00 1.245676074177026749e-02
-1.264771842956542969e+01 -6.778539180755615234e+00 4.258886277675628662e-01
-8.771048545837402344e+00 -6.005451202392578125e+00 1.298699155449867249e-02
-1.253527736663818359e+01 -6.619590282440185547e+00 4.207267165184020996e-01
-8.830932617187500000e+00 -5.967197418212890625e+00 1.302120089530944824e-02
-1.253486824035644531e+01 -6.521329402923583984e+00 4.193620383739471436e-01
-9.012978553771972656e+00 -6.009986400604248047e+00 1.323500275611877441e-02
-1.252216243743896484e+01 -6.417397499084472656e+00 4.176117479801177979e-01
-8.457400321960449219e+00 -5.564855098724365234e+00 1.236879732459783554e-02
-1.245779323577880859e+01 -6.288194179534912109e+00 4.141704440116882324e-01
-1.269564914703369141e+01 -6.994739055633544922e+00 2.935038506984710693e-01
-9.387159347534179688e+00 -6.094418048858642578e+00 1.367360446602106094e-02
-1.247465991973876953e+01 -6.200957775115966797e+00 4.134584665298461914e-01
-1.265661716461181641e+01 -6.872339725494384766e+00 2.916211187839508057e-01
-8.756620407104492188e+00 -5.608979225158691406e+00 1.270477194339036942e-02
-1.243346881866455078e+01 -6.085628986358642578e+00 4.108478426933288574e-01
-1.265887737274169922e+01 -6.773324966430664062e+00 2.907101213932037354e-01
-8.500068664550781250e+00 -5.371379375457763672e+00 1.228449679911136627e-02
-3.992673158645629883e+00 -1.923958182334899902e+00 1.315401196479797363e-01
-1.259318447113037109e+01 -6.639106273651123047e+00 2.882605195045471191e-01
-8.632155418395996094e+00 -5.381016254425048828e+00 1.242744084447622299e-02
-3.957441568374633789e+00 -1.877148032188415527e+00 1.299974918365478516e-01
-1.258133602142333984e+01 -6.534522533416748047e+00 2.870661020278930664e-01
-9.428267478942871094e+00 -5.797261238098144531e+00 1.352211087942123413e-02
-1.227166175842285156e+01 -5.728889942169189453e+00 4.019479751586914062e-01
-1.256779098510742188e+01 -6.429879665374755859e+00 2.858514487743377686e-01
-9.331983566284179688e+00 -5.659444332122802734e+00 1.333396416157484055e-02
-1.224300193786621094e+01 -5.624276161193847656e+00 3.998713493347167969e-01
-1.247307968139648438e+01 -6.285158157348632812e+00 2.828147709369659424e-01
-9.738997459411621094e+00 -5.824847221374511719e+00 1.386419497430324554e-02
-1.222262954711914062e+01 -5.524347782135009766e+00 3.980913460254669189e-01
-1.248902034759521484e+01 -6.197396278381347656e+00 2.823086678981781006e-01
-1.268079662322998047e+01 -6.874189376831054688e+00 1.535729914903640747e-01
-9.144049644470214844e+00 -5.393111228942871094e+00 1.296988781541585922e-02
-1.221702194213867188e+01 -5.431785583496093750e+00 3.968156874179840088e-01
-4.016304969787597656e+00 -1.962382078170776367e+00 9.051287919282913208e-02
-1.266187953948974609e+01 -6.763742923736572266e+00 1.528383940458297729e-01
-9.421607017517089844e+00 -5.479173183441162109e+00 1.331563759595155716e-02
-1.215487480163574219e+01 -5.315071582794189453e+00 3.937304019927978516e-01
-3.967004060745239258e+00 -1.908230900764465332e+00 8.913625776767730713e-02
-1.259695816040039062e+01 -6.630036830902099609e+00 1.515608429908752441e-01
-9.367430686950683594e+00 -5.371022224426269531e+00 1.319224294275045395e-02
-1.212757110595703125e+01 -5.214725971221923828e+00 3.918021023273468018e-01
-3.962372779846191406e+00 -1.876152396202087402e+00 8.877185732126235962e-02
-1.259212875366210938e+01 -6.529143810272216797e+00 1.510178744792938232e-01
-9.918188095092773438e+00 -5.606229305267333984e+00 1.391917280852794647e-02
-1.213172054290771484e+01 -5.128538608551025391e+00 3.909121155738830566e-01
-1.232560825347900391e+01 -5.743761062622070312e+00 2.753445804119110107e-01
-1.254913616180419922e+01 -6.409458160400390625e+00 1.500277668237686157e-01
-9.724403381347656250e+00 -5.418231487274169922e+00 1.360030099749565125e-02
-1.208450126647949219e+01 -5.021401405334472656e+00 3.883904814720153809e-01
-1.231790542602539062e+01 -5.648437976837158203e+00 2.743931114673614502e-01
-1.252123069763183594e+01 -6.298635482788085938e+00 1.492292881011962891e-01
-9.737305641174316406e+00 -5.347390174865722656e+00 1.357220113277435303e-02
-1.203920269012451172e+01 -4.916171550750732422e+00 3.859578371047973633e-01
-1.228580379486083984e+01 -5.542736053466796875e+00 2.729152739048004150e-01
-1.246824836730957031e+01 -6.176414012908935547e+00 1.481433808803558350e-01
-9.990677833557128906e+00 -5.407011032104492188e+00 1.387885585427284241e-02
-1.202182960510253906e+01 -4.823226451873779297e+00 3.844448626041412354e-01
-1.222545528411865234e+01 -5.425475597381591797e+00 2.708300650119781494e-01
-3.996678829193115234e+00 -1.949391365051269531e+00 4.734412953257560730e-02
-9.636308670043945312e+00 -5.139029979705810547e+00 1.334251556545495987e-02
-1.328887557983398438e+01 -6.988469600677490234e+00 5.636745095252990723e-01
-1.201493072509765625e+01 -4.735077857971191406e+00 3.832879066467285156e-01
-1.218246173858642578e+01 -5.317164897918701172e+00 2.691498100757598877e-01
-4.015776157379150391e+00 -1.928294420242309570e+00 4.742930456995964050e-02
-1.000316429138183594e+01 -5.256094455718994141e+00 1.380555145442485809e-02
-1.313985157012939453e+01 -6.807506561279296875e+00 5.555711388587951660e-01
-1.198969078063964844e+01 -4.640341281890869141e+00 3.815672397613525391e-01
-1.217626953125000000e+01 -5.225753307342529297e+00 2.682995200157165527e-01
-3.990466356277465820e+00 -1.886098384857177734e+00 4.699280112981796265e-02
-9.790118217468261719e+00 -5.067739486694335938e+00 1.346835400909185410e-02
-1.305320072174072266e+01 -6.661344051361083984e+00 5.501688718795776367e-01
-1.196000671386718750e+01 -4.544673442840576172e+00 3.797279298305511475e-01
-1.210769939422607422e+01 -5.108579158782958984e+00 2.660928964614868164e-01
-3.980204582214355469e+00 -1.851456046104431152e+00 4.673729091882705688e-02
-1.034486484527587891e+01 -5.274668216705322266e+00 1.418673153966665268e-02
-1.314472198486328125e+01 -6.606705188751220703e+00 5.523072481155395508e-01
-1.192210960388183594e+01 -4.446750640869140625e+00 3.776513040065765381e-01
-1.209818077087402344e+01 -5.017339229583740234e+00 2.652021348476409912e-01
-1.232997608184814453e+01 -5.643721103668212891e+00 1.443745791912078857e-01
-9.840846061706542969e+00 -4.941833019256591797e+00 1.345369312912225723e-02
-1.306679344177246094e+01 -6.467413902282714844e+00 5.473551750183105469e-01
-1.185999679565429688e+01 -4.340876102447509766e+00 3.748329877853393555e-01
-1.208985328674316406e+01 -4.927163600921630859e+00 2.643518745899200439e-01
-1.227866840362548828e+01 -5.529364585876464844e+00 1.433738321065902710e-01
-3.962018489837646484e+00 -1.959280848503112793e+00 5.400047637522220612e-03
-1.311700916290283203e+01 -6.392368793487548828e+00 5.478053092956542969e-01
-1.182620143890380859e+01 -4.246404170989990234e+00 3.729343712329864502e-01
-1.202240276336669922e+01 -4.813867092132568359e+00 2.622261941432952881e-01
-1.224562358856201172e+01 -5.424355983734130859e+00 1.425966471433639526e-01
-3.978461265563964844e+00 -1.937122344970703125e+00 5.406156182289123535e-03
-3.995808839797973633e+00 -1.917043924331665039e+00 1.663824766874313354e-01
-1.182752132415771484e+01 -4.165127754211425781e+00 3.721630573272705078e-01
-1.201914787292480469e+01 -4.727200031280517578e+00 2.615176439285278320e-01
-1.217875194549560547e+01 -5.305584907531738281e+00 1.414362043142318726e-01
-3.971335649490356445e+00 -1.903597474098205566e+00 5.380500108003616333e-03
-1.282579421997070312e+01 -6.056820869445800781e+00 5.324988961219787598e-01
-1.176120662689208984e+01 -4.060833454132080078e+00 3.692854344844818115e-01
-1.199569892883300781e+01 -4.633190631866455078e+00 2.603839337825775146e-01
-1.219177532196044922e+01 -5.222489356994628906e+00 1.412126272916793823e-01
-3.965757608413696289e+00 -1.871086597442626953e+00 5.357286892831325531e-03
-1.291255855560302734e+01 -6.001173496246337891e+00 5.345622897148132324e-01
-1.175276374816894531e+01 -3.977376699447631836e+00 3.682471215724945068e-01
-1.193789672851562500e+01 -4.526885509490966797e+00 2.585214674472808838e-01
-1.213143348693847656e+01 -5.108775138854980469e+00 1.401479989290237427e-01
-3.989861488342285156e+00 -1.852614045143127441e+00 5.374391097575426102e-03
-1.299639415740966797e+01 -5.943441867828369141e+00 5.365130901336669922e-01
-1.175512504577636719e+01 -3.897952079772949219e+00 3.675647675991058350e-01
-1.192609500885009766e+01 -4.438903331756591797e+00 2.576712071895599365e-01
-1.207939910888671875e+01 -4.999823570251464844e+00 1.391898244619369507e-01
-1.056180953979492188e+01 -4.825613021850585938e+00 1.418673153966665268e-02
-1.290776920318603516e+01 -5.807413578033447266e+00 5.313734412193298340e-01
-1.172653484344482422e+01 -3.808768033981323242e+00 3.659331500530242920e-01
-1.187985610961914062e+01 -4.338889122009277344e+00 2.560921311378479004e-01
-1.205705356597900391e+01 -4.904136657714843750e+00 1.385829895734786987e-01
-1.007953548431396484e+01 -4.530715942382812500e+00 1.350134052336215973e-02
-1.290112495422363281e+01 -5.709500789642333984e+00 5.296477079391479492e-01
-1.167824268341064453e+01 -3.714023113250732422e+00 3.637081682682037354e-01
-1.184978199005126953e+01 -4.245680332183837891e+00 2.548774480819702148e-01
-1.205256175994873047e+01 -4.816334724426269531e+00 1.381890773773193359e-01
-9.964469909667968750e+00 -4.405700683593750000e+00 1.331075094640254974e-02
-1.251351356506347656e+01 -5.446387767791748047e+00 5.123529434204101562e-01
-1.167504405975341797e+01 -3.634275674819946289e+00 3.629072010517120361e-01
-1.184259605407714844e+01 -4.161291122436523438e+00 2.541688978672027588e-01
-1.202231502532958984e+01 -4.718908309936523438e+00 1.375077068805694580e-01
-9.972057342529296875e+00 -4.336102962493896484e+00 1.328509487211704254e-02
-1.254210281372070312e+01 -5.367537498474121094e+00 5.121653676033020020e-01
-1.164644432067871094e+01 -3.547135353088378906e+00 3.613348603248596191e-01
-1.179701137542724609e+01 -4.064124107360839844e+00 2.526505887508392334e-01
-1.200532531738281250e+01 -4.627429962158203125e+00 1.369860470294952393e-01
-9.893653869628906250e+00 -4.230017662048339844e+00 1.314581651240587234e-02
-1.268533229827880859e+01 -5.336982727050781250e+00 5.166672468185424805e-01
-1.164499950408935547e+01 -3.468758821487426758e+00 3.606228530406951904e-01
-1.178288841247558594e+01 -3.978548765182495117e+00 2.518205344676971436e-01
-1.191565418243408203e+01 -4.509087562561035156e+00 1.356445997953414917e-01
-1.060806655883789062e+01 -4.458675861358642578e+00 1.405845023691654205e-02
-1.262734222412109375e+01 -5.221623897552490234e+00 5.129907131195068359e-01
-1.168717765808105469e+01 -3.403389692306518555e+00 3.612755239009857178e-01
-1.177670478820800781e+01 -3.896126508712768555e+00 2.511727213859558105e-01
-1.194403457641601562e+01 -4.436237812042236328e+00 1.356552541255950928e-01
-1.048827075958251953e+01 -4.332794189453125000e+00 1.386419497430324554e-02
-1.253879261016845703e+01 -5.095140457153320312e+00 5.081136822700500488e-01
-1.173860549926757812e+01 -3.340368986129760742e+00 3.622248768806457520e-01
-1.174046993255615234e+01 -3.804376363754272461e+00 2.498973309993743896e-01
-1.193626976013183594e+01 -4.350198268890380859e+00 1.352613419294357300e-01
-1.052207183837890625e+01 -4.271367073059082031e+00 1.387396920472383499e-02
-1.241854381561279297e+01 -4.957715988159179688e+00 5.019986033439636230e-01
-1.183496093750000000e+01 -3.289425373077392578e+00 3.645685017108917236e-01
-1.171498966217041016e+01 -3.716846466064453125e+00 2.488648593425750732e-01
-1.188552665710449219e+01 -4.249272823333740234e+00 1.343883424997329712e-01
-1.065582847595214844e+01 -4.249695301055908203e+00 1.401568856090307236e-02
-1.238639831542968750e+01 -4.856982231140136719e+00 4.994850456714630127e-01
-1.194560146331787109e+01 -3.241350650787353516e+00 3.673571050167083740e-01
-1.168028640747070312e+01 -3.627104759216308594e+00 2.476502060890197754e-01
-1.183777427673339844e+01 -4.150459289550781250e+00 1.335579305887222290e-01
-1.087351226806640625e+01 -4.259367465972900391e+00 1.426736544817686081e-02
-1.233763217926025391e+01 -4.750725746154785156e+00 4.963336884975433350e-01
-1.203193759918212891e+01 -3.185645341873168945e+00 3.694040775299072266e-01
-1.163918495178222656e+01 -3.536185503005981445e+00 2.463140785694122314e-01
-1.181384468078613281e+01 -4.060842990875244141e+00 1.330043226480484009e-01
-1.055784320831298828e+01 -4.061169624328613281e+00 1.382021233439445496e-02
-1.241235160827636719e+01 -4.692248344421386719e+00 4.981719553470611572e-01
-1.211029434204101562e+01 -3.127002716064453125e+00 3.712137341499328613e-01
-1.163574600219726562e+01 -3.457298278808593750e+00 2.457877099514007568e-01
-1.174188232421875000e+01 -3.955715656280517578e+00 1.319184005260467529e-01
-1.023455142974853516e+01 -3.864891052246093750e+00 1.336572878062725067e-02
-1.237345409393310547e+01 -4.590970993041992188e+00 4.954708516597747803e-01
-1.224557304382324219e+01 -3.081911325454711914e+00 3.747736811637878418e-01
-1.171050643920898438e+01 -3.401454687118530273e+00 2.469214051961898804e-01
-1.171655654907226562e+01 -3.867296457290649414e+00 1.313647925853729248e-01
-8.867514610290527344e+00 -3.286627531051635742e+00 1.155390311032533646e-02
-1.229622173309326172e+01 -4.476674079895019531e+00 4.912690520286560059e-01
-1.231473541259765625e+01 -3.019092321395874023e+00 3.763163089752197266e-01
-1.179174995422363281e+01 -3.346734046936035156e+00 2.481967955827713013e-01
-1.172103595733642578e+01 -3.789180278778076172e+00 1.311518549919128418e-01
-8.868717193603515625e+00 -3.225320100784301758e+00 1.152946799993515015e-02
-1.230651950836181641e+01 -4.395092010498046875e+00 4.905937910079956055e-01
-1.241664218902587891e+01 -2.963429450988769531e+00 3.788676261901855469e-01
-1.187854290008544922e+01 -3.292746305465698242e+00 2.495936602354049683e-01
-1.168591213226318359e+01 -3.698783636093139648e+00 1.305024325847625732e-01
-8.765898704528808594e+00 -3.127161741256713867e+00 1.137064304202795029e-02
-1.228044128417968750e+01 -4.301000595092773438e+00 4.884929060935974121e-01
-1.247743225097656250e+01 -2.897133827209472656e+00 3.801729381084442139e-01
-1.195160293579101562e+01 -3.234162569046020508e+00 2.507071197032928467e-01
-1.164057064056396484e+01 -3.606002569198608398e+00 1.297465562820434570e-01
-1.075862693786621094e+01 -3.763797283172607422e+00 1.392528135329484940e-02
-1.213742160797119141e+01 -4.167479038238525391e+00 4.817776083946228027e-01
-1.258760166168212891e+01 -2.841428279876708984e+00 3.829912245273590088e-01
-1.202245521545410156e+01 -3.174295186996459961e+00 2.517800629138946533e-01
-1.161750030517578125e+01 -3.520878314971923828e+00 1.292461752891540527e-01
-1.102745628356933594e+01 -3.782061338424682617e+00 1.424293126910924911e-02
-1.215802860260009766e+01 -4.091333389282226562e+00 4.815900027751922607e-01
-1.268486118316650391e+01 -2.781695365905761719e+00 3.854238688945770264e-01
-1.210754585266113281e+01 -3.117419242858886719e+00 2.531566917896270752e-01
-1.164559650421142578e+01 -3.451517581939697266e+00 1.293206959962844849e-01
-1.107983875274658203e+01 -3.724203586578369141e+00 1.428080443292856216e-02
-1.216012573242187500e+01 -4.009146690368652344e+00 4.806896150112152100e-01
-1.281900882720947266e+01 -2.728783845901489258e+00 3.889838159084320068e-01
-1.224281311035156250e+01 -3.072271823883056641e+00 2.555860280990600586e-01
-1.169536972045898438e+01 -3.388344287872314453e+00 1.296400874853134155e-01
-1.108158588409423828e+01 -3.649267673492431641e+00 1.425392646342515945e-02
-1.201522731781005859e+01 -3.879799604415893555e+00 4.740118086338043213e-01
-1.288152027130126953e+01 -2.659575700759887695e+00 3.903781175613403320e-01
-1.232844638824462891e+01 -3.013473510742187500e+00 2.569828927516937256e-01
-1.179483509063720703e+01 -3.338852643966674805e+00 1.305130869150161743e-01
-1.088677501678466797e+01 -3.511218547821044922e+00 1.397537160664796829e-02
-1.212646675109863281e+01 -3.833715438842773438e+00 4.774632453918457031e-01
-1.293974208831787109e+01 -2.588918447494506836e+00 3.916537761688232422e-01
-1.236518478393554688e+01 -2.942167997360229492e+00 2.573675215244293213e-01
-1.184208583831787109e+01 -3.273878574371337891e+00 1.308111846446990967e-01
-1.111695194244384766e+01 -3.510294914245605469e+00 1.424293126910924911e-02
-1.206097984313964844e+01 -3.731766939163208008e+00 4.739743173122406006e-01
-1.301230049133300781e+01 -2.520497798919677734e+00 3.933744132518768311e-01
-1.246287631988525391e+01 -2.884728908538818359e+00 2.590275704860687256e-01
-1.197973060607910156e+01 -3.232939958572387695e+00 1.321100294589996338e-01
-1.104082775115966797e+01 -3.411900997161865234e+00 1.411831472069025040e-02
-1.206547832489013672e+01 -3.652191162109375000e+00 4.732615053653717041e-01
-1.315917205810546875e+01 -2.465272188186645508e+00 3.973497152328491211e-01
-1.259641551971435547e+01 -2.834321498870849609e+00 2.614366710186004639e-01
-1.207670021057128906e+01 -3.179741144180297852e+00 1.329617351293563843e-01
-1.122332382202148438e+01 -3.392997026443481445e+00 1.432478707283735275e-02
-1.229846382141113281e+01 -3.640490531921386719e+00 4.815149903297424316e-01
-1.329207992553710938e+01 -2.405845642089843750e+00 4.009096622467041016e-01
-1.268291759490966797e+01 -2.772135496139526367e+00 2.628740072250366211e-01
-1.214634704589843750e+01 -3.118510723114013672e+00 1.335153430700302124e-01
-1.117009162902832031e+01 -3.302238464355468750e+00 1.423071417957544327e-02
-1.233784866333007812e+01 -3.569959402084350586e+00 4.821902513504028320e-01
-1.338733291625976562e+01 -2.338344812393188477e+00 4.033422768115997314e-01
-1.280629348754882812e+01 -2.716878890991210938e+00 2.650806605815887451e-01
-1.224770641326904297e+01 -3.064554452896118164e+00 1.344202756881713867e-01
-1.090289688110351562e+01 -3.150631666183471680e+00 1.386541686952114105e-02
-1.240856266021728516e+01 -3.508053302764892578e+00 4.841035604476928711e-01
-1.350788307189941406e+01 -2.274079322814941406e+00 4.065462350845336914e-01
-1.287070751190185547e+01 -2.648122549057006836e+00 2.660726308822631836e-01
-1.233525753021240234e+01 -3.006156206130981445e+00 1.351761668920516968e-01
-1.100189971923828125e+01 -3.106225490570068359e+00 1.396681927144527435e-02
-1.254062938690185547e+01 -3.462434530258178711e+00 4.884178936481475830e-01
-1.362518501281738281e+01 -2.207942485809326172e+00 4.096612036228179932e-01
-1.303182792663574219e+01 -2.598029613494873047e+00 2.690688073635101318e-01
-1.243227958679199219e+01 -2.949106454849243164e+00 1.360385268926620483e-01
-1.096001815795898438e+01 -3.021914958953857422e+00 1.388985104858875275e-02
-1.276040077209472656e+01 -3.438988924026489258e+00 4.961461126804351807e-01
-1.379551219940185547e+01 -2.148757934570312500e+00 4.143781065940856934e-01
-1.312900352478027344e+01 -2.533743381500244141e+00 2.707490921020507812e-01
-1.253295993804931641e+01 -2.891877889633178711e+00 1.369434595108032227e-01
-1.075239467620849609e+01 -2.893795967102050781e+00 1.360396575182676315e-02
-1.284311485290527344e+01 -3.376890897750854492e+00 4.985471367835998535e-01
-1.389642143249511719e+01 -2.077221632003784180e+00 4.170184135437011719e-01
-1.320523834228515625e+01 -2.464510202407836914e+00 2.720042765140533447e-01
-1.264315891265869141e+01 -2.835712194442749023e+00 1.379548460245132446e-01
-1.131449127197265625e+01 -2.970741748809814453e+00 1.429180055856704712e-02
-1.279873847961425781e+01 -3.281395673751831055e+00 4.960335791110992432e-01
-1.403060913085937500e+01 -2.009344816207885742e+00 4.206673502922058105e-01
-1.332834434509277344e+01 -2.402951002120971680e+00 2.742311358451843262e-01
-1.271894264221191406e+01 -2.770852804183959961e+00 1.385936290025711060e-01
-1.147297573089599609e+01 -2.937223196029663086e+00 1.446895115077495575e-02
-1.279827117919921875e+01 -3.197715282440185547e+00 4.952457249164581299e-01
-1.416250228881835938e+01 -1.939628005027770996e+00 4.242569804191589355e-01
-1.346202278137207031e+01 -2.341858148574829102e+00 2.766807377338409424e-01
-1.287658214569091797e+01 -2.722544908523559570e+00 1.401267051696777344e-01
-1.154705810546875000e+01 -2.880810976028442383e+00 1.453981176018714905e-02
-1.286522960662841797e+01 -3.130704402923583984e+00 4.970840215682983398e-01
-1.424549865722656250e+01 -1.862019658088684082e+00 4.263929724693298340e-01
-1.354516124725341797e+01 -2.270783901214599609e+00 2.780978381633758545e-01
-1.293124771118164062e+01 -2.651317119598388672e+00 1.405419111251831055e-01
-1.182007980346679688e+01 -2.872001409530639648e+00 1.486112643033266068e-02
-1.303102779388427734e+01 -3.086483716964721680e+00 5.027489066123962402e-01
-1.440048122406005859e+01 -1.792478322982788086e+00 4.306945502758026123e-01
-1.367530918121337891e+01 -2.206421136856079102e+00 2.804866731166839600e-01
-1.299925422668457031e+01 -2.582248449325561523e+00 1.411061584949493408e-01
-1.189684200286865234e+01 -2.813459157943725586e+00 1.493565179407596588e-02
-1.310620021820068359e+01 -3.019480705261230469e+00 5.049248337745666504e-01
-1.456506824493408203e+01 -1.722278356552124023e+00 4.352928102016448975e-01
-1.378442478179931641e+01 -2.137329101562500000e+00 2.824503779411315918e-01
-1.310715770721435547e+01 -2.520185708999633789e+00 1.421069204807281494e-01
-1.187782382965087891e+01 -2.732114553451538086e+00 1.489044819027185440e-02
-1.318883991241455078e+01 -2.953418016433715820e+00 5.074008703231811523e-01
-1.460516262054443359e+01 -1.636214971542358398e+00 4.361828267574310303e-01
-1.384079170227050781e+01 -2.059182882308959961e+00 2.833411395549774170e-01
-1.320003986358642578e+01 -2.454153776168823242e+00 1.429479718208312988e-01
-1.185825538635253906e+01 -2.651109457015991211e+00 1.484524458646774292e-02
-1.323600769042968750e+01 -2.878808498382568359e+00 5.085263252258300781e-01
-1.474017238616943359e+01 -1.559822201728820801e+00 4.399207532405853271e-01
-1.399668693542480469e+01 -1.994671702384948730e+00 2.862765789031982422e-01
-1.337232112884521484e+01 -2.401392459869384766e+00 1.446513831615447998e-01
-1.097231769561767578e+01 -2.382448911666870117e+00 1.371758710592985153e-02
-1.328959941864013672e+01 -2.805176019668579102e+00 5.099143981933593750e-01
-1.491159152984619141e+01 -1.485499858856201172e+00 4.447563588619232178e-01
-1.413051128387451172e+01 -1.925354599952697754e+00 2.887666523456573486e-01
-1.350207996368408203e+01 -2.339267969131469727e+00 1.458970010280609131e-01
-1.109338760375976562e+01 -2.337553739547729492e+00 1.385075598955154419e-02
-1.340641880035400391e+01 -2.744018554687500000e+00 5.137410163879394531e-01
-1.428284549713134766e+01 -1.856918931007385254e+00 2.916413843631744385e-01
-1.356549453735351562e+01 -2.264609336853027344e+00 1.464293152093887329e-01
-1.137499523162841797e+01 -2.324091196060180664e+00 1.418428774923086166e-02
-1.357003593444824219e+01 -2.690862417221069336e+00 5.193684101104736328e-01
-1.441601276397705078e+01 -1.784351944923400879e+00 2.941314280033111572e-01
-1.364034652709960938e+01 -2.191163301467895508e+00 1.470893919467926025e-01
-1.216694927215576172e+01 -2.408224344253540039e+00 1.515312027186155319e-02
-1.364124870300292969e+01 -2.618095159530639648e+00 5.214692950248718262e-01
-1.457066917419433594e+01 -1.712788224220275879e+00 2.970668673515319824e-01
-1.375927543640136719e+01 -2.123747587203979492e+00 1.482285410165786743e-01
-1.231408596038818359e+01 -2.358923196792602539e+00 1.531805377453565598e-02
-1.379559135437011719e+01 -2.560052871704101562e+00 5.267589688301086426e-01
-1.468027019500732422e+01 -1.634414792060852051e+00 2.990913093090057373e-01
-1.389767074584960938e+01 -2.057883739471435547e+00 1.495806127786636353e-01
-1.237355899810791016e+01 -2.291697978973388672e+00 1.537425350397825241e-02
-1.400874805450439453e+01 -2.510791778564453125e+00 5.342996716499328613e-01
-1.483618640899658203e+01 -1.559673309326171875e+00 3.020672500133514404e-01
-1.404468154907226562e+01 -1.991664648056030273e+00 1.510285288095474243e-01
-1.165501117706298828e+01 -2.084732055664062500e+00 1.446528546512126923e-02
-1.417651653289794922e+01 -2.451178073883056641e+00 5.401145815849304199e-01
-1.407150077819824219e+01 -1.907465219497680664e+00 1.511882096529006958e-01
-1.258699703216552734e+01 -2.171818971633911133e+00 1.560516003519296646e-02
-1.424057579040527344e+01 -2.372357130050659180e+00 5.419903993606567383e-01
-1.414640808105468750e+01 -1.829295396804809570e+00 1.518695801496505737e-01
-1.253695297241210938e+01 -2.084050893783569336e+00 1.552696991711854935e-02
-1.445516395568847656e+01 -2.317040443420410156e+00 5.496060848236083984e-01
-1.413751697540283203e+01 -1.740017294883728027e+00 1.516566574573516846e-01
-1.240237426757812500e+01 -1.983555197715759277e+00 1.534493174403905869e-02
-1.450466537475585938e+01 -2.233777284622192383e+00 5.509566664695739746e-01
-1.452235794067382812e+01 -1.696992039680480957e+00 1.556703150272369385e-01
-1.263571357727050781e+01 -1.941436052322387695e+00 1.561859901994466782e-02
-1.460706901550292969e+01 -2.157879829406738281e+00 5.543330907821655273e-01
-1.461399555206298828e+01 -1.616869330406188965e+00 1.565433144569396973e-01
-1.222495079040527344e+01 -1.801612854003906250e+00 1.509692054241895676e-02
-1.467940139770507812e+01 -2.076610088348388672e+00 5.565840005874633789e-01
-1.474099636077880859e+01 -1.539424657821655273e+00 1.577995717525482178e-01
-1.148620128631591797e+01 -1.620797157287597656e+00 1.417207065969705582e-02
-1.483644771575927734e+01 -2.006048917770385742e+00 5.620613098144531250e-01
-1.490739822387695312e+01 -1.464392185211181641e+00 1.594816893339157104e-01
-1.180513191223144531e+01 -1.591986060142517090e+00 1.455325074493885040e-02
-1.488514804840087891e+01 -1.919705748558044434e+00 5.634494423866271973e-01
-1.494497966766357422e+01 -1.375552415847778320e+00 1.597904413938522339e-01
-1.217173576354980469e+01 -1.565443515777587891e+00 1.499307341873645782e-02
-1.494326400756835938e+01 -1.834057569503784180e+00 5.652126669883728027e-01
-1.129770374298095703e+01 -1.382617831230163574e+00 1.390573382377624512e-02
-1.103479766845703125e+01 -1.281771183013916016e+00 1.357220113277435303e-02
-1.215077686309814453e+01 -1.335890889167785645e+00 1.493443083018064499e-02
-1.253671646118164062e+01 -1.300519585609436035e+00 1.539868861436843872e-02
-1.186767196655273438e+01 -1.157558083534240723e+00 1.456791162490844727e-02
-1.249695968627929688e+01 -1.141573429107666016e+00 1.533149275928735733e-02
-1.210816097259521484e+01 -1.031183719635009766e+00 1.484646555036306381e-02
-1.233856105804443359e+01 -9.745870232582092285e-01 1.512135565280914307e-02
-1.201817226409912109e+01 -8.751127719879150391e-01 1.472184900194406509e-02
-1.185668563842773438e+01 -7.902482748031616211e-01 1.451782044023275375e-02
-1.218971157073974609e+01 -7.373468279838562012e-01 1.491976995021104813e-02
-1.220099544525146484e+01 -6.629180312156677246e-01 1.492832228541374207e-02
-1.235665702819824219e+01 -5.953567028045654297e-01 1.511402428150177002e-02
-1.245199584960937500e+01 -5.233900547027587891e-01 1.522642374038696289e-02
-1.256290435791015625e+01 -4.508495330810546875e-01 1.535837166011333466e-02
-1.256843185424804688e+01 -3.738456964492797852e-01 1.536203548312187195e-02
-1.211261749267578125e+01 -2.859123647212982178e-01 1.480248291045427322e-02
-1.292002105712890625e+01 -2.256607860326766968e-01 1.578719913959503174e-02
-1.298515796661376953e+01 -1.471057683229446411e-01 1.586538925766944885e-02
-1.286781787872314453e+01 -6.681486964225769043e-02 1.572122424840927124e-02
-1.285998535156250000e+01 1.213428191840648651e-02 1.571145094931125641e-02
-1.303366374969482422e+01 9.227325767278671265e-02 1.592403091490268707e-02
-1.309284782409667969e+01 1.730374842882156372e-01 1.599733531475067139e-02
-1.325350856781005859e+01 2.565051317214965820e-01 1.619525626301765442e-02
-1.303275680541992188e+01 3.322412073612213135e-01 1.592769660055637360e-02
-1.301548004150390625e+01 4.117281734943389893e-01 1.590937003493309021e-02
-1.363726234436035156e+01 5.151757001876831055e-01 1.667295210063457489e-02
-1.359488296508789062e+01 5.971313714981079102e-01 1.662530563771724701e-02
-1.323440933227539062e+01 6.626831293106079102e-01 1.618914678692817688e-02
-1.300145530700683594e+01 7.310200333595275879e-01 1.590937003493309021e-02
-1.285599899291992188e+01 8.020027279853820801e-01 1.573710702359676361e-02
-1.292566013336181641e+01 8.859994411468505859e-01 1.582873612642288208e-02
-1.301870536804199219e+01 9.726691842079162598e-01 1.594968698918819427e-02
-1.323077869415283203e+01 1.070188522338867188e+00 1.621724665164947510e-02
-1.325484657287597656e+01 1.154039740562438965e+00 1.625511981546878815e-02
-1.295677757263183594e+01 1.208236575126647949e+00 1.589837484061717987e-02
-1.334516620635986328e+01 1.327099561691284180e+00 1.638462394475936890e-02
-1.283953952789306641e+01 1.356428980827331543e+00 1.577375829219818115e-02
-1.307843208312988281e+01 1.462864279747009277e+00 1.607796922326087952e-02
-1.306921005249023438e+01 1.543084502220153809e+00 1.607796922326087952e-02
-1.295331287384033203e+01 1.610048413276672363e+00 1.594724506139755249e-02
-1.324066638946533203e+01 1.728328347206115723e+00 1.631376333534717560e-02
-1.330808353424072266e+01 1.820244789123535156e+00 1.641028188169002533e-02
-1.331844234466552734e+01 1.904982328414916992e+00 1.643715798854827881e-02
-1.323924827575683594e+01 1.976625800132751465e+00 1.635408028960227966e-02
-1.334840869903564453e+01 2.076731920242309570e+00 1.650435477495193481e-02
-1.361576461791992188e+01 2.203977108001708984e+00 1.685132458806037903e-02
-1.320259475708007812e+01 2.220313787460327148e+00 1.635652408003807068e-02
-1.318872261047363281e+01 2.301281690597534180e+00 1.635652408003807068e-02
-1.375297069549560547e+01 2.486787319183349609e+00 1.707490161061286926e-02
-1.342094802856445312e+01 2.511889457702636719e+00 1.668150350451469421e-02
-1.346419048309326172e+01 2.605591297149658203e+00 1.675480790436267853e-02
-1.331949043273925781e+01 2.662478923797607422e+00 1.659476198256015778e-02
-6.635200977325439453e+00 1.877025485038757324e+00 1.396258771419525146e-01
-1.314718246459960938e+01 2.712033271789550781e+00 1.640050671994686127e-02
-6.618757247924804688e+00 1.916312694549560547e+00 1.395246535539627075e-01
-1.333961200714111328e+01 2.837171077728271484e+00 1.666195690631866455e-02
-1.321059322357177734e+01 2.894568204879760742e+00 1.652267947793006897e-02
-1.334963893890380859e+01 3.010995864868164062e+00 1.671937853097915649e-02
-1.352671241760253906e+01 3.138277769088745117e+00 1.696494594216346741e-02
-1.343327426910400391e+01 3.203586816787719727e+00 1.687209494411945343e-02
-6.563705921173095703e+00 1.861672878265380859e+00 7.263975590467453003e-02
-1.329584026336669922e+01 3.257160902023315430e+00 1.672426611185073853e-02
-6.598253726959228516e+00 1.915291905403137207e+00 7.315078377723693848e-02
-1.348993015289306641e+01 3.392582178115844727e+00 1.699426770210266113e-02
-1.322194671630859375e+01 3.411581516265869141e+00 1.668272726237773895e-02
-1.327713680267333984e+01 3.512851953506469727e+00 1.677924208343029022e-02
-1.373211479187011719e+01 3.723535060882568359e+00 1.738277822732925415e-02
-1.370900917053222656e+01 3.807723522186279297e+00 1.738277822732925415e-02
-6.592609405517578125e+00 1.874766826629638672e+00 8.373738266527652740e-03
-6.573300361633300781e+00 1.912947654724121094e+00 8.363964967429637909e-03
-1.299253177642822266e+01 3.867686986923217773e+00 1.656177453696727753e-02
-1.335791778564453125e+01 4.065847873687744141e+00 1.705901883542537689e-02
-1.344825744628906250e+01 4.183677196502685547e+00 1.720684766769409180e-02
-1.293343448638916016e+01 4.110725402832031250e+00 1.658010110259056091e-02
-1.291367435455322266e+01 4.191858291625976562e+00 1.658743061125278473e-02
-1.363095855712890625e+01 4.517330169677734375e+00 1.754404604434967041e-02
-1.320417881011962891e+01 4.465996742248535156e+00 1.702969893813133240e-02
-1.290522575378417969e+01 4.453311920166015625e+00 1.667906157672405243e-02
-1.352852153778076172e+01 4.761490821838378906e+00 1.752205565571784973e-02
-1.343034172058105469e+01 4.819752693176269531e+00 1.743286848068237305e-02
-1.323241043090820312e+01 4.840574264526367188e+00 1.721417903900146484e-02
-1.313312053680419922e+01 4.895826816558837891e+00 1.712377183139324188e-02
-1.310657215118408203e+01 4.977738380432128906e+00 1.712865754961967468e-02
-1.331174373626708984e+01 5.149341106414794922e+00 1.743775606155395508e-02
-1.325198554992675781e+01 5.219928741455078125e+00 1.740110479295253754e-02
-1.322249126434326172e+01 5.302259445190429688e+00 1.740476861596107483e-02
-1.285084629058837891e+01 5.244987487792968750e+00 1.695761643350124359e-02
-1.334759712219238281e+01 5.543516635894775391e+00 1.765766739845275879e-02
-1.325069236755371094e+01 5.598845005035400391e+00 1.757458969950675964e-02
-1.313248443603515625e+01 5.644112110137939453e+00 1.746341213583946228e-02
-1.327536773681640625e+01 5.802280426025390625e+00 1.770042814314365387e-02
-1.331444931030273438e+01 5.916927337646484375e+00 1.780060864984989166e-02
-1.329065227508544922e+01 6.004275798797607422e+00 1.781771332025527954e-02
-1.317994880676269531e+01 6.051912307739257812e+00 1.771875284612178802e-02
-1.322956275939941406e+01 6.173263549804687500e+00 1.783603988587856293e-02
-1.295650291442871094e+01 6.142936229705810547e+00 1.751838997006416321e-02
-1.315190982818603516e+01 6.334711551666259766e+00 1.783481799066066742e-02
-1.307237148284912109e+01 6.395514965057373047e+00 1.777984015643596649e-02
-1.258958816528320312e+01 6.255346775054931641e+00 1.717508397996425629e-02
-1.250990009307861328e+01 6.311756610870361328e+00 1.711888425052165985e-02
-1.253323745727539062e+01 6.420311450958251953e+00 1.720440573990345001e-02
-1.253530597686767578e+01 6.518777847290039062e+00 1.726182550191879272e-02
-1.263833713531494141e+01 6.671193599700927734e+00 1.745974645018577576e-02
-1.266504001617431641e+01 6.784976959228515625e+00 1.755382120609283447e-02
-1.242988586425781250e+01 6.757482051849365234e+00 1.728503964841365814e-02
-1.260271358489990234e+01 6.951960563659667969e+00 1.758436299860477448e-02
-1.227010631561279297e+01 6.867018699645996094e+00 1.717874966561794281e-02
-1.232165908813476562e+01 6.995499134063720703e+00 1.731069572269916534e-02
-7.990584850311279297e+00 5.696078777313232422e+00 1.986991465091705322e-01
-7.987852573394775391e+00 5.702414035797119141e+00 1.044935137033462524e-01
-7.993107318878173828e+00 5.640671730041503906e+00 1.195218600332736969e-02
-7.982751846313476562e+00 5.707058429718017578e+00 1.198883913457393646e-02
-3.223359346389770508e+00 5.525177478790283203e+00 1.295239031314849854e-01
-3.184910535812377930e+00 5.537051677703857422e+00 1.293417066335678101e-01
-3.209470033645629883e+00 5.510066032409667969e+00 6.789150834083557129e-02
-3.177094459533691406e+00 5.532256126403808594e+00 6.792344152927398682e-02
-3.204353570938110352e+00 5.509984970092773438e+00 7.787308190017938614e-03
-3.166008234024047852e+00 5.521735191345214844e+00 7.776312995702028275e-03
-1.099965572357177734e+00 3.123521566390991211e+00 9.828427433967590332e-02
-1.072297453880310059e+00 3.105646371841430664e+00 9.751295298337936401e-02
-1.039763689041137695e+00 3.072401285171508789e+00 9.626696258783340454e-02
-1.122289419174194336e+00 3.132333278656005859e+00 6.737348437309265137e-02
-1.095756888389587402e+00 3.118408918380737305e+00 6.692811101675033569e-02
-1.075950741767883301e+00 3.123183012008666992e+00 6.688761711120605469e-02
-1.041734337806701660e+00 3.085205316543579102e+00 6.593613326549530029e-02
-1.063887000083923340e+00 3.095070362091064453e+00 3.484536707401275635e-02
-1.094019412994384766e+00 3.066698789596557617e+00 3.977953456342220306e-03
-1.076502799987792969e+00 3.077129602432250977e+00 3.982840571552515030e-03
-1.058574914932250977e+00 3.086514949798583984e+00 3.986505791544914246e-03
-1.031013965606689453e+00 3.067358970642089844e+00 3.953518811613321304e-03
-1.022529378533363342e-01 6.872928142547607422e-01 1.406988408416509628e-02
-9.002210944890975952e-02 6.961638927459716797e-01 7.473708130419254303e-03
-9.716033190488815308e-02 7.204777598381042480e-01 8.881979156285524368e-04
-3.563047572970390320e-02 7.290885448455810547e-01 7.771804463118314743e-03
-2.682695165276527405e-02 7.334679961204528809e-01 7.814389653503894806e-03
-2.195244841277599335e-02 7.012182474136352539e-01 5.854187905788421631e-02
-1.334576867520809174e-02 7.014348506927490234e-01 5.854187905788421631e-02
-6.391084287315607071e-03 6.820422410964965820e-01 1.860821247100830078e-01
-3.513738512992858887e-02 7.868539690971374512e-01 1.456957310438156128e-01
-1.304724346846342087e-02 7.323678135871887207e-01 2.749906294047832489e-02
