-8.190903067588806152e-02 -4.995471954345703125e+00 9.729618430137634277e-01
-4.514635503292083740e-01 -5.009787559509277344e+00 8.887508511543273926e-01
-2.663309872150421143e-01 -4.983088493347167969e+00 8.314922451972961426e-01
-8.302140235900878906e-02 -5.009970188140869141e+00 7.864401936531066895e-01
-4.529922604560852051e-01 -5.016955375671386719e+00 7.016806602478027344e-01
-2.696748077869415283e-01 -5.012818336486816406e+00 6.502110362052917480e-01
-1.100276336073875427e-01 -5.038714885711669922e+00 1.174679875373840332e+00
-4.846170842647552490e-01 -5.041298866271972656e+00 1.087592124938964844e+00
-2.975085377693176270e-01 -5.021052837371826172e+00 1.028822898864746094e+00
-1.129350662231445312e-01 -5.011557579040527344e+00 9.762114882469177246e-01
-4.822889268398284912e-01 -5.007903099060058594e+00 8.889247775077819824e-01
-2.980166971683502197e-01 -5.000068664550781250e+00 8.346150517463684082e-01
-1.136707291007041931e-01 -5.005416393280029297e+00 7.858200073242187500e-01
-4.834818243980407715e-01 -5.011123657226562500e+00 7.012667655944824219e-01
-3.009619414806365967e-01 -5.019978523254394531e+00 6.513670682907104492e-01
-3.315252065658569336e-01 -5.123172760009765625e+00 1.454679727554321289e+00
-1.405884772539138794e-01 -5.025289058685302734e+00 1.171728968620300293e+00
-5.163369774818420410e-01 -5.046011447906494141e+00 1.089271783828735352e+00
-3.281196653842926025e-01 -5.016199588775634766e+00 1.028221607208251953e+00
-1.435144692659378052e-01 -5.004883289337158203e+00 9.750645756721496582e-01
-5.135098099708557129e-01 -5.009747505187988281e+00 8.897947669029235840e-01
-3.284967541694641113e-01 -4.995193481445312500e+00 8.341220021247863770e-01
-1.441818326711654663e-01 -4.997712135314941406e+00 7.847346067428588867e-01
-5.145239233970642090e-01 -5.011018753051757812e+00 7.016806602478027344e-01
-3.320854008197784424e-01 -5.022985458374023438e+00 6.520093083381652832e-01
-3.631581962108612061e-01 -5.123920917510986328e+00 1.455497503280639648e+00
-2.233367115259170532e-01 -6.648141860961914062e+00 1.814761400222778320e+00
-3.551077246665954590e-01 -4.985655307769775391e+00 1.215678453445434570e+00
-1.712211817502975464e-01 -5.018491744995117188e+00 1.170367002487182617e+00
-5.464450716972351074e-01 -5.034972190856933594e+00 1.087592124938964844e+00
-3.593119978904724121e-01 -5.019955158233642578e+00 1.029423952102661133e+00
-1.738113015890121460e-01 -4.992136955261230469e+00 9.727706909179687500e-01
-5.451971888542175293e-01 -5.015313148498535156e+00 8.913607001304626465e-01
-3.595651090145111084e-01 -4.998987197875976562e+00 8.351081609725952148e-01
-1.753281652927398682e-01 -5.010555744171142578e+00 7.869054079055786133e-01
-5.460117459297180176e-01 -5.014659881591796875e+00 7.026464343070983887e-01
-3.634000420570373535e-01 -5.027777194976806641e+00 6.529085040092468262e-01
-2.652739286422729492e-01 -6.675565719604492188e+00 1.822657227516174316e+00
-3.844927847385406494e-01 -4.967882633209228516e+00 1.211897253990173340e+00
-2.017757594585418701e-01 -5.011507987976074219e+00 1.169005036354064941e+00
-1.803733408451080322e-02 -5.025938987731933594e+00 1.123437762260437012e+00
-5.772173404693603516e-01 -5.030553340911865234e+00 1.087382197380065918e+00
-3.885882794857025146e-01 -4.998120784759521484e+00 1.025416135787963867e+00
-2.051623165607452393e-01 -5.008629798889160156e+00 9.762114882469177246e-01
-2.235206589102745056e-02 -5.009957790374755859e+00 9.267413020133972168e-01
-5.761851668357849121e-01 -5.013830661773681641e+00 8.917087316513061523e-01
-3.906923532485961914e-01 -5.002587318420410156e+00 8.360943198204040527e-01
-2.062720805406570435e-01 -5.014320850372314453e+00 7.876806855201721191e-01
-2.585883066058158875e-02 -5.011716365814208984e+00 7.391819953918457031e-01
-5.774503350257873535e-01 -5.017118930816650391e+00 7.034742236137390137e-01
-3.942430615425109863e-01 -5.025452613830566406e+00 6.529085040092468262e-01
-2.117045670747756958e-01 -5.039293289184570312e+00 6.058939099311828613e-01
-2.831162512302398682e-02 -4.981555938720703125e+00 5.508578419685363770e-01
-3.060967922210693359e-01 -6.670921325683593750e+00 1.821867704391479492e+00
-2.312126606702804565e-01 -4.981963157653808594e+00 1.162422418594360352e+00
-4.886608943343162537e-02 -5.024757862091064453e+00 1.123219609260559082e+00
-6.088952422142028809e-01 -5.033710956573486328e+00 1.088851928710937500e+00
-4.208875000476837158e-01 -5.015168190002441406e+00 1.029423952102661133e+00
-2.358908355236053467e-01 -5.007276535034179688e+00 9.762114882469177246e-01
-5.308174714446067810e-02 -5.008743286132812500e+00 9.265593886375427246e-01
-6.084781289100646973e-01 -5.022909164428710938e+00 8.939705491065979004e-01
-4.196407794952392578e-01 -4.979454517364501953e+00 8.326427936553955078e-01
-2.369421571493148804e-01 -5.010986804962158203e+00 7.873705029487609863e-01
-5.672140046954154968e-02 -5.021355628967285156e+00 7.406410574913024902e-01
-6.079853177070617676e-01 -5.011514186859130859e+00 7.031982541084289551e-01
-4.244022369384765625e-01 -5.015033721923828125e+00 6.518809199333190918e-01
-2.417614310979843140e-01 -5.020048618316650391e+00 6.037470698356628418e-01
-5.883035808801651001e-02 -4.977313041687011719e+00 5.504182577133178711e-01
-6.545127034187316895e-01 -5.131475925445556641e+00 1.524473309516906738e+00
-3.474240899085998535e-01 -6.676625251770019531e+00 1.823973298072814941e+00
-6.049057245254516602e-01 -6.739639282226562500e+00 1.645798087120056152e+00
-2.620837688446044922e-01 -4.986286163330078125e+00 1.163784384727478027e+00
-7.974293828010559082e-02 -5.027291297912597656e+00 1.123874068260192871e+00
-6.408803462982177734e-01 -5.038609027862548828e+00 1.090741515159606934e+00
-4.520037770271301270e-01 -5.016394138336181641e+00 1.030225634574890137e+00
-2.664538323879241943e-01 -5.002794265747070312e+00 9.756379723548889160e-01
-8.397834748029708862e-02 -5.018155097961425781e+00 9.283782839775085449e-01
-6.400331854820251465e-01 -5.024941921234130859e+00 8.950145244598388672e-01
-4.525855779647827148e-01 -5.003310680389404297e+00 8.370804786682128906e-01
-2.676318287849426270e-01 -5.008452415466308594e+00 7.872154712677001953e-01
-8.773771673440933228e-02 -5.032783031463623047e+00 7.423920035362243652e-01
-6.375961303710937500e-01 -4.998847484588623047e+00 7.019565701484680176e-01
-4.548071622848510742e-01 -5.008384227752685547e+00 6.513670682907104492e-01
-2.706209123134613037e-01 -4.982779979705810547e+00 5.994532704353332520e-01
-8.938731253147125244e-02 -4.977852344512939453e+00 5.505281686782836914e-01
-6.817889213562011719e-01 -5.095988750457763672e+00 1.515145063400268555e+00
-3.890010416507720947e-01 -6.684961795806884766e+00 1.826868534088134766e+00
-1.108244284987449646e-01 -5.037439346313476562e+00 1.126273632049560547e+00
-6.750174760818481445e-01 -5.058810234069824219e+00 1.095990538597106934e+00
-4.821179509162902832e-01 -5.006700038909912109e+00 1.028822898864746094e+00
-2.977275848388671875e-01 -5.010863780975341797e+00 9.775495529174804688e-01
-1.149924546480178833e-01 -5.027376174926757812e+00 9.301972389221191406e-01
-6.696798801422119141e-01 -5.012135982513427734e+00 8.934485912322998047e-01
-4.838461279869079590e-01 -5.006330490112304688e+00 8.380666375160217285e-01
-2.990045249462127686e-01 -5.017563819885253906e+00 7.889211177825927734e-01
-1.185233891010284424e-01 -5.028193473815917969e+00 7.418082952499389648e-01
-6.687818169593811035e-01 -4.998767375946044922e+00 7.025083899497985840e-01
-4.863912165164947510e-01 -5.014383316040039062e+00 6.525231599807739258e-01
-1.198573261499404907e-01 -4.974228858947753906e+00 5.501983761787414551e-01
-7.177940756082534790e-02 -7.373214960098266602e-01 6.885301321744918823e-02
-7.145078778266906738e-01 -5.102159023284912109e+00 1.518254518508911133e+00
-1.416216939687728882e-01 -5.032762527465820312e+00 1.125401020050048828e+00
-7.050982117652893066e-01 -5.047794818878173828e+00 1.094520807266235352e+00
-5.121302008628845215e-01 -4.996825218200683594e+00 1.027420043945312500e+00
-3.287892043590545654e-01 -5.013839721679687500e+00 9.785053133964538574e-01
-1.453243643045425415e-01 -5.008883476257324219e+00 9.269231557846069336e-01
-7.045132517814636230e-01 -5.037190437316894531e+00 8.986684083938598633e-01
-5.145552754402160645e-01 -5.003267288208007812e+00 8.380666375160217285e-01
-3.298508822917938232e-01 -5.016620635986328125e+00 7.890761494636535645e-01
-1.492560505867004395e-01 -5.023416519165039062e+00 7.412247061729431152e-01
-7.006773352622985840e-01 -5.003397941589355469e+00 7.037501335144042969e-01
-5.187785029411315918e-01 -5.027088165283203125e+00 6.545783281326293945e-01
-3.336611092090606689e-01 -5.007813453674316406e+00 6.029121279716491699e-01
-1.498056352138519287e-01 -4.954524040222167969e+00 5.481101870536804199e-01
-7.455229759216308594e-01 -5.095780849456787109e+00 1.517689228057861328e+00
-3.624327480792999268e-01 -5.139921665191650391e+00 1.405749082565307617e+00
-7.064428925514221191e-01 -4.834551811218261719e+00 1.240858793258666992e+00
-1.727000921964645386e-01 -5.037651062011718750e+00 1.126709938049316406e+00
-7.325277328491210938e-01 -5.019186973571777344e+00 1.089271783828735352e+00
-5.460623502731323242e-01 -5.023782253265380859e+00 1.033632397651672363e+00
-3.595473766326904297e-01 -5.011728286743164062e+00 9.785053133964538574e-01
-1.763664931058883667e-01 -5.016741752624511719e+00 9.285601377487182617e-01
-7.334141731262207031e-01 -5.019130706787109375e+00 8.962324261665344238e-01
-5.452450513839721680e-01 -5.000015735626220703e+00 8.380666375160217285e-01
-3.604843616485595703e-01 -5.012531280517578125e+00 7.887660861015319824e-01
-1.799699962139129639e-01 -5.019439697265625000e+00 7.407869696617126465e-01
-7.300739884376525879e-01 -4.990184307098388672e+00 7.025083899497985840e-01
-5.489673018455505371e-01 -5.017895221710205078e+00 6.538076400756835938e-01
-3.666167855262756348e-01 -5.036369323730468750e+00 6.066095829010009766e-01
-1.808897405862808228e-01 -4.972383499145507812e+00 5.501983761787414551e-01
-7.757633328437805176e-01 -5.084472656250000000e+00 1.515710473060607910e+00
-7.322972416877746582e-01 -4.805213928222656250e+00 1.234458804130554199e+00
-3.876731395721435547e-01 -5.021077156066894531e+00 1.173771977424621582e+00
-2.034101933240890503e-01 -5.031620979309082031e+00 1.125619173049926758e+00
-7.630168199539184570e-01 -5.012664794921875000e+00 1.088851928710937500e+00
-5.758708119392395020e-01 -5.011577129364013672e+00 1.031828761100769043e+00
-3.901394605636596680e-01 -5.007470130920410156e+00 9.781229496002197266e-01
-2.072264850139617920e-01 -5.017530441284179688e+00 9.289240241050720215e-01
-7.652357816696166992e-01 -5.021350860595703125e+00 8.974504470825195312e-01
-5.759143233299255371e-01 -4.996576309204101562e+00 8.380666375160217285e-01
-3.913108110427856445e-01 -5.011209964752197266e+00 7.889211177825927734e-01
-2.107238024473190308e-01 -5.017252445220947266e+00 7.406410574913024902e-01
-7.584386467933654785e-01 -4.970923900604248047e+00 7.004389762878417969e-01
-5.779238343238830566e-01 -4.998670101165771484e+00 6.517524719238281250e-01
-2.112696319818496704e-01 -4.968201160430908203e+00 5.498687028884887695e-01
-8.048394918441772461e-01 -5.066353797912597656e+00 1.511752843856811523e+00
-7.613120079040527344e-01 -4.797758102416992188e+00 1.233720302581787109e+00
-4.185555279254913330e-01 -5.019574165344238281e+00 1.173998951911926270e+00
-2.337349653244018555e-01 -5.018579483032226562e+00 1.123001456260681152e+00
-7.891678214073181152e-01 -4.978918552398681641e+00 1.082553029060363770e+00
-6.099091768264770508e-01 -5.035181999206542969e+00 1.037439703941345215e+00
-4.212686419486999512e-01 -5.009872436523437500e+00 9.790787100791931152e-01
-2.381959706544876099e-01 -5.020092964172363281e+00 9.296514987945556641e-01
-7.966490983963012695e-01 -5.020451068878173828e+00 8.981463909149169922e-01
-6.071566343307495117e-01 -4.997843742370605469e+00 8.388884067535400391e-01
-4.216368794441223145e-01 -5.003792285919189453e+00 7.881458401679992676e-01
-2.414099723100662231e-01 -5.013889312744140625e+00 7.403492331504821777e-01
-7.928102016448974609e-01 -4.990631103515625000e+00 7.038880586624145508e-01
-6.075046658515930176e-01 -4.986169815063476562e+00 6.505963802337646484e-01
-2.415566593408584595e-01 -4.962840080261230469e+00 5.494290590286254883e-01
-8.510715365409851074e-01 -5.345335960388183594e+00 5.545710325241088867e-01
-3.493483960628509521e-01 -6.737681388854980469e+00 1.773748278617858887e+00
-7.997289896011352539e-01 -4.847506046295166016e+00 1.247751116752624512e+00
-6.067750453948974609e-01 -6.774576187133789062e+00 1.585307121276855469e+00
-2.644726037979125977e-01 -5.016076564788818359e+00 1.122783303260803223e+00
-8.306727409362792969e-01 -5.040546894073486328e+00 1.097040295600891113e+00
-6.411643624305725098e-01 -5.034260749816894531e+00 1.038040995597839355e+00
-4.530596733093261719e-01 -5.018924713134765625e+00 9.813725352287292480e-01
-2.696784138679504395e-01 -5.031301498413085938e+00 9.320161342620849609e-01
-8.288816809654235840e-01 -5.024213314056396484e+00 8.997123241424560547e-01
-6.365618109703063965e-01 -4.984240055084228516e+00 8.372448682785034180e-01
-4.542003870010375977e-01 -5.021772861480712891e+00 7.914019823074340820e-01
-2.722773551940917969e-01 -5.014288902282714844e+00 7.406410574913024902e-01
-8.245469927787780762e-01 -4.992513179779052734e+00 7.048537731170654297e-01
-6.384657621383666992e-01 -4.985299587249755859e+00 6.509817242622375488e-01
-4.588062763214111328e-01 -5.023824214935302734e+00 6.060131788253784180e-01
-2.705888152122497559e-01 -4.935460567474365234e+00 5.465714335441589355e-01
-8.253743052482604980e-01 -4.986694812774658203e+00 5.178781747817993164e-01
-3.900674283504486084e-01 -6.724790573120117188e+00 1.770951390266418457e+00
-8.309303522109985352e-01 -4.851105213165283203e+00 1.249966382980346680e+00
-6.483316421508789062e-01 -6.770725727081298828e+00 1.585307121276855469e+00
-2.958193123340606689e-01 -5.024101257324218750e+00 1.124964714050292969e+00
-8.617501854896545410e-01 -5.036318778991699219e+00 1.097250342369079590e+00
-6.704850196838378906e-01 -5.018579006195068359e+00 1.035636186599731445e+00
-4.838466942310333252e-01 -5.016050338745117188e+00 9.813725352287292480e-01
-3.001928925514221191e-01 -5.023662567138671875e+00 9.309247732162475586e-01
-8.596940636634826660e-01 -5.019032955169677734e+00 8.997123241424560547e-01
-6.689660549163818359e-01 -4.993927478790283203e+00 8.395458459854125977e-01
-4.846248030662536621e-01 -5.014958381652832031e+00 7.907817959785461426e-01
-3.033975064754486084e-01 -5.018448829650878906e+00 7.415165305137634277e-01
-8.518172502517700195e-01 -4.967835903167724609e+00 7.020945549011230469e-01
-6.686469316482543945e-01 -4.978339195251464844e+00 6.505963802337646484e-01
-4.899123013019561768e-01 -5.023878574371337891e+00 6.063709855079650879e-01
-3.088531792163848877e-01 -5.064664363861083984e+00 5.610792636871337891e-01
-8.598311543464660645e-01 -5.004086017608642578e+00 5.202224254608154297e-01
-8.866128325462341309e-01 -4.991923332214355469e+00 1.287627935409545898e+00
-3.251842558383941650e-01 -4.999793052673339844e+00 1.119947433471679688e+00
-8.936610817909240723e-01 -5.036712646484375000e+00 1.098510026931762695e+00
-7.027584910392761230e-01 -5.025043487548828125e+00 1.037840604782104492e+00
-5.136131048202514648e-01 -5.003222465515136719e+00 9.794610142707824707e-01
-3.318526446819305420e-01 -5.034481525421142578e+00 9.332893490791320801e-01
-8.906462788581848145e-01 -5.014632701873779297e+00 8.998863101005554199e-01
-7.008282542228698730e-01 -4.998520374298095703e+00 8.410250544548034668e-01
-5.133657455444335938e-01 -4.992235660552978516e+00 7.876806855201721191e-01
-3.342501819133758545e-01 -5.017479896545410156e+00 7.416624426841735840e-01
-8.807229995727539062e-01 -4.953739643096923828e+00 7.008528709411621094e-01
-6.986287236213684082e-01 -4.970214843750000000e+00 6.500825881958007812e-01
-5.193974971771240234e-01 -5.007939815521240234e+00 6.048204302787780762e-01
-7.584191113710403442e-02 -1.129556536674499512e+00 1.251849830150604248e-01
-8.865065574645996094e-01 -4.976190567016601562e+00 5.178781747817993164e-01
-7.027043700218200684e-01 -4.832916736602783203e+00 1.383799433708190918e+00
-3.551166355609893799e-01 -5.049511909484863281e+00 1.330819725990295410e+00
-9.275713562965393066e-01 -5.042630195617675781e+00 1.302151083946228027e+00
-6.955466270446777344e-01 -4.771989822387695312e+00 1.172902941703796387e+00
-3.555790185928344727e-01 -4.993809700012207031e+00 1.119074821472167969e+00
-9.249023199081420898e-01 -5.033057212829589844e+00 1.098930001258850098e+00
-7.348531484603881836e-01 -5.029361724853515625e+00 1.039644122123718262e+00
-5.444088578224182129e-01 -5.000952720642089844e+00 9.796522259712219238e-01
-3.628787994384765625e-01 -5.034312725067138672e+00 9.336532354354858398e-01
-9.201516509056091309e-01 -5.002294063568115234e+00 8.986684083938598633e-01
-7.317713499069213867e-01 -4.996078491210937500e+00 8.413538336753845215e-01
-5.458082556724548340e-01 -5.005687236785888672e+00 7.903165817260742188e-01
-3.656050860881805420e-01 -5.023227691650390625e+00 7.428296804428100586e-01
-9.197107553482055664e-01 -4.994997501373291016e+00 7.074751257896423340e-01
-7.312731742858886719e-01 -4.980552196502685547e+00 6.520093083381652832e-01
-5.483801364898681641e-01 -4.988868236541748047e+00 6.029121279716491699e-01
-8.734952658414840698e-02 -1.191520571708679199e+00 1.321091651916503906e-01
-9.199108481407165527e-01 -4.986309528350830078e+00 5.195089578628540039e-01
-7.310469150543212891e-01 -4.819952964782714844e+00 1.381345868110656738e+00
-3.891913294792175293e-01 -5.087738990783691406e+00 1.341498851776123047e+00
-9.693662524223327637e-01 -5.093972206115722656e+00 1.316920161247253418e+00
-7.281728982925415039e-01 -4.789726257324218750e+00 1.178338408470153809e+00
-3.876442015171051025e-01 -5.010021209716796875e+00 1.123219609260559082e+00
-9.544889330863952637e-01 -5.020564079284667969e+00 1.097460269927978516e+00
-7.664368748664855957e-01 -5.029600620269775391e+00 1.040646076202392578e+00
-5.762059688568115234e-01 -5.007269382476806641e+00 9.815636873245239258e-01
-3.931482434272766113e-01 -5.024148941040039062e+00 9.321981072425842285e-01
-9.519324302673339844e-01 -5.002358436584472656e+00 8.997123241424560547e-01
-7.621150016784667969e-01 -4.989543914794921875e+00 8.410250544548034668e-01
-5.792269110679626465e-01 -5.025797843933105469e+00 7.940379381179809570e-01
-3.963422775268554688e-01 -5.019903659820556641e+00 7.426837682723999023e-01
-9.716544151306152344e-01 -5.101148605346679688e+00 7.233408093452453613e-01
-7.627199888229370117e-01 -4.981853485107421875e+00 6.527800559997558594e-01
-5.781791806221008301e-01 -4.978505611419677734e+00 6.020772457122802734e-01
-3.949371576309204102e-01 -4.968947887420654297e+00 5.511875748634338379e-01
-9.523537755012512207e-01 -4.990343093872070312e+00 5.205282568931579590e-01
-7.642104029655456543e-01 -4.838184356689453125e+00 1.387888669967651367e+00
-1.001913189888000488e+00 -5.094585418701171875e+00 1.318643331527709961e+00
-7.580042481422424316e-01 -4.788047790527343750e+00 1.179047465324401855e+00
-4.216279685497283936e-01 -5.046449661254882812e+00 1.131945252418518066e+00
-9.886695742607116699e-01 -5.031881809234619141e+00 1.101239562034606934e+00
-7.969764471054077148e-01 -5.022868156433105469e+00 1.040245294570922852e+00
-6.072736978530883789e-01 -5.006562709808349609e+00 9.821370840072631836e-01
-4.243820309638977051e-01 -5.026540756225585938e+00 9.331074953079223633e-01
-9.862187504768371582e-01 -5.014781475067138672e+00 9.030181169509887695e-01
-7.962790727615356445e-01 -5.007179737091064453e+00 8.448053598403930664e-01
-6.080285310745239258e-01 -5.005476951599121094e+00 7.914019823074340820e-01
-4.262972176074981689e-01 -5.007520198822021484e+00 7.412247061729431152e-01
-1.009631395339965820e+00 -5.129103183746337891e+00 7.281695604324340820e-01
-7.901518344879150391e-01 -4.957492351531982422e+00 6.502110362052917480e-01
-6.067864298820495605e-01 -4.959095954895019531e+00 6.001688838005065918e-01
-4.244006574153900146e-01 -4.954547405242919922e+00 5.498687028884887695e-01
-9.814162850379943848e-01 -4.976597785949707031e+00 5.197128653526306152e-01
-8.311519026756286621e-01 -5.060311794281005859e+00 1.453043937683105469e+00
-1.033732652664184570e+00 -5.091191291809082031e+00 1.319381713867187500e+00
-8.137249350547790527e-01 -4.943420886993408203e+00 1.218514442443847656e+00
-6.390923261642456055e-01 -5.039483547210693359e+00 1.183986544609069824e+00
-4.484851360321044922e-01 -4.998083114624023438e+00 1.121692538261413574e+00
-1.012139558792114258e+00 -4.989309310913085938e+00 1.093261003494262695e+00
-8.316082954406738281e-01 -5.041082859039306641e+00 1.045054793357849121e+00
-6.384786963462829590e-01 -5.006637096405029297e+00 9.829017519950866699e-01
-4.549501240253448486e-01 -5.020904541015625000e+00 9.325618743896484375e-01
-1.019125699996948242e+00 -5.019251346588134766e+00 9.049320816993713379e-01
-8.281137943267822266e-01 -5.009011745452880859e+00 8.459558486938476562e-01
-6.383547186851501465e-01 -4.998712539672851562e+00 7.909368276596069336e-01
-4.570147693157196045e-01 -5.004810333251953125e+00 7.412247061729431152e-01
-1.078364253044128418e+00 -5.306254863739013672e+00 7.542446255683898926e-01
-8.774530291557312012e-01 -5.295961380004882812e+00 6.952967643737792969e-01
-6.411290168762207031e-01 -4.985806941986083984e+00 6.038662791252136230e-01
-4.547932147979736328e-01 -4.951849937438964844e+00 5.498687028884887695e-01
-1.025031805038452148e+00 -5.034818649291992188e+00 5.264398455619812012e-01
-1.025743484497070312e+00 -5.029333114624023438e+00 3.382254242897033691e-01
-1.033992648124694824e+00 -5.065264701843261719e+00 1.534338295459747314e-01
-8.621857762336730957e-01 -5.055116653442382812e+00 1.453043937683105469e+00
-1.061971902847290039e+00 -5.070523262023925781e+00 1.315689444541931152e+00
-8.348746895790100098e-01 -4.884699344635009766e+00 1.205280065536499023e+00
-4.888353347778320312e-01 -5.096268653869628906e+00 1.144379496574401855e+00
-1.042133569717407227e+00 -4.980134010314941406e+00 1.092631220817565918e+00
-8.625240921974182129e-01 -5.035885334014892578e+00 1.045054793357849121e+00
-6.693169474601745605e-01 -5.003598213195800781e+00 9.830929040908813477e-01
-4.866966605186462402e-01 -5.027805805206298828e+00 9.343807101249694824e-01
-1.049702286720275879e+00 -5.011940002441406250e+00 9.047580957412719727e-01
-8.589997887611389160e-01 -5.004808425903320312e+00 8.461202383041381836e-01
-6.704569458961486816e-01 -5.005472660064697266e+00 7.926424741744995117e-01
-4.884831607341766357e-01 -5.009788990020751953e+00 7.423920035362243652e-01
-1.123704075813293457e+00 -5.360608100891113281e+00 7.629362940788269043e-01
-9.185050725936889648e-01 -5.340323448181152344e+00 7.018477320671081543e-01
-6.744953393936157227e-01 -5.002442359924316406e+00 6.063709855079650879e-01
-4.848776757717132568e-01 -4.945998668670654297e+00 5.495389699935913086e-01
-1.044866085052490234e+00 -4.975862026214599609e+00 5.209358930587768555e-01
-1.046724319458007812e+00 -4.976074218750000000e+00 3.350693583488464355e-01
-1.066494464874267578e+00 -5.065671443939208984e+00 1.536414921283721924e-01
-8.756836652755737305e-01 -4.940717220306396484e+00 1.220405101776123047e+00
-1.079473614692687988e+00 -5.005185127258300781e+00 1.099559903144836426e+00
-8.942641019821166992e-01 -5.035321235656738281e+00 1.046056747436523438e+00
-7.028641104698181152e-01 -5.019810676574707031e+00 9.871070384979248047e-01
-5.182427763938903809e-01 -5.031571388244628906e+00 9.356539845466613770e-01
-1.079396247863769531e+00 -5.000591754913330078e+00 9.038881063461303711e-01
-8.898653388023376465e-01 -5.000414371490478516e+00 8.462845683097839355e-01
-7.012944817543029785e-01 -5.002242565155029297e+00 7.927975058555603027e-01
-5.202338695526123047e-01 -5.016537189483642578e+00 7.438510656356811523e-01
-1.148627519607543945e+00 -5.316824436187744141e+00 7.576936483383178711e-01
-9.432470202445983887e-01 -5.289676666259765625e+00 6.959390640258789062e-01
-7.028191089630126953e-01 -4.981496334075927734e+00 6.043434143066406250e-01
-5.199566483497619629e-01 -4.988405227661132812e+00 5.545946955680847168e-01
-1.076640129089355469e+00 -4.975191116333007812e+00 5.215474367141723633e-01
-1.093514204025268555e+00 -5.044647693634033203e+00 3.401322364807128906e-01
-1.085900902748107910e+00 -5.005306243896484375e+00 1.520098298788070679e-01
-6.988567709922790527e-01 -4.818635463714599609e+00 1.328368425369262695e+00
-9.284394383430480957e-01 -5.057581424713134766e+00 1.250655293464660645e+00
-7.087371945381164551e-01 -4.868812561035156250e+00 1.146759986877441406e+00
-1.123095512390136719e+00 -5.056688785552978516e+00 1.112367391586303711e+00
-9.295741915702819824e-01 -5.053828239440917969e+00 1.051066637039184570e+00
-7.343622446060180664e-01 -5.020259380340576172e+00 9.880628585815429688e-01
-5.487859249114990234e-01 -5.025364875793457031e+00 9.351083040237426758e-01
-1.117751479148864746e+00 -5.028481006622314453e+00 9.101518392562866211e-01
-9.201730489730834961e-01 -4.992920398712158203e+00 8.459558486938476562e-01
-7.311155200004577637e-01 -4.991980552673339844e+00 7.918671369552612305e-01
-5.513292551040649414e-01 -5.016201019287109375e+00 7.442888021469116211e-01
-1.120361089706420898e+00 -5.036071300506591797e+00 7.186501026153564453e-01
-9.529957771301269531e-01 -5.160910606384277344e+00 6.797544360160827637e-01
-7.413321733474731445e-01 -5.031114101409912109e+00 6.109032630920410156e-01
-5.502278208732604980e-01 -4.982157230377197266e+00 5.542650222778320312e-01
-1.107363343238830566e+00 -4.969461917877197266e+00 5.216493606567382812e-01
-9.347293972969055176e-01 -5.052113533020019531e+00 4.775289893150329590e-01
-1.124664306640625000e+00 -5.038816928863525391e+00 3.401979804039001465e-01
-1.118553757667541504e+00 -5.007328987121582031e+00 1.522768437862396240e-01
-7.284101843833923340e-01 -4.814256668090820312e+00 1.328368425369262695e+00
-9.482138752937316895e-01 -4.992603302001953125e+00 1.236002802848815918e+00
-7.346509099006652832e-01 -4.838375091552734375e+00 1.140631198883056641e+00
-1.157369136810302734e+00 -5.063999176025390625e+00 1.115516781806945801e+00
-9.607495069503784180e-01 -5.048991680145263672e+00 1.051267027854919434e+00
-7.666324377059936523e-01 -5.025362491607666016e+00 9.899743795394897461e-01
-5.798361301422119141e-01 -5.023856163024902344e+00 9.354720711708068848e-01
-1.152756571769714355e+00 -5.039767265319824219e+00 9.134576916694641113e-01
-9.507917165756225586e-01 -4.987180233001708984e+00 8.459558486938476562e-01
-7.632234692573547363e-01 -4.997166156768798828e+00 7.934176921844482422e-01
-5.827823877334594727e-01 -5.018620014190673828e+00 7.451642751693725586e-01
-1.142621397972106934e+00 -4.991448879241943359e+00 7.132695317268371582e-01
-9.859470129013061523e-01 -5.161784648895263672e+00 6.806535720825195312e-01
-8.169640302658081055e-01 -5.317931175231933594e+00 6.463266015052795410e-01
-5.798660516738891602e-01 -4.970789432525634766e+00 5.533857345581054688e-01
-1.130942702293395996e+00 -4.932515621185302734e+00 5.184897184371948242e-01
-9.524230957031250000e-01 -4.976847648620605469e+00 4.709583222866058350e-01
-1.182361483573913574e+00 -5.148523330688476562e+00 3.480881452560424805e-01
-1.155302286148071289e+00 -5.026673793792724609e+00 1.530778259038925171e-01
-7.642435431480407715e-01 -4.849721908569335938e+00 1.339422821998596191e+00
-9.934283494949340820e-01 -5.061062335968017578e+00 1.254436492919921875e+00
-7.871404886245727539e-01 -4.978068351745605469e+00 1.174679875373840332e+00
-1.194906353950500488e+00 -5.084404468536376953e+00 1.121605634689331055e+00
-9.926567077636718750e-01 -5.047808170318603516e+00 1.052268981933593750e+00
-7.994547486305236816e-01 -5.033166408538818359e+00 9.924593567848205566e-01
-6.119571328163146973e-01 -5.030941486358642578e+00 9.374729394912719727e-01
-1.187265515327453613e+00 -5.047936439514160156e+00 9.162415266036987305e-01
-9.853786230087280273e-01 -5.001575946807861328e+00 8.494073748588562012e-01
-7.949571013450622559e-01 -4.999218463897705078e+00 7.945030331611633301e-01
-6.139255166053771973e-01 -5.017895221710205078e+00 7.456020116806030273e-01
-1.178900122642517090e+00 -5.008446216583251953e+00 7.167186141014099121e-01
-1.040836930274963379e+00 -5.273364067077636719e+00 6.961959004402160645e-01
-8.545957207679748535e-01 -5.344191551208496094e+00 6.501432657241821289e-01
-6.056276559829711914e-01 -4.928663730621337891e+00 5.490993261337280273e-01
-1.173056602478027344e+00 -4.975832462310791016e+00 5.237898230552673340e-01
-9.875781536102294922e-01 -4.994353294372558594e+00 4.731793999671936035e-01
-1.192604899406433105e+00 -5.050856590270996094e+00 3.419732749462127686e-01
-1.178078174591064453e+00 -4.985443592071533203e+00 1.520395129919052124e-01
-8.127089142799377441e-01 -4.959186077117919922e+00 1.371006727218627930e+00
-1.026972770690917969e+00 -5.067251682281494141e+00 1.257508873939514160e+00
-8.160905241966247559e-01 -4.963535308837890625e+00 1.172410011291503906e+00
-6.498498320579528809e-01 -5.117601394653320312e+00 1.153105258941650391e+00
-1.227917313575744629e+00 -5.084579944610595703e+00 1.123285293579101562e+00
-1.025365114212036133e+00 -5.050263404846191406e+00 1.054072499275207520e+00
-8.303226828575134277e-01 -5.028166294097900391e+00 9.924593567848205566e-01
-6.448103785514831543e-01 -5.042697906494140625e+00 9.403831958770751953e-01
-1.219142079353332520e+00 -5.044385433197021484e+00 9.169375300407409668e-01
-1.018408417701721191e+00 -5.007035255432128906e+00 8.513796925544738770e-01
-8.249723315238952637e-01 -4.990348339080810547e+00 7.938829064369201660e-01
-6.445770263671875000e-01 -5.013052940368652344e+00 7.454560995101928711e-01
-1.212170481681823730e+00 -5.011708259582519531e+00 7.182362675666809082e-01
-1.073966145515441895e+00 -5.270765781402587891e+00 6.967097520828247070e-01
-8.906267881393432617e-01 -5.358435630798339844e+00 6.525286436080932617e-01
-6.482034921646118164e-01 -5.020473480224609375e+00 5.597603917121887207e-01
-1.295841336250305176e+00 -5.349472045898437500e+00 5.639480352401733398e-01
-1.038516640663146973e+00 -5.087709426879882812e+00 4.826189279556274414e-01
-1.225926518440246582e+00 -5.053141117095947266e+00 3.426308035850524902e-01
-1.211947798728942871e+00 -4.991719722747802734e+00 1.524548381567001343e-01
-8.649735450744628906e-01 -5.082500457763671875e+00 1.406538724899291992e+00
-1.061823606491088867e+00 -5.078926086425781250e+00 1.261999130249023438e+00
-8.470225334167480469e-01 -4.961314201354980469e+00 1.173090934753417969e+00
-6.728616952896118164e-01 -5.050638198852539062e+00 1.138925909996032715e+00
-1.263564109802246094e+00 -5.094980239868164062e+00 1.127274632453918457e+00
-1.055128693580627441e+00 -5.038123130798339844e+00 1.052870154380798340e+00
-8.613251447677612305e-01 -5.023944377899169922e+00 9.926505088806152344e-01
-6.739098429679870605e-01 -5.025002002716064453e+00 9.378367066383361816e-01
-1.250070929527282715e+00 -5.036809921264648438e+00 9.169375300407409668e-01
-1.048504233360290527e+00 -4.997795581817626953e+00 8.508865833282470703e-01
-8.580835461616516113e-01 -4.999797344207763672e+00 7.962086796760559082e-01
-6.738703846931457520e-01 -4.998218536376953125e+00 7.438510656356811523e-01
-1.243137598037719727e+00 -5.005137443542480469e+00 7.183741927146911621e-01
-1.136065006256103516e+00 -5.405771732330322266e+00 7.154633402824401855e-01
-9.302406907081604004e-01 -5.392006397247314453e+00 6.572994589805603027e-01
-6.817960739135742188e-01 -5.037085533142089844e+00 5.620684623718261719e-01
-1.340407013893127441e+00 -5.388723373413085938e+00 5.689423680305480957e-01
-1.048997282981872559e+00 -4.982832431793212891e+00 4.732719659805297852e-01
-1.245813608169555664e+00 -5.000984668731689453e+00 3.396062254905700684e-01
-1.071512579917907715e+00 -5.080983161926269531e+00 2.930466234683990479e-01
-1.243520736694335938e+00 -4.988068580627441406e+00 1.525734961032867432e-01
-1.067334175109863281e+00 -5.052434444427490234e+00 1.045625209808349609e-01
-8.993290662765502930e-01 -5.095148563385009766e+00 1.411539554595947266e+00
-1.092762589454650879e+00 -5.071365356445312500e+00 1.261762738227844238e+00
-8.915407657623291016e-01 -5.035619258880615234e+00 1.191931247711181641e+00
-7.020866274833679199e-01 -5.033849239349365234e+00 1.136090040206909180e+00
-1.295526027679443359e+00 -5.089973449707031250e+00 1.127904415130615234e+00
-1.087675809860229492e+00 -5.039215564727783203e+00 1.054473280906677246e+00
-8.933378458023071289e-01 -5.025329589843750000e+00 9.939885735511779785e-01
-7.036365270614624023e-01 -5.012982368469238281e+00 9.363815784454345703e-01
-1.283626317977905273e+00 -5.039541244506835938e+00 9.188513755798339844e-01
-1.079150319099426270e+00 -4.991268157958984375e+00 8.508865833282470703e-01
-8.892647624015808105e-01 -4.997355461120605469e+00 7.966738343238830566e-01
-7.057699561119079590e-01 -5.002806186676025391e+00 7.451642751693725586e-01
-1.277739286422729492e+00 -5.012771129608154297e+00 7.205815911293029785e-01
-1.168163299560546875e+00 -5.393853187561035156e+00 7.148211002349853516e-01
-9.577143788337707520e-01 -5.354921817779541016e+00 6.534827947616577148e-01
-7.500388622283935547e-01 -5.296552658081054688e+00 5.915237665176391602e-01
-1.377875328063964844e+00 -5.397747516632080078e+00 5.707769989967346191e-01
-1.081662535667419434e+00 -4.986032485961914062e+00 4.741973876953125000e-01
-1.274004101753234863e+00 -4.983578681945800781e+00 3.389486968517303467e-01
-1.085707783699035645e+00 -4.996261596679687500e+00 2.885390818119049072e-01
-1.276580929756164551e+00 -4.990028381347656250e+00 1.528701633214950562e-01
-9.229405522346496582e-01 -5.047777652740478516e+00 1.399958729743957520e+00
-7.010810375213623047e-01 -4.840291023254394531e+00 1.285815000534057617e+00
-1.122385859489440918e+00 -5.057924747467041016e+00 1.260108470916748047e+00
-9.206652641296386719e-01 -5.020474433898925781e+00 1.189661264419555664e+00
-7.301458120346069336e-01 -5.010132312774658203e+00 1.131727218627929688e+00
-1.321052789688110352e+00 -5.060170650482177734e+00 1.123075366020202637e+00
-1.117725133895874023e+00 -5.028621673583984375e+00 1.053671717643737793e+00
-9.248667359352111816e-01 -5.023614883422851562e+00 9.947531819343566895e-01
-7.349529862403869629e-01 -5.012462139129638672e+00 9.371091723442077637e-01
-1.316515564918518066e+00 -5.039192676544189453e+00 9.202433228492736816e-01
-1.112757086753845215e+00 -4.998032569885253906e+00 8.531876802444458008e-01
-9.220597147941589355e-01 -5.003463745117187500e+00 7.985345125198364258e-01
-7.376069426536560059e-01 -5.006211280822753906e+00 7.463315725326538086e-01
-1.316239237785339355e+00 -5.034542083740234375e+00 7.248584628105163574e-01
-1.200158119201660156e+00 -5.381744384765625000e+00 7.141788601875305176e-01
-9.829603433609008789e-01 -5.307941436767578125e+00 6.484734416007995605e-01
-7.848500609397888184e-01 -5.307582378387451172e+00 5.932822823524475098e-01
-1.409457564353942871e+00 -5.383417129516601562e+00 5.701654553413391113e-01
-1.121786713600158691e+00 -5.022059440612792969e+00 4.782693386077880859e-01
-1.308354735374450684e+00 -4.990145683288574219e+00 3.399349749088287354e-01
-1.132039427757263184e+00 -5.059656620025634766e+00 2.925958633422851562e-01
-1.315038919448852539e+00 -5.012073040008544922e+00 1.537898033857345581e-01
-1.129910826683044434e+00 -5.041882514953613281e+00 1.046232506632804871e-01
-7.228194475173950195e-01 -4.783302783966064453e+00 1.271830439567565918e+00
-1.152750611305236816e+00 -5.048100948333740234e+00 1.259399533271789551e+00
-9.503637552261352539e-01 -5.008989810943603516e+00 1.188299298286437988e+00
-7.592603564262390137e-01 -4.994944572448730469e+00 1.129327535629272461e+00
-1.352329254150390625e+00 -5.052914142608642578e+00 1.123285293579101562e+00
-1.150961995124816895e+00 -5.032174110412597656e+00 1.055876016616821289e+00
-9.564082026481628418e-01 -5.021702289581298828e+00 9.955177307128906250e-01
-7.691133022308349609e-01 -5.030214786529541016e+00 9.412926435470581055e-01
-1.354034304618835449e+00 -5.055751323699951172e+00 9.247671365737915039e-01
-1.149570822715759277e+00 -5.018032073974609375e+00 8.577896952629089355e-01
-9.508931040763854980e-01 -4.988008022308349609e+00 7.969839572906494141e-01
-7.683106064796447754e-01 -5.001591205596923828e+00 7.463315725326538086e-01
-1.351464629173278809e+00 -5.042634487152099609e+00 7.272038459777832031e-01
-1.231161117553710938e+00 -5.365579605102539062e+00 7.130228281021118164e-01
-1.013642907142639160e+00 -5.292058467864990234e+00 6.472807526588439941e-01
-8.257305026054382324e-01 -5.356695652008056641e+00 5.993272066116333008e-01
-1.435500860214233398e+00 -5.348726272583007812e+00 5.674135088920593262e-01
-1.139868140220642090e+00 -4.959767818450927734e+00 4.729942977428436279e-01
-9.818742871284484863e-01 -5.116532802581787109e+00 4.347399473190307617e-01
-1.359667897224426270e+00 -5.059115409851074219e+00 3.451951146125793457e-01
-1.159928083419799805e+00 -5.038993835449218750e+00 2.918070554733276367e-01
-1.349661707878112793e+00 -5.018389225006103516e+00 1.542348116636276245e-01
-1.169136881828308105e+00 -5.070901870727539062e+00 1.053723022341728210e-01
-1.152971312403678894e-01 -7.410842180252075195e-01 9.162977221421897411e-04
-7.550127506256103516e-01 -4.796929836273193359e+00 1.276661515235900879e+00
-9.822049140930175781e-01 -5.008798599243164062e+00 1.189661264419555664e+00
-7.901996970176696777e-01 -4.992120265960693359e+00 1.129763960838317871e+00
-1.390547633171081543e+00 -5.070922374725341797e+00 1.129164218902587891e+00
-1.187648773193359375e+00 -5.049813270568847656e+00 1.061086297035217285e+00
-9.894774556159973145e-01 -5.027296543121337891e+00 9.978116154670715332e-01
-8.025915622711181641e-01 -5.041909694671630859e+00 9.443848729133605957e-01
-1.386333346366882324e+00 -5.052096366882324219e+00 9.256371259689331055e-01
-1.183731675148010254e+00 -5.025285720825195312e+00 8.602550625801086426e-01
-9.835814237594604492e-01 -4.992741107940673828e+00 7.986895442008972168e-01
-7.980480790138244629e-01 -4.990921497344970703e+00 7.454560995101928711e-01
-1.384216070175170898e+00 -5.040932655334472656e+00 7.281695604324340820e-01
-1.265426874160766602e+00 -5.363715648651123047e+00 7.137935161590576172e-01
-1.052649140357971191e+00 -5.318854808807373047e+00 6.513359546661376953e-01
-8.607873916625976562e-01 -5.365267753601074219e+00 6.008659601211547852e-01
-1.450094223022460938e+00 -5.273633003234863281e+00 5.603806972503662109e-01
-1.176919460296630859e+00 -4.980782508850097656e+00 4.756781160831451416e-01
-9.940629005432128906e-01 -5.013638496398925781e+00 4.265075027942657471e-01
-1.524719834327697754e+00 -5.537466049194335938e+00 3.784653246402740479e-01
-1.192894220352172852e+00 -5.040525913238525391e+00 2.923141419887542725e-01
-1.203457593917846680e+00 -5.077252388000488281e+00 1.056557223200798035e-01
-1.015328884124755859e+00 -5.097573280334472656e+00 5.533951148390769958e-02
-1.168061569333076477e-01 -7.216069102287292480e-01 8.930847398005425930e-04
-7.881813645362854004e-01 -4.815113067626953125e+00 1.282763719558715820e+00
-1.018138051033020020e+00 -5.028449535369873047e+00 1.195790052413940430e+00
-8.279479146003723145e-01 -5.030510902404785156e+00 1.139580368995666504e+00
-1.438025236129760742e+00 -5.120654582977294922e+00 1.142181634902954102e+00
-1.221373319625854492e+00 -5.053858280181884766e+00 1.063490986824035645e+00
-1.024605870246887207e+00 -5.042292118072509766e+00 1.002016901969909668e+00
-8.333525061607360840e-01 -5.035920143127441406e+00 9.442029595375061035e-01
-1.420236825942993164e+00 -5.053923130035400391e+00 9.275510311126708984e-01
-1.213615775108337402e+00 -5.014092922210693359e+00 8.595976233482360840e-01
-1.020301461219787598e+00 -5.016623020172119141e+00 8.034963011741638184e-01
-8.275214433670043945e-01 -4.979099273681640625e+00 7.444347143173217773e-01
-1.418069720268249512e+00 -5.042832374572753906e+00 7.296871542930603027e-01
-1.296678781509399414e+00 -5.349103450775146484e+00 7.128943800926208496e-01
-1.101362347602844238e+00 -5.391089916229248047e+00 6.609968543052673340e-01
-8.945091366767883301e-01 -5.364787101745605469e+00 6.014154553413391113e-01
-1.411782264709472656e+00 -5.013756752014160156e+00 5.336764454841613770e-01
-1.191249728202819824e+00 -4.906702518463134766e+00 4.692925214767456055e-01
-1.019612312316894531e+00 -4.982060909271240234e+00 4.243454337120056152e-01
-1.606598258018493652e+00 -5.697995185852050781e+00 3.901033103466033936e-01
-1.243614673614501953e+00 -5.114603996276855469e+00 2.970470488071441650e-01
-1.052661180496215820e+00 -5.134420871734619141e+00 2.462527900934219360e-01
-1.226072311401367188e+00 -5.034801483154296875e+00 1.049269139766693115e-01
-1.043567657470703125e+00 -5.076555252075195312e+00 5.517981201410293579e-02
-8.190082907676696777e-01 -4.817814350128173828e+00 1.284798026084899902e+00
-1.059128165245056152e+00 -5.070727348327636719e+00 1.207366704940795898e+00
-1.475360512733459473e+00 -5.132407665252685547e+00 1.146800875663757324e+00
-1.257315754890441895e+00 -5.066237449645996094e+00 1.067699193954467773e+00
-1.057136416435241699e+00 -5.043596267700195312e+00 1.003546237945556641e+00
-8.645696043968200684e-01 -5.032649993896484375e+00 9.445667266845703125e-01
-1.451764822006225586e+00 -5.047006607055664062e+00 9.278990030288696289e-01
-1.245786428451538086e+00 -5.012295722961425781e+00 8.605837821960449219e-01
-1.049441099166870117e+00 -5.002532958984375000e+00 8.022558689117431641e-01
-8.614206314086914062e-01 -4.993426322937011719e+00 7.473528981208801270e-01
-1.453368782997131348e+00 -5.049264907836914062e+00 7.318946123123168945e-01
-1.236771821975708008e+00 -4.968616485595703125e+00 6.631844043731689453e-01
-1.132987856864929199e+00 -5.377429962158203125e+00 6.601619720458984375e-01
-9.316471219062805176e-01 -5.383681774139404297e+00 6.041631102561950684e-01
-1.436458587646484375e+00 -4.983970642089843750e+00 5.314341187477111816e-01
-1.322971582412719727e+00 -5.307012081146240234e+00 5.083462595939636230e-01
-1.059834718704223633e+00 -5.021538734436035156e+00 4.282537698745727539e-01
-1.458369612693786621e+00 -5.053364276885986328e+00 3.465758860111236572e-01
-1.238214492797851562e+00 -4.959637641906738281e+00 2.884827256202697754e-01
-1.088071346282958984e+00 -5.146433830261230469e+00 2.471445053815841675e-01
-1.254517197608947754e+00 -5.017484664916992188e+00 1.047244742512702942e-01
-1.068684101104736328e+00 -5.041688442230224609e+00 5.487107113003730774e-02
-8.979259729385375977e-01 -5.092716217041015625e+00 1.359551668167114258e+00
-1.093296051025390625e+00 -5.078414440155029297e+00 1.210771441459655762e+00
-8.935343623161315918e-01 -5.042073249816894531e+00 1.144597649574279785e+00
-1.506824612617492676e+00 -5.123258113861083984e+00 1.146800875663757324e+00
-1.291037917137145996e+00 -5.068870544433593750e+00 1.069903612136840820e+00
-1.088270664215087891e+00 -5.037974357604980469e+00 1.003737330436706543e+00
-8.973298668861389160e-01 -5.037899494171142578e+00 9.465675950050354004e-01
-1.474920749664306641e+00 -5.011552333831787109e+00 9.230272173881530762e-01
-1.282125115394592285e+00 -5.026540756225585938e+00 8.643640875816345215e-01
-1.081786394119262695e+00 -5.003724575042724609e+00 8.034963011741638184e-01
-8.904761075973510742e-01 -4.979281902313232422e+00 7.460397481918334961e-01
-1.493556380271911621e+00 -5.071605205535888672e+00 7.364473938941955566e-01
-1.271162629127502441e+00 -4.976308345794677734e+00 6.652396321296691895e-01
-1.172281265258789062e+00 -5.399484157562255859e+00 6.637400388717651367e-01
-9.658916592597961426e-01 -5.384712219238281250e+00 6.049324870109558105e-01
-1.475453495979309082e+00 -5.003688335418701172e+00 5.344918966293334961e-01
-1.376238584518432617e+00 -5.379825115203857422e+00 5.161199569702148438e-01
-1.099520802497863770e+00 -5.055840015411376953e+00 4.317463338375091553e-01
-1.496695399284362793e+00 -5.069202423095703125e+00 3.482854366302490234e-01
-1.274073958396911621e+00 -4.973224639892578125e+00 2.897222936153411865e-01
-1.111336827278137207e+00 -5.101595878601074219e+00 2.453141510486602783e-01
-1.283789515495300293e+00 -5.003881931304931641e+00 1.046030074357986450e-01
-1.110053181648254395e+00 -5.082904815673828125e+00 5.539273843169212341e-02
-9.312427043914794922e-01 -5.098527431488037109e+00 1.362602829933166504e+00
-1.124436020851135254e+00 -5.071610450744628906e+00 1.210771441459655762e+00
-9.242789745330810547e-01 -5.035535812377929688e+00 1.144379496574401855e+00
-1.325582504272460938e+00 -5.074124336242675781e+00 1.072709083557128906e+00
-1.117031216621398926e+00 -5.021620273590087891e+00 1.001825809478759766e+00
-9.284032583236694336e-01 -5.033265590667724609e+00 9.467494487762451172e-01
-1.522388339042663574e+00 -5.058043003082275391e+00 9.332927465438842773e-01
-1.320682644844055176e+00 -5.048162460327148438e+00 8.694592118263244629e-01
-1.114400506019592285e+00 -5.005671501159667969e+00 8.048918247222900391e-01
-9.240738153457641602e-01 -4.990261077880859375e+00 7.485201954841613770e-01
-1.531502008438110352e+00 -5.085106372833251953e+00 7.397584915161132812e-01
-1.299159288406372070e+00 -4.958821773529052734e+00 6.639551520347595215e-01
-1.206039667129516602e+00 -5.395096778869628906e+00 6.640979051589965820e-01
-9.662454724311828613e-01 -5.202783107757568359e+00 5.851491093635559082e-01
-1.518477678298950195e+00 -5.035495281219482422e+00 5.388746261596679688e-01
-1.410738825798034668e+00 -5.377058029174804688e+00 5.166752338409423828e-01
-1.144239902496337891e+00 -5.110262870788574219e+00 4.369851648807525635e-01
-1.525752305984497070e+00 -5.053236961364746094e+00 3.478251695632934570e-01
-1.315220832824707031e+00 -5.005869865417480469e+00 2.920887470245361328e-01
-1.170818090438842773e+00 -5.220415592193603516e+00 2.513684034347534180e-01
-1.314214110374450684e+00 -4.994943618774414062e+00 1.045827642083168030e-01
-1.127402067184448242e+00 -5.014536380767822266e+00 5.472202226519584656e-02
-9.632275700569152832e-01 -5.096518993377685547e+00 1.363619923591613770e+00
-1.154450535774230957e+00 -5.059868335723876953e+00 1.209636569023132324e+00
-9.569797515869140625e-01 -5.039357662200927734e+00 1.146560907363891602e+00
-1.354410886764526367e+00 -5.057377815246582031e+00 1.070905566215515137e+00
-1.151764512062072754e+00 -5.031894683837890625e+00 1.005266547203063965e+00
-9.612965583801269531e-01 -5.038098812103271484e+00 9.487501978874206543e-01
-1.549051403999328613e+00 -5.034488677978515625e+00 9.306828975677490234e-01
-1.353421330451965332e+00 -5.046632766723632812e+00 8.706097602844238281e-01
-1.150167226791381836e+00 -5.020887374877929688e+00 8.084580302238464355e-01
-9.565371274948120117e-01 -4.994213581085205078e+00 7.499793171882629395e-01
-1.563257694244384766e+00 -5.077506542205810547e+00 7.400344014167785645e-01
-1.346023559570312500e+00 -5.012054443359375000e+00 6.721758842468261719e-01
-1.237340331077575684e+00 -5.379854679107666016e+00 6.631437540054321289e-01
-9.503431916236877441e-01 -4.947850704193115234e+00 5.571225881576538086e-01
-1.549639344215393066e+00 -5.027033805847167969e+00 5.389765501022338867e-01
-1.443705320358276367e+00 -5.368300914764404297e+00 5.166752338409423828e-01
-1.157454252243041992e+00 -5.024486541748046875e+00 4.302495121955871582e-01
-1.559966683387756348e+00 -5.054267406463623047e+00 3.485484123229980469e-01
-1.401991128921508789e+00 -5.205943584442138672e+00 3.042591214179992676e-01
-1.161955118179321289e+00 -5.035987854003906250e+00 2.428267598152160645e-01
-1.165810346603393555e+00 -5.040647983551025391e+00 5.508399754762649536e-02
-9.855802059173583984e-01 -5.044951438903808594e+00 1.351415157318115234e+00
-1.191259384155273438e+00 -5.077341079711914062e+00 1.215538263320922852e+00
-9.860031604766845703e-01 -5.023814678192138672e+00 1.144379496574401855e+00
-1.383342862129211426e+00 -5.041414260864257812e+00 1.069302439689636230e+00
