-3.805584907531738281e+00 -1.024198532104492188e+00 4.814838990569114685e-03
-1.003851795196533203e+01 -1.509503602981567383e+00 2.991563320159912109e+00
-9.735299110412597656e+00 -1.841538667678833008e+00 2.807400703430175781e+00
-8.567091941833496094e+00 -1.952931880950927734e+00 2.397222042083740234e+00
-1.303602600097656250e+01 -3.483621120452880859e+00 3.547496557235717773e+00
-9.395492553710937500e+00 -1.414488077163696289e+00 2.413040876388549805e+00
-1.356682300567626953e+01 -2.561408758163452148e+00 3.358004808425903320e+00
-8.569653511047363281e+00 -1.948796153068542480e+00 2.048369407653808594e+00
-9.303415298461914062e+00 -1.402286410331726074e+00 2.020443677902221680e+00
-8.514012336730957031e+00 -1.929892778396606445e+00 1.700102686882019043e+00
-9.756111145019531250e+00 -2.588893413543701172e+00 1.867124438285827637e+00
-1.298904895782470703e+01 -2.442935228347778320e+00 2.202246427536010742e+00
-8.549156188964843750e+00 -1.936290264129638672e+00 1.375805139541625977e+00
-8.480397224426269531e+00 -1.909827828407287598e+00 7.253704667091369629e-01
-7.278028488159179688e+00 -1.917715668678283691e+00 5.566695928573608398e-01
-8.485568046569824219e+00 -1.907880425453186035e+00 4.086379110813140869e-01
-3.795237541198730469e+00 -9.978968501091003418e-01 1.473244577646255493e-01
-1.221682929992675781e+01 -1.826158046722412109e+00 3.666154742240905762e-01
-9.003661155700683594e+00 -1.680364489555358887e+00 1.854592859745025635e-01
-7.077749252319335938e+00 -1.587456107139587402e+00 7.722831517457962036e-02
-3.799223899841308594e+00 -9.975272417068481445e-01 4.798956215381622314e-03
-1.105301475524902344e+01 -1.592763781547546387e+00 3.290917634963989258e+00
-9.919613838195800781e+00 -1.813432216644287109e+00 2.857289791107177734e+00
-1.150260066986083984e+01 -2.547959089279174805e+00 3.214193820953369141e+00
-1.172645473480224609e+01 -1.691897153854370117e+00 3.008978128433227539e+00
-1.387765502929687500e+01 -2.532006978988647461e+00 3.431030511856079102e+00
-1.008776855468750000e+01 -2.229016780853271484e+00 2.407923698425292969e+00
-1.298413467407226562e+01 -1.875669002532958984e+00 2.817241430282592773e+00
-1.008024692535400391e+01 -2.608806133270263672e+00 1.926057577133178711e+00
-1.264614582061767578e+01 -1.824590444564819336e+00 2.257545471191406250e+00
-7.340851306915283203e+00 -1.886175990104675293e+00 5.605789422988891602e-01
-8.500041961669921875e+00 -1.856417298316955566e+00 4.087786972522735596e-01
-3.773217439651489258e+00 -9.673937559127807617e-01 1.462364941835403442e-01
-1.217041492462158203e+01 -1.742943763732910156e+00 3.648948073387145996e-01
-9.057095527648925781e+00 -1.632892727851867676e+00 1.863500475883483887e-01
-7.067816257476806641e+00 -1.539740920066833496e+00 7.701539248228073120e-02
-3.763616561889648438e+00 -9.635322690010070801e-01 4.746422171592712402e-03
-1.001352500915527344e+01 -1.380307555198669434e+00 2.978842973709106445e+00
-1.016931915283203125e+01 -1.794669508934020996e+00 2.925988912582397461e+00
-1.261304187774658203e+01 -2.712853431701660156e+00 3.519768476486206055e+00
-9.405422210693359375e+00 -1.298156738281250000e+00 2.411317825317382812e+00
-9.405814170837402344e+00 -1.656541705131530762e+00 2.322881937026977539e+00
-9.072847366333007812e+00 -1.946447372436523438e+00 2.162773132324218750e+00
-9.957310676574707031e+00 -2.521147251129150391e+00 2.295957803726196289e+00
-1.197169017791748047e+01 -1.654487967491149902e+00 2.595314025878906250e+00
-1.413787651062011719e+01 -3.022753000259399414e+00 2.815472602844238281e+00
-7.376471519470214844e+00 -1.847154140472412109e+00 5.624229311943054199e-01
-1.253922557830810547e+01 -2.658076047897338867e+00 6.022328734397888184e-01
-7.443764209747314453e+00 -1.859863638877868652e+00 2.880461215972900391e-01
-1.215711402893066406e+01 -1.664979696273803711e+00 3.641828298568725586e-01
-9.132938385009765625e+00 -1.588769197463989258e+00 1.877064257860183716e-01
-6.980277538299560547e+00 -1.475866675376892090e+00 7.596140354871749878e-02
-4.245855331420898438e+00 -1.059274792671203613e+00 5.346291698515415192e-03
-1.086630916595458984e+01 -1.429973840713500977e+00 3.229859590530395508e+00
-9.682182312011718750e+00 -1.647506237030029297e+00 2.782865285873413086e+00
-1.273144435882568359e+01 -2.656693696975708008e+00 3.548193931579589844e+00
-9.854434967041015625e+00 -2.439980983734130859e+00 2.669013261795043945e+00
-9.705330848693847656e+00 -1.278915762901306152e+00 2.486148357391357422e+00
-9.654333114624023438e+00 -1.639300107955932617e+00 2.381727933883666992e+00
-9.856925964355468750e+00 -2.051477432250976562e+00 2.346635818481445312e+00
-9.997227668762207031e+00 -2.466079711914062500e+00 2.301629543304443359e+00
-9.296632766723632812e+00 -1.226710557937622070e+00 2.013725042343139648e+00
-1.398015594482421875e+01 -2.368801832199096680e+00 2.900302410125732422e+00
-1.444545078277587891e+01 -2.995946168899536133e+00 2.873009204864501953e+00
-8.454397201538085938e+00 -2.062034845352172852e+00 6.436331272125244141e-01
-1.253670883178710938e+01 -2.577265024185180664e+00 6.013411879539489746e-01
-8.448328971862792969e+00 -2.055868387222290039e+00 3.264247477054595947e-01
-1.215619754791259766e+01 -1.588928580284118652e+00 3.638564944267272949e-01
-9.172096252441406250e+00 -1.537659645080566406e+00 1.883137524127960205e-01
-6.840308189392089844e+00 -1.402480721473693848e+00 7.434316724538803101e-02
-4.730363845825195312e+00 -1.149367094039916992e+00 5.947382654994726181e-03
-1.055508518218994141e+01 -1.323183178901672363e+00 3.134880304336547852e+00
-1.022285842895507812e+01 -1.675030469894409180e+00 2.935257673263549805e+00
-1.062843799591064453e+01 -2.149886608123779297e+00 2.958363771438598633e+00
-9.909648895263671875e+00 -2.389216661453247070e+00 2.679946660995483398e+00
-1.299040985107421875e+01 -1.630777955055236816e+00 3.325038671493530273e+00
-9.472422599792480469e+00 -1.548675417900085449e+00 2.334461927413940430e+00
-9.868373870849609375e+00 -1.990765452384948730e+00 2.346409082412719727e+00
-1.004633331298828125e+01 -2.412896394729614258e+00 2.309482574462890625e+00
-1.307078456878662109e+01 -1.643185257911682129e+00 2.828999280929565430e+00
-1.385325527191162109e+01 -2.259946584701538086e+00 2.871044874191284180e+00
-1.283436584472656250e+01 -2.579777240753173828e+00 2.549389600753784180e+00
-8.517057418823242188e+00 -2.037740230560302734e+00 1.619932770729064941e+00
-9.069238662719726562e+00 -1.138525605201721191e+00 1.614993214607238770e+00
-8.565465927124023438e+00 -2.043000936508178711e+00 1.298748135566711426e+00
-8.545830726623535156e+00 -2.033589124679565430e+00 9.713650941848754883e-01
-8.462038993835449219e+00 -2.008968830108642578e+00 6.432642936706542969e-01
-1.247979259490966797e+01 -2.485852479934692383e+00 5.978682041168212891e-01
-8.446198463439941406e+00 -2.000537157058715820e+00 3.258620500564575195e-01
-1.204371452331542969e+01 -1.499123334884643555e+00 3.602075278759002686e-01
-1.125116157531738281e+01 -1.815300941467285156e+00 2.307663261890411377e-01
-6.947843074798583984e+00 -1.380160570144653320e+00 7.541844248771667480e-02
-5.263805389404296875e+00 -1.244826316833496094e+00 6.608339026570320129e-03
-1.250606536865234375e+01 -1.489874482154846191e+00 3.711540222167968750e+00
-1.148937129974365234e+01 -1.810231804847717285e+00 3.295656204223632812e+00
-9.677640914916992188e+00 -1.895827412605285645e+00 2.690426349639892578e+00
-8.546608924865722656e+00 -2.005179166793823242e+00 2.307957887649536133e+00
-9.417137145996093750e+00 -1.123550772666931152e+00 2.408610105514526367e+00
-9.588294029235839844e+00 -1.507273674011230469e+00 2.360694646835327148e+00
-9.663430213928222656e+00 -1.887790083885192871e+00 2.294881820678710938e+00
-8.561357498168945312e+00 -2.000758647918701172e+00 1.965252637863159180e+00
-1.290005111694335938e+01 -1.541377902030944824e+00 2.789946794509887695e+00
-1.384750461578369141e+01 -2.171866178512573242e+00 2.867037057876586914e+00
-9.531723022460937500e+00 -1.855153322219848633e+00 1.891063213348388672e+00
-8.555259704589843750e+00 -1.991461515426635742e+00 1.624843955039978027e+00
-1.403942871093750000e+01 -1.675032496452331543e+00 2.498176336288452148e+00
-8.559529304504394531e+00 -1.986157059669494629e+00 1.295975923538208008e+00
-1.250793647766113281e+01 -1.490097284317016602e+00 1.754615426063537598e+00
-8.575576782226562500e+00 -1.985149383544921875e+00 9.733433723449707031e-01
-8.479064941406250000e+00 -1.958131074905395508e+00 6.436331272125244141e-01
-1.273420810699462891e+01 -1.508038043975830078e+00 8.449718356132507324e-01
-1.243105697631835938e+01 -2.396938323974609375e+00 5.948175787925720215e-01
-8.434944152832031250e+00 -1.943290233612060547e+00 3.249616622924804688e-01
-1.234849452972412109e+01 -1.460174679756164551e+00 3.690480887889862061e-01
-1.014763736724853516e+01 -1.573430895805358887e+00 2.079306244850158691e-01
-7.020990371704101562e+00 -1.349964737892150879e+00 7.612110674381256104e-02
-5.209947586059570312e+00 -1.198382377624511719e+00 6.531369872391223907e-03
-1.055718326568603516e+01 -1.192049622535705566e+00 3.130922794342041016e+00
-1.020839786529541016e+01 -1.544273614883422852e+00 2.925443649291992188e+00
-1.168814182281494141e+01 -2.215298652648925781e+00 3.245514392852783203e+00
-8.556865692138671875e+00 -1.952270269393920898e+00 2.307449340820312500e+00
-9.713744163513183594e+00 -1.098530888557434082e+00 2.482702255249023438e+00
-9.500321388244628906e+00 -1.433767676353454590e+00 2.336825370788574219e+00
-9.648993492126464844e+00 -1.823577761650085449e+00 2.288753032684326172e+00
-8.579182624816894531e+00 -1.949486851692199707e+00 1.966561436653137207e+00
-1.241768741607666016e+01 -1.406515955924987793e+00 2.683706998825073242e+00
-9.067934036254882812e+00 -1.365275382995605469e+00 1.875687956809997559e+00
-8.587457656860351562e+00 -1.943488001823425293e+00 1.628663659095764160e+00
-1.297406005859375000e+01 -1.467241287231445312e+00 2.306959152221679688e+00
-8.579276084899902344e+00 -1.935341119766235352e+00 1.297143220901489258e+00
-1.253652763366699219e+01 -1.415544629096984863e+00 1.757374763488769531e+00
-1.271274757385253906e+01 -1.430948138236999512e+00 1.310748577117919922e+00
-8.496758460998535156e+00 -1.907378077507019043e+00 6.440756320953369141e-01
-1.273727130889892578e+01 -1.429206371307373047e+00 8.445773124694824219e-01
-1.241901683807373047e+01 -2.315673828125000000e+00 5.935504436492919922e-01
-8.487665176391601562e+00 -1.900669217109680176e+00 3.265373110771179199e-01
-1.212080478668212891e+01 -1.357892632484436035e+00 3.619875311851501465e-01
-1.122314643859863281e+01 -1.669739007949829102e+00 2.297541201114654541e-01
-7.178572177886962891e+00 -1.334641456604003906e+00 7.773934304714202881e-02
-4.891249656677246094e+00 -1.093519926071166992e+00 6.123311817646026611e-03
-1.044412040710449219e+01 -1.114426136016845703e+00 3.095305681228637695e+00
-1.029194927215576172e+01 -1.492376327514648438e+00 2.946707725524902344e+00
-1.165311813354492188e+01 -2.134674310684204102e+00 3.232091188430786133e+00
-9.918900489807128906e+00 -2.199080705642700195e+00 2.671047210693359375e+00
-1.092305183410644531e+01 -1.167457938194274902e+00 2.789901494979858398e+00
-1.182655143737792969e+01 -1.710685253143310547e+00 2.906379222869873047e+00
-9.599643707275390625e+00 -1.753314495086669922e+00 2.274452686309814453e+00
-9.424827575683593750e+00 -2.080914497375488281e+00 2.157436847686767578e+00
-9.352130889892578125e+00 -1.001208543777465820e+00 2.019814014434814453e+00
-9.289468765258789062e+00 -1.340391397476196289e+00 1.919774651527404785e+00
-9.673884391784667969e+00 -2.127052068710327148e+00 1.832201242446899414e+00
-1.281048488616943359e+01 -1.369187235832214355e+00 2.276336431503295898e+00
-8.550402641296386719e+00 -1.873768806457519531e+00 1.291015028953552246e+00
-1.272323417663574219e+01 -1.357615947723388672e+00 1.782346129417419434e+00
-1.270644950866699219e+01 -1.351339221000671387e+00 1.309219717979431152e+00
-8.554098129272460938e+00 -1.865192651748657227e+00 6.475424170494079590e-01
-1.274679374694824219e+01 -1.351130247116088867e+00 8.446431159973144531e-01
-1.233664989471435547e+01 -2.222075462341308594e+00 5.889511108398437500e-01
-8.512837409973144531e+00 -1.851527333259582520e+00 3.270625174045562744e-01
-1.263187694549560547e+01 -1.336719870567321777e+00 3.769986331462860107e-01
-1.122625160217285156e+01 -1.599856257438659668e+00 2.296124100685119629e-01
-7.263393402099609375e+00 -1.304355263710021973e+00 7.856974750757217407e-02
-5.225238800048828125e+00 -1.134570240974426270e+00 6.532591301947832108e-03
-1.031619071960449219e+01 -1.036796569824218750e+00 3.055448532104492188e+00
-1.001978015899658203e+01 -1.390192270278930664e+00 2.866286039352416992e+00
-1.149784755706787109e+01 -2.033394575119018555e+00 3.185504913330078125e+00
-9.969080924987792969e+00 -2.146116256713867188e+00 2.680963754653930664e+00
-1.153080368041992188e+01 -1.160900235176086426e+00 2.943255186080932617e+00
-9.433463096618652344e+00 -1.305487751960754395e+00 2.316264629364013672e+00
-9.338794708251953125e+00 -1.646523952484130859e+00 2.210214138031005859e+00
-1.388035202026367188e+01 -2.975452184677124023e+00 3.173111677169799805e+00
-9.369771003723144531e+00 -9.449834227561950684e-01 2.022333621978759766e+00
-1.398626136779785156e+01 -2.455852746963500977e+00 2.765390872955322266e+00
-1.281766510009765625e+01 -1.290459156036376953e+00 2.276162624359130859e+00
-1.290565299987792969e+01 -1.776819229125976562e+00 2.170689582824707031e+00
-1.269979095458984375e+01 -1.276352763175964355e+00 1.777931332588195801e+00
-1.273330879211425781e+01 -1.275231957435607910e+00 1.311156272888183594e+00
-1.275881576538085938e+01 -1.273288249969482422e+00 8.449060916900634766e-01
-1.229592418670654297e+01 -2.136930465698242188e+00 5.863698124885559082e-01
-1.271566009521484375e+01 -2.684028625488281250e+00 4.878926575183868408e-01
-1.231360054016113281e+01 -1.226686716079711914e+00 3.672681152820587158e-01
-1.099909305572509766e+01 -1.498682856559753418e+00 2.247739881277084351e-01
-7.393433094024658203e+00 -1.280930161476135254e+00 7.988989353179931641e-02
-5.713529586791992188e+00 -1.203931927680969238e+00 7.133682724088430405e-03
-1.007883834838867188e+01 -9.505122900009155273e-01 2.983366012573242188e+00
-1.266343498229980469e+01 -1.677854418754577637e+00 3.619524240493774414e+00
-8.794965744018554688e+00 -1.499796509742736816e+00 2.434069871902465820e+00
-1.012596035003662109e+01 -2.114962100982666016e+00 2.719611644744873047e+00
-1.080050086975097656e+01 -1.020472407341003418e+00 2.755193948745727539e+00
-9.341113090515136719e+00 -1.234342217445373535e+00 2.291686534881591797e+00
-9.439933776855468750e+00 -1.604696273803710938e+00 2.231778383255004883e+00
-9.884394645690917969e+00 -2.055507183074951172e+00 2.256691932678222656e+00
-1.268675994873046875e+01 -1.200927376747131348e+00 2.736616849899291992e+00
-1.211718082427978516e+01 -1.596870779991149902e+00 2.499915122985839844e+00
-1.278455066680908203e+01 -2.164066314697265625e+00 2.525113344192504883e+00
-1.221632385253906250e+01 -1.152093648910522461e+00 1.709225654602050781e+00
-1.287070560455322266e+01 -1.204742193222045898e+00 8.518100380897521973e-01
-1.228614521026611328e+01 -2.057648897171020508e+00 5.852903723716735840e-01
-1.248420238494873047e+01 -2.555259704589843750e+00 4.784011840820312500e-01
-1.243634223937988281e+01 -1.161894679069519043e+00 3.707093894481658936e-01
-1.129461097717285156e+01 -1.468417286872863770e+00 2.306246161460876465e-01
-7.684220314025878906e+00 -1.282795548439025879e+00 8.294538408517837524e-02
-5.711991786956787109e+00 -1.167050123214721680e+00 7.122687529772520065e-03
-1.235095691680908203e+01 -1.088375329971313477e+00 3.653874158859252930e+00
-9.807948112487792969e+00 -1.238325476646423340e+00 2.801130771636962891e+00
-8.664060592651367188e+00 -1.422821998596191406e+00 2.395379781723022461e+00
-1.009419536590576172e+01 -2.043770313262939453e+00 2.707661390304565430e+00
-1.256661891937255859e+01 -1.109589934349060059e+00 3.203931331634521484e+00
-1.301773071289062500e+01 -1.638967871665954590e+00 3.191156148910522461e+00
-1.293169212341308594e+01 -2.116704463958740234e+00 3.054167747497558594e+00
-9.824113845825195312e+00 -1.980163931846618652e+00 2.240113019943237305e+00
-1.271044635772705078e+01 -1.124525070190429688e+00 2.740186214447021484e+00
-1.304925918579101562e+01 -1.638310194015502930e+00 2.690089225769042969e+00
-1.393687438964843750e+01 -2.271246671676635742e+00 2.749907493591308594e+00
-1.240975475311279297e+01 -1.095739364624023438e+00 2.201172113418579102e+00
-1.231769752502441406e+01 -1.542096734046936035e+00 2.068458318710327148e+00
-1.216988563537597656e+01 -1.072419166564941406e+00 1.701775670051574707e+00
-1.286889934539794922e+01 -1.129490017890930176e+00 1.323591113090515137e+00
-1.225712108612060547e+01 -1.975548148155212402e+00 5.833192467689514160e-01
-1.275842189788818359e+01 -2.529923677444458008e+00 4.883053302764892578e-01
-1.437504577636718750e+01 -1.254098415374755859e+00 4.282619357109069824e-01
-1.148597717285156250e+01 -1.421684741973876953e+00 2.343495935201644897e-01
-7.765993118286132812e+00 -1.247516632080078125e+00 8.374385535717010498e-02
-5.623890876770019531e+00 -1.113145947456359863e+00 7.004179526120424271e-03
-1.051325702667236328e+01 -8.614606857299804688e-01 3.108591556549072266e+00
-9.997817993164062500e+00 -1.200021624565124512e+00 2.853200435638427734e+00
-9.132893562316894531e+00 -1.442321419715881348e+00 2.522505044937133789e+00
-1.270697212219238281e+01 -2.491713285446166992e+00 3.404345989227294922e+00
-1.096773147583007812e+01 -9.006276726722717285e-01 2.794824600219726562e+00
-1.370096492767333984e+01 -1.639653086662292480e+00 3.356113910675048828e+00
-1.294347476959228516e+01 -2.037165641784667969e+00 3.053940773010253906e+00
-9.826500892639160156e+00 -1.917977571487426758e+00 2.237931728363037109e+00
-1.220846080780029297e+01 -1.004656791687011719e+00 2.630587100982666016e+00
-1.278375911712646484e+01 -1.525361061096191406e+00 2.633377790451049805e+00
-9.208563804626464844e+00 -1.442743062973022461e+00 1.815176010131835938e+00
-1.211592197418212891e+01 -9.949126243591308594e-01 2.147930383682250977e+00
-1.241214370727539062e+01 -1.476625561714172363e+00 2.082757472991943359e+00
-1.287360382080078125e+01 -1.050344705581665039e+00 1.323387145996093750e+00
-1.277206897735595703e+01 -1.505882143974304199e+00 7.257707118988037109e-01
-1.222853946685791016e+01 -1.894034028053283691e+00 5.813950300216674805e-01
-1.278646183013916016e+01 -2.454040288925170898e+00 4.887930154800415039e-01
-1.182797813415527344e+01 -9.587990641593933105e-01 3.521976768970489502e-01
-1.136639308929443359e+01 -1.336124181747436523e+00 2.317380756139755249e-01
-7.780419349670410156e+00 -1.200909614562988281e+00 8.381837606430053711e-02
-5.167044639587402344e+00 -9.898145198822021484e-01 6.427522748708724976e-03
-1.268953990936279297e+01 -9.614398479461669922e-01 3.750266551971435547e+00
-1.068276214599609375e+01 -1.215789556503295898e+00 3.046484947204589844e+00
-1.139834976196289062e+01 -1.728480577468872070e+00 3.145235300064086914e+00
-1.278378295898437500e+01 -2.425415754318237305e+00 3.420872926712036133e+00
-1.096725368499755859e+01 -8.328736424446105957e-01 2.793347597122192383e+00
-1.366925334930419922e+01 -1.550844550132751465e+00 3.345952033996582031e+00
-9.410093307495117188e+00 -1.421935439109802246e+00 2.218158721923828125e+00
-9.640536308288574219e+00 -1.820345640182495117e+00 2.192994117736816406e+00
-1.083200168609619141e+01 -8.245038390159606934e-01 2.332864046096801758e+00
-1.278119564056396484e+01 -1.445571303367614746e+00 2.630972862243652344e+00
-1.203735446929931641e+01 -9.141391515731811523e-01 2.132967233657836914e+00
-1.276403617858886719e+01 -1.439118266105651855e+00 2.140283107757568359e+00
-1.257511901855468750e+01 -1.413373112678527832e+00 1.639014720916748047e+00
-1.290460681915283203e+01 -9.732043147087097168e-01 1.325935363769531250e+00
-1.270935916900634766e+01 -1.423968672752380371e+00 1.188639998435974121e+00
-1.277809143066406250e+01 -1.427153348922729492e+00 7.256016731262207031e-01
-1.218163585662841797e+01 -1.810302376747131348e+00 5.786260366439819336e-01
-1.328173255920410156e+01 -2.464695930480957031e+00 5.071382522583007812e-01
-1.364576339721679688e+01 -1.021913647651672363e+00 4.061309099197387695e-01
-1.137139606475830078e+01 -1.266024231910705566e+00 2.316773384809494019e-01
-7.730270385742187500e+00 -1.144652128219604492e+00 8.320089429616928101e-02
-5.201535701751708984e+00 -9.633727669715881348e-01 6.462953053414821625e-03
-1.284256362915039062e+01 -8.938163518905639648e-01 3.793798685073852539e+00
-1.069480419158935547e+01 -1.150733113288879395e+00 3.047848224639892578e+00
-9.449683189392089844e+00 -1.373717427253723145e+00 2.605149745941162109e+00
-9.037091255187988281e+00 -1.657190084457397461e+00 2.415511608123779297e+00
-1.098569393157958984e+01 -7.665086388587951660e-01 2.796793937683105469e+00
-1.156461143493652344e+01 -1.240238785743713379e+00 2.828863143920898438e+00
-1.188896274566650391e+01 -1.721963763236999512e+00 2.799937725067138672e+00
-1.427135276794433594e+01 -2.604159593582153320e+00 3.242699384689331055e+00
-1.126210021972656250e+01 -7.877696752548217773e-01 2.424406766891479492e+00
-1.106555080413818359e+01 -1.182810425758361816e+00 2.276275396347045898e+00
-1.421449756622314453e+01 -2.580969572067260742e+00 2.672361612319946289e+00
-1.164782810211181641e+01 -8.127080202102661133e-01 2.063022375106811523e+00
-1.286482620239257812e+01 -1.370595335960388184e+00 2.155732870101928711e+00
-1.385483360290527344e+01 -1.994352340698242188e+00 2.196977853775024414e+00
-1.259834766387939453e+01 -1.337757825851440430e+00 1.640941500663757324e+00
-1.289346408843994141e+01 -8.928365707397460938e-01 1.324202537536621094e+00
-1.269310188293457031e+01 -1.343338847160339355e+00 1.186326384544372559e+00
-1.274589920043945312e+01 -1.344427704811096191e+00 7.232915759086608887e-01
-1.217273616790771484e+01 -1.732707858085632324e+00 5.776873826980590820e-01
-1.240544414520263672e+01 -2.223431110382080078e+00 4.731489419937133789e-01
-1.178300952911376953e+01 -8.097417950630187988e-01 3.505363762378692627e-01
-1.130835342407226562e+01 -1.188805341720581055e+00 2.302399724721908569e-01
-7.811400890350341797e+00 -1.107728242874145508e+00 8.399936556816101074e-02
-5.248692512512207031e+00 -9.388337731361389160e-01 6.514265667647123337e-03
-1.046319389343261719e+01 -6.637313961982727051e-01 3.089652061462402344e+00
-1.057052516937255859e+01 -1.071792602539062500e+00 3.010499715805053711e+00
-9.242937088012695312e+00 -1.285800814628601074e+00 2.545929908752441406e+00
-9.244221687316894531e+00 -1.636608839035034180e+00 2.468144416809082031e+00
-1.025796222686767578e+01 -6.525101661682128906e-01 2.610455751419067383e+00
-1.148499679565429688e+01 -1.160464882850646973e+00 2.807593345642089844e+00
-1.450235366821289062e+01 -2.554464817047119141e+00 3.291563510894775391e+00
-1.174580287933349609e+01 -7.492102384567260742e-01 2.527496814727783203e+00
-1.272193908691406250e+01 -1.280961871147155762e+00 2.615342140197753906e+00
-1.282081413269042969e+01 -2.246742486953735352e+00 2.407708406448364258e+00
-1.183932113647460938e+01 -7.531005740165710449e-01 2.096081018447875977e+00
-1.285041999816894531e+01 -1.289367437362670898e+00 2.151952505111694336e+00
-1.269338130950927734e+01 -1.747735261917114258e+00 2.011066436767578125e+00
-1.389662837982177734e+01 -8.815309405326843262e-01 1.939624190330505371e+00
-1.253625583648681641e+01 -1.253425478935241699e+00 1.631821632385253906e+00
-1.288678550720214844e+01 -8.129553794860839844e-01 1.322979450225830078e+00
-1.273578453063964844e+01 -1.268885254859924316e+00 1.189565420150756836e+00
-1.275688838958740234e+01 -1.266490817070007324e+00 7.234605550765991211e-01
-1.213068008422851562e+01 -1.650845766067504883e+00 5.751999616622924805e-01
-1.233712387084960938e+01 -2.133139610290527344e+00 4.700351357460021973e-01
-1.372611141204833984e+01 -8.586884140968322754e-01 4.081778824329376221e-01
-1.134130382537841797e+01 -1.121955275535583496e+00 2.307663261890411377e-01
-8.033072471618652344e+00 -1.088924765586853027e+00 8.630961924791336060e-02
-5.268150806427001953e+00 -9.089911580085754395e-01 6.531369872391223907e-03
-1.059252071380615234e+01 -6.067034602165222168e-01 3.126682758331298828e+00
-1.036618900299072266e+01 -9.868531823158264160e-01 2.950524330139160156e+00
-1.262939357757568359e+01 -1.677970290184020996e+00 3.475813865661621094e+00
-9.502911567687988281e+00 -1.622335433959960938e+00 2.534507274627685547e+00
-1.053948402404785156e+01 -6.055111885070800781e-01 2.681101799011230469e+00
-1.121524429321289062e+01 -1.063732385635375977e+00 2.740003347396850586e+00
-1.438786506652832031e+01 -2.443373918533325195e+00 3.262114048004150391e+00
-1.139585781097412109e+01 -6.567068696022033691e-01 2.451281309127807617e+00
-1.279295825958251953e+01 -1.208868265151977539e+00 2.628367662429809570e+00
-1.215486049652099609e+01 -1.599813103675842285e+00 2.387484073638916016e+00
-1.282078456878662109e+01 -2.165740251541137695e+00 2.405161857604980469e+00
-1.265391349792480469e+01 -1.663251280784606934e+00 2.003158807754516602e+00
-1.379102706909179688e+01 -7.899029850959777832e-01 1.924172163009643555e+00
-1.238572978973388672e+01 -1.161663770675659180e+00 1.611269712448120117e+00
-1.280182266235351562e+01 -1.196181416511535645e+00 1.195025563240051270e+00
-1.205935382843017578e+01 -1.565835237503051758e+00 5.713515281677246094e-01
-1.231646728515625000e+01 -2.051817178726196289e+00 4.687596261501312256e-01
-1.181800651550292969e+01 -6.665486097335815430e-01 3.513076901435852051e-01
-1.137784099578857422e+01 -1.055114865303039551e+00 2.313736826181411743e-01
-8.061419486999511719e+00 -1.042435526847839355e+00 8.654383569955825806e-02
-6.256145954132080078e+00 -1.039975643157958984e+00 7.748213130980730057e-03
-1.338276195526123047e+01 -6.841618418693542480e-01 3.948987960815429688e+00
-1.067392349243164062e+01 -9.500991106033325195e-01 3.036398410797119141e+00
-1.313905715942382812e+01 -1.663707852363586426e+00 3.613204240798950195e+00
-9.867694854736328125e+00 -1.622363567352294922e+00 2.629093647003173828e+00
-1.166389656066894531e+01 -5.983299612998962402e-01 2.966147184371948242e+00
-1.268982887268066406e+01 -1.125072717666625977e+00 3.098515272140502930e+00
-1.311099147796630859e+01 -1.653179526329040527e+00 3.080044746398925781e+00
-1.454861927032470703e+01 -7.488552927970886230e-01 3.128401994705200195e+00
-1.187203788757324219e+01 -1.048391342163085938e+00 2.437793254852294922e+00
-1.217029094696044922e+01 -1.525934815406799316e+00 2.388630867004394531e+00
-1.475377750396728516e+01 -7.568334937095642090e-01 2.610227108001708984e+00
-1.255801391601562500e+01 -1.572322010993957520e+00 1.986412763595581055e+00
-1.383518028259277344e+01 -7.072906494140625000e-01 1.929690718650817871e+00
-1.284959030151367188e+01 -1.121156811714172363e+00 1.198819875717163086e+00
-1.205188083648681641e+01 -1.489727735519409180e+00 5.705537199974060059e-01
-1.372599220275878906e+01 -2.200160264968872070e+00 5.218819379806518555e-01
-1.378652858734130859e+01 -6.927415132522583008e-01 4.096908569335937500e-01
-1.162714195251464844e+01 -1.006316781044006348e+00 2.363133132457733154e-01
-7.780844688415527344e+00 -9.576507806777954102e-01 8.346705138683319092e-02
-6.185388088226318359e+00 -9.892508387565612793e-01 7.652918342500925064e-03
-1.115590953826904297e+01 -5.017092823982238770e-01 3.290917634963989258e+00
-1.064311695098876953e+01 -8.815692663192749023e-01 3.026038885116577148e+00
-1.076786613464355469e+01 -1.296381473541259766e+00 2.958889961242675781e+00
-9.877464294433593750e+00 -1.561785936355590820e+00 2.629093647003173828e+00
-1.081335639953613281e+01 -4.881949126720428467e-01 2.749040126800537109e+00
-9.737109184265136719e+00 -8.031025528907775879e-01 2.376292228698730469e+00
-1.285980510711669922e+01 -1.541406869888305664e+00 3.018757104873657227e+00
-1.150854396820068359e+01 -5.215935707092285156e-01 2.473957300186157227e+00
-8.864990234375000000e+00 -7.280560135841369629e-01 1.819377183914184570e+00
-1.295136165618896484e+01 -1.543210029602050781e+00 2.540023088455200195e+00
-1.385506534576416016e+01 -6.255201697349548340e-01 2.450502395629882812e+00
-1.243793487548828125e+01 -1.479831457138061523e+00 1.965945482254028320e+00
-1.348801040649414062e+01 -6.065896749496459961e-01 1.880713820457458496e+00
-1.286615180969238281e+01 -1.043096780776977539e+00 1.199745297431945801e+00
-1.203202438354492188e+01 -1.412373542785644531e+00 5.691926479339599609e-01
-1.392293834686279297e+01 -2.144188880920410156e+00 5.288599133491516113e-01
-1.408710098266601562e+01 -6.212145686149597168e-01 4.185017049312591553e-01
-1.171282386779785156e+01 -9.413626790046691895e-01 2.379328608512878418e-01
-7.872981548309326172e+00 -9.199874401092529297e-01 8.439328521490097046e-02
-6.044069766998291016e+00 -9.286515712738037109e-01 7.470880169421434402e-03
-1.179138469696044922e+01 -4.578098952770233154e-01 3.477484226226806641e+00
-1.050346946716308594e+01 -8.051438331604003906e-01 2.984873771667480469e+00
-1.074686241149902344e+01 -1.227003574371337891e+00 2.950994014739990234e+00
-9.728136062622070312e+00 -1.477049946784973145e+00 2.586885929107666016e+00
-1.181272983551025391e+01 -4.607034623622894287e-01 3.002331733703613281e+00
-1.071942996978759766e+01 -8.179345130920410156e-01 2.614748716354370117e+00
-9.243166923522949219e+00 -1.050419330596923828e+00 2.168220758438110352e+00
-1.294914913177490234e+01 -1.954545974731445312e+00 2.927264213562011719e+00
-1.122527790069580078e+01 -4.397546947002410889e-01 2.412438869476318359e+00
-1.083579444885253906e+01 -8.230092525482177734e-01 2.222770452499389648e+00
-1.106448650360107422e+01 -1.249575495719909668e+00 2.168424367904663086e+00
-1.273983955383300781e+01 -1.911583423614501953e+00 2.382971048355102539e+00
-1.408397865295410156e+01 -5.492835044860839844e-01 2.490346670150756836e+00
-1.182869815826416016e+01 -8.942704796791076660e-01 1.976581573486328125e+00
-1.302990150451660156e+01 -1.469237923622131348e+00 2.058048248291015625e+00
-1.264661312103271484e+01 -1.414843320846557617e+00 1.528689384460449219e+00
-1.273056030273437500e+01 -1.419735670089721680e+00 1.068888187408447266e+00
-1.200373172760009766e+01 -1.334436297416687012e+00 5.674561858177185059e-01
-1.409894561767578125e+01 -2.082815408706665039e+00 5.350499749183654785e-01
-1.163449859619140625e+01 -4.415506720542907715e-01 3.455524444580078125e-01
-1.162764739990234375e+01 -8.627443313598632812e-01 2.360906302928924561e-01
-8.075265884399414062e+00 -8.934346437454223633e-01 8.650124818086624146e-02
-5.385824680328369141e+00 -7.937185764312744141e-01 6.651099305599927902e-03
-1.139323329925537109e+01 -3.723537623882293701e-01 3.359325408935546875e+00
-1.232116413116455078e+01 -8.684681057929992676e-01 3.499845743179321289e+00
-8.835853576660156250e+00 -9.539325237274169922e-01 2.424594879150390625e+00
-9.345582962036132812e+00 -1.360353946685791016e+00 2.482891559600830078e+00
-1.156831359863281250e+01 -3.800969421863555908e-01 2.939562797546386719e+00
-9.329810142517089844e+00 -1.002318978309631348e+00 2.187061071395874023e+00
-1.200855827331542969e+01 -1.737279534339904785e+00 2.712175130844116211e+00
-1.113884162902832031e+01 -3.679321110248565674e-01 2.393332481384277344e+00
-1.103708457946777344e+01 -7.702153325080871582e-01 2.263049364089965820e+00
-1.103680801391601562e+01 -1.177911520004272461e+00 2.161542892456054688e+00
-1.242429637908935547e+01 -1.786356806755065918e+00 2.321855306625366211e+00
-1.404869937896728516e+01 -4.615943431854248047e-01 2.483561038970947266e+00
-1.436390781402587891e+01 -9.973371624946594238e-01 2.399148702621459961e+00
-1.277343750000000000e+01 -1.360999822616577148e+00 2.016183376312255859e+00
-1.261358737945556641e+01 -1.332836627960205078e+00 1.523680090904235840e+00
-1.272020244598388672e+01 -1.339612603187561035e+00 1.067308187484741211e+00
-1.192029666900634766e+01 -1.251164674758911133e+00 5.631384253501892090e-01
-1.426482391357421875e+01 -2.017962217330932617e+00 5.408649444580078125e-01
-1.387087440490722656e+01 -4.412108659744262695e-01 4.118861556053161621e-01
-1.167062759399414062e+01 -7.939608693122863770e-01 2.368599176406860352e-01
-7.919481277465820312e+00 -8.270435333251953125e-01 8.477655053138732910e-02
-6.114421844482421875e+00 -8.627949953079223633e-01 7.544184103608131409e-03
-1.121503353118896484e+01 -2.976547181606292725e-01 3.306182146072387695e+00
-1.044438934326171875e+01 -6.718046069145202637e-01 2.965517997741699219e+00
-1.020827388763427734e+01 -1.038775086402893066e+00 2.799391031265258789e+00
-1.187011909484863281e+01 -1.653516530990600586e+00 3.150844097137451172e+00
-1.030990791320800781e+01 -2.754327654838562012e-01 2.619317293167114258e+00
-1.157501602172851562e+01 -1.171728968620300293e+00 2.711637735366821289e+00
-1.190685462951660156e+01 -1.648042678833007812e+00 2.686870336532592773e+00
-1.117216491699218750e+01 -3.004195690155029297e-01 2.400051355361938477e+00
-1.131634712219238281e+01 -7.199581265449523926e-01 2.319360256195068359e+00
-9.404051780700683594e+00 -9.453321099281311035e-01 1.840599179267883301e+00
-1.400303173065185547e+01 -3.740957975387573242e-01 2.475035190582275391e+00
-1.415121269226074219e+01 -8.953557014465332031e-01 2.362660884857177734e+00
-1.278154754638671875e+01 -1.282597899436950684e+00 2.016183376312255859e+00
-1.268673515319824219e+01 -1.261901974678039551e+00 1.531551957130432129e+00
-1.274008274078369141e+01 -1.262717247009277344e+00 1.068306088447570801e+00
-1.189196300506591797e+01 -1.174465179443359375e+00 5.614488720893859863e-01
-1.213396072387695312e+01 -1.640643239021301270e+00 4.596807658672332764e-01
-1.153312206268310547e+01 -2.960256040096282959e-01 3.424078226089477539e-01
-1.169623470306396484e+01 -7.236328125000000000e-01 2.372850477695465088e-01
-7.919431209564208984e+00 -7.779461145401000977e-01 8.472331613302230835e-02
-5.775713920593261719e+00 -7.788863778114318848e-01 7.120243739336729050e-03
-1.135187053680419922e+01 -2.315936684608459473e-01 3.346039533615112305e+00
-1.066634845733642578e+01 -6.203879117965698242e-01 3.027401924133300781e+00
-1.022406005859375000e+01 -9.770364761352539062e-01 2.802023172378540039e+00
-1.205835819244384766e+01 -1.604376912117004395e+00 3.198137521743774414e+00
-1.222910690307617188e+01 -2.516257464885711670e-01 3.106454849243164062e+00
-1.137193489074707031e+01 -6.574440598487854004e-01 2.770489931106567383e+00
-1.297229194641113281e+01 -1.232810378074645996e+00 3.037143468856811523e+00
-9.317059516906738281e+00 -1.231370687484741211e+00 2.100719451904296875e+00
-1.160194301605224609e+01 -2.407470345497131348e-01 2.492013692855834961e+00
-1.136260986328125000e+01 -6.529255509376525879e-01 2.327977180480957031e+00
-1.234134292602539062e+01 -1.164155602455139160e+00 2.414054155349731445e+00
-1.222494316101074219e+01 -1.604831933975219727e+00 2.280747652053833008e+00
-1.146396923065185547e+01 -2.358823120594024658e-01 2.025962114334106445e+00
-1.458220005035400391e+01 -1.372967362403869629e+00 2.298849105834960938e+00
-1.334486865997314453e+01 -7.574844956398010254e-01 1.731241464614868164e+00
-1.294138145446777344e+01 -1.207085609436035156e+00 1.561369538307189941e+00
-1.282498645782470703e+01 -1.191713452339172363e+00 1.074792265892028809e+00
-1.186612224578857422e+01 -1.098436951637268066e+00 5.599001049995422363e-01
-1.445303440093994141e+01 -1.863976955413818359e+00 5.470925569534301758e-01
-1.420803451538085938e+01 -2.774595022201538086e-01 4.217650294303894043e-01
-1.167849254608154297e+01 -6.506289243698120117e-01 2.368396669626235962e-01
-8.425906181335449219e+00 -7.755296826362609863e-01 9.008906036615371704e-02
-6.486567497253417969e+00 -8.342569470405578613e-01 7.990116253495216370e-03
-1.086680507659912109e+01 -1.549995392560958862e-01 3.202722787857055664e+00
-1.067283725738525391e+01 -5.550786852836608887e-01 3.028219938278198242e+00
-1.050852680206298828e+01 -9.391897916793823242e-01 2.878350973129272461e+00
-1.321643733978271484e+01 -1.675996184349060059e+00 3.502491950988769531e+00
-1.030088233947753906e+01 -1.487256735563278198e-01 2.616363525390625000e+00
-1.053249454498291016e+01 -5.440932512283325195e-01 2.565119504928588867e+00
-1.060486698150634766e+01 -9.422032833099365234e-01 2.481468677520751953e+00
-1.128939056396484375e+01 -1.649686843156814575e-01 2.424616575241088867e+00
-1.138205718994140625e+01 -5.839968323707580566e-01 2.331183433532714844e+00
-9.183213233947753906e+00 -8.094332814216613770e-01 1.795296192169189453e+00
-1.222870635986328125e+01 -1.529058933258056641e+00 2.279656171798706055e+00
-1.334530353546142578e+01 -6.753871440887451172e-01 1.730727791786193848e+00
-1.282808589935302734e+01 -1.112653970718383789e+00 1.074459671974182129e+00
-1.180695629119873047e+01 -1.019933223724365234e+00 5.568025708198547363e-01
-1.244180965423583984e+01 -1.527042269706726074e+00 4.705978929996490479e-01
-1.149590778350830078e+01 -1.539388000965118408e-01 3.412211537361145020e-01
-1.173019695281982422e+01 -5.813342332839965820e-01 2.378114014863967896e-01
-8.803113937377929688e+00 -7.558054924011230469e-01 9.407077729701995850e-02
-6.735742092132568359e+00 -8.243229985237121582e-01 8.290661498904228210e-03
-1.161187839508056641e+01 -9.436820447444915771e-02 3.422079563140869141e+00
-1.051649665832519531e+01 -4.822645485401153564e-01 2.982965469360351562e+00
-1.053139686584472656e+01 -8.761326670646667480e-01 2.883088588714599609e+00
-1.207809829711914062e+01 -1.456397175788879395e+00 3.198391675949096680e+00
-1.120198535919189453e+01 -9.299230575561523438e-02 2.845039844512939453e+00
-1.089089965820312500e+01 -4.956242740154266357e-01 2.651616096496582031e+00
-1.340282535552978516e+01 -1.107947826385498047e+00 3.134522676467895508e+00
-1.309312820434570312e+01 -1.567200303077697754e+00 2.947551727294921875e+00
-1.125206089019775391e+01 -9.537199884653091431e-02 2.416428089141845703e+00
-1.124644851684570312e+01 -5.078707933425903320e-01 2.302727460861206055e+00
-1.374972629547119141e+01 -1.126960396766662598e+00 2.686636209487915039e+00
-1.299656009674072266e+01 -1.544138550758361816e+00 2.420986413955688477e+00
-1.132814025878906250e+01 -9.403957426548004150e-02 2.001603364944458008e+00
-1.475555801391601562e+01 -6.611752510070800781e-01 2.461112022399902344e+00
-1.193455791473388672e+01 -9.760878682136535645e-01 1.879424571990966797e+00
-1.248424148559570312e+01 -1.474431395530700684e+00 1.854083180427551270e+00
-1.287043094635009766e+01 -1.036802053451538086e+00 1.077453255653381348e+00
-1.277664852142333984e+01 -1.495401024818420410e+00 9.514351487159729004e-01
-1.180701828002929688e+01 -9.469887614250183105e-01 5.565209984779357910e-01
-1.279834938049316406e+01 -1.491148352622985840e+00 4.837284088134765625e-01
-1.161557960510253906e+01 -8.426117897033691406e-02 3.447514176368713379e-01
-1.173454189300537109e+01 -5.093914866447448730e-01 2.378316372632980347e-01
-8.901283264160156250e+00 -7.092421054840087891e-01 9.507152438163757324e-02
-6.698954105377197266e+00 -7.781317234039306641e-01 8.239348419010639191e-03
-1.148754119873046875e+01 -2.286903932690620422e-02 3.385331630706787109e+00
-1.216896152496337891e+01 -4.832383692264556885e-01 3.450774908065795898e+00
-1.052310752868652344e+01 -8.104595541954040527e-01 2.879403829574584961e+00
-9.492453575134277344e+00 -1.085566878318786621e+00 2.511877775192260742e+00
-1.168792915344238281e+01 -2.530790120363235474e-02 2.968362808227539062e+00
-1.061993598937988281e+01 -4.180125892162322998e-01 2.584971189498901367e+00
-1.342490768432617188e+01 -1.026877164840698242e+00 3.138154506683349609e+00
-1.135118293762207031e+01 -2.655990980565547943e-02 2.437634229660034180e+00
-1.454750537872314453e+01 -5.675202608108520508e-01 2.977854967117309570e+00
-1.203866958618164062e+01 -9.123899340629577637e-01 2.351165056228637695e+00
-1.296377277374267578e+01 -1.459633231163024902e+00 2.413165092468261719e+00
-1.346441555023193359e+01 -2.915453165769577026e-02 2.378991603851318359e+00
-1.414822483062744141e+01 -5.469976067543029785e-01 2.359209299087524414e+00
-1.448186492919921875e+01 -1.095013380050659180e+00 2.279467344284057617e+00
-1.272213077545166016e+01 -1.423432350158691406e+00 1.888080239295959473e+00
-1.178221988677978516e+01 -2.345567755401134491e-02 1.641209840774536133e+00
-1.265319156646728516e+01 -1.409011363983154297e+00 1.407809019088745117e+00
-1.275584793090820312e+01 -1.413681387901306152e+00 9.492223858833312988e-01
-1.174088191986083984e+01 -8.692144155502319336e-01 5.531418919563293457e-01
-1.210997962951660156e+01 -1.335684061050415039e+00 4.573923349380493164e-01
-1.186077022552490234e+01 -1.326155103743076324e-02 3.520196676254272461e-01
-1.216805934906005859e+01 -4.534263312816619873e-01 2.465570122003555298e-01
-8.949346542358398438e+00 -6.578368544578552246e-01 9.553996473550796509e-02
-6.881530284881591797e+00 -7.565749287605285645e-01 8.458038792014122009e-03
-1.111049652099609375e+01 4.605501517653465271e-02 3.274239778518676758e+00
-1.121588516235351562e+01 -3.764786124229431152e-01 3.179794311523437500e+00
-1.371511745452880859e+01 -9.716838598251342773e-01 3.751120805740356445e+00
-9.972006797790527344e+00 -1.078464150428771973e+00 2.636975765228271484e+00
-1.034064388275146484e+01 4.105902463197708130e-02 2.626209735870361328e+00
-1.080001926422119141e+01 -3.587452769279479980e-01 2.628219366073608398e+00
-1.191396141052246094e+01 -1.277967453002929688e+00 2.678362846374511719e+00
-1.137557411193847656e+01 4.318292438983917236e-02 2.442883014678955078e+00
-1.119014549255371094e+01 -3.677937984466552734e-01 2.290102720260620117e+00
-1.163278198242187500e+01 -8.098729848861694336e-01 2.270881414413452148e+00
-1.348994445800781250e+01 5.356377735733985901e-02 2.383515596389770508e+00
-1.487593650817871094e+01 -4.837388396263122559e-01 2.480013132095336914e+00
-1.448239707946777344e+01 -1.005723118782043457e+00 2.278536796569824219e+00
-1.270307826995849609e+01 -1.342432975769042969e+00 1.883994698524475098e+00
-1.206144332885742188e+01 4.999686032533645630e-02 1.680115342140197754e+00
-1.345940399169921875e+01 -9.228802919387817383e-01 1.620646953582763672e+00
-1.264677143096923828e+01 -1.329787135124206543e+00 1.406160354614257812e+00
-1.274543666839599609e+01 -1.333414673805236816e+00 9.478209018707275391e-01
-1.172008228302001953e+01 -7.953987717628479004e-01 5.519216060638427734e-01
-1.280077552795410156e+01 -1.332428693771362305e+00 4.831656813621520996e-01
-1.203654861450195312e+01 6.039776280522346497e-02 3.572409451007843018e-01
-1.252736663818359375e+01 -3.898583352565765381e-01 2.537842690944671631e-01
-8.951218605041503906e+00 -6.027779579162597656e-01 9.551867097616195679e-02
-6.875101566314697266e+00 -7.132014036178588867e-01 8.444598875939846039e-03
-1.132581710815429688e+01 1.164457350969314575e-01 3.337841987609863281e+00
-1.080058002471923828e+01 -2.962048649787902832e-01 3.061479091644287109e+00
-1.040851688385009766e+01 -1.061101555824279785e+00 2.750632047653198242e+00
-1.034891986846923828e+01 1.045954078435897827e-01 2.628424882888793945e+00
-1.161889553070068359e+01 -3.145883083343505859e-01 2.826972723007202148e+00
-1.083375358581542969e+01 -6.950693726539611816e-01 2.530271768569946289e+00
-1.031267929077148438e+01 -1.042239189147949219e+00 2.316899538040161133e+00
-1.118249607086181641e+01 1.110683605074882507e-01 2.401520967483520508e+00
-1.132636451721191406e+01 -3.027113676071166992e-01 2.317556619644165039e+00
-1.134267520904541016e+01 -7.197697162628173828e-01 2.213344812393188477e+00
-1.271555614471435547e+01 -1.273874402046203613e+00 2.363872289657592773e+00
-1.488749885559082031e+01 -3.926867842674255371e-01 2.481492280960083008e+00
-1.425167179107666016e+01 -9.018679261207580566e-01 2.241323709487915039e+00
-1.301167869567871094e+01 1.337788254022598267e-01 1.812559962272644043e+00
-1.319726085662841797e+01 -8.235808610916137695e-01 1.588443875312805176e+00
-1.262600803375244141e+01 -1.249324679374694824e+00 1.402972936630249023e+00
-1.275734901428222656e+01 -1.255575895309448242e+00 9.481160044670104980e-01
-1.170779418945312500e+01 -7.224249839782714844e-01 5.511237978935241699e-01
-1.199219036102294922e+01 -1.173929572105407715e+00 4.523652195930480957e-01
-1.222185802459716797e+01 1.363251358270645142e-01 3.627588450908660889e-01
-1.254751396179199219e+01 -3.134339451789855957e-01 2.541486620903015137e-01
-9.042580604553222656e+00 -5.532163977622985840e-01 9.645555168390274048e-02
-7.025653839111328125e+00 -6.852736473083496094e-01 8.624194189906120300e-03
-1.091248226165771484e+01 1.791663467884063721e-01 3.216290950775146484e+00
-1.126775646209716797e+01 -2.398378103971481323e-01 3.193425178527832031e+00
-1.061618041992187500e+01 -6.213045120239257812e-01 2.901249408721923828e+00
-1.022421073913574219e+01 -9.789642691612243652e-01 2.700287818908691406e+00
-1.214577007293701172e+01 1.972946524620056152e-01 3.085039377212524414e+00
-1.125922298431396484e+01 -2.357242256402969360e-01 2.739058017730712891e+00
-1.265886306762695312e+01 -7.342004776000976562e-01 2.955426454544067383e+00
-1.082020282745361328e+01 -1.026502013206481934e+00 2.429461240768432617e+00
-1.307811641693115234e+01 2.101564407348632812e-01 2.808843135833740234e+00
-1.136229133605957031e+01 -2.339141815900802612e-01 2.324570417404174805e+00
-1.132139968872070312e+01 -6.486989259719848633e-01 2.208374977111816406e+00
-1.331543159484863281e+01 -1.251498460769653320e+00 2.473917245864868164e+00
-1.459080982208251953e+01 -2.952840328216552734e-01 2.431691646575927734e+00
-1.300764179229736328e+01 2.135656923055648804e-01 1.812146067619323730e+00
-1.326352691650390625e+01 -7.460455298423767090e-01 1.595838785171508789e+00
-1.289966392517089844e+01 -1.196523666381835938e+00 1.432538151741027832e+00
-1.282737541198730469e+01 -1.183044672012329102e+00 9.527629017829895020e-01
-1.169205856323242188e+01 -6.494656205177307129e-01 5.501851439476013184e-01
-1.462031555175781250e+01 -1.340684294700622559e+00 5.511817336082458496e-01
-1.252461242675781250e+01 2.165679633617401123e-01 3.717773854732513428e-01
-1.308699512481689453e+01 -2.465704679489135742e-01 2.650401890277862549e-01
-9.147644996643066406e+00 -5.033252835273742676e-01 9.754147380590438843e-02
-7.028730869293212891e+00 -6.420611739158630371e-01 8.622972294688224792e-03
-1.044128131866455078e+01 2.355213761329650879e-01 3.077779769897460938e+00
-1.150086116790771484e+01 -1.742074936628341675e-01 3.259125709533691406e+00
-1.061593818664550781e+01 -5.559512972831726074e-01 2.900196313858032227e+00
-1.023773097991943359e+01 -9.169013500213623047e-01 2.702321767807006836e+00
-1.018600463867187500e+01 2.279844731092453003e-01 2.587563514709472656e+00
-1.060562133789062500e+01 -1.569441109895706177e-01 2.579771995544433594e+00
-1.086189174652099609e+01 -5.631290674209594727e-01 2.535038709640502930e+00
-1.023623180389404297e+01 -9.077633619308471680e-01 2.297048568725585938e+00
-1.307853603363037109e+01 2.904417216777801514e-01 2.809263229370117188e+00
-1.116661071777343750e+01 -1.613470166921615601e-01 2.284291267395019531e+00
-1.136731910705566406e+01 -5.813757777214050293e-01 2.216594457626342773e+00
-1.387630462646484375e+01 -1.218366503715515137e+00 2.576686382293701172e+00
-1.310370254516601562e+01 2.932887673377990723e-01 2.315832614898681641e+00
-1.357448291778564453e+01 -1.913991421461105347e-01 2.262073040008544922e+00
-1.465631580352783203e+01 -7.470251321792602539e-01 2.303345680236816406e+00
-1.207023429870605469e+01 -1.051298856735229492e+00 1.786964297294616699e+00
-1.303777313232421875e+01 2.940897941589355469e-01 1.816560983657836914e+00
-1.286814403533935547e+01 -1.114007115364074707e+00 1.428251743316650391e+00
-1.162498760223388672e+01 -5.742133855819702148e-01 5.468529462814331055e-01
-1.181651782989501953e+01 -1.010501027107238770e+00 4.452372193336486816e-01
-1.261798000335693359e+01 2.956377267837524414e-01 3.745957016944885254e-01
