-8.617871440947055817e-03 -7.726117968559265137e-01 2.293200790882110596e-02
-1.277532707899808884e-02 -7.619037032127380371e-01 7.807413488626480103e-02
-4.237359017133712769e-02 -7.150071859359741211e-01 1.819072961807250977e-01
-2.543650195002555847e-02 -7.124734520912170410e-01 6.626177579164505005e-02
-5.545787513256072998e-02 -7.037757635116577148e-01 6.561396270990371704e-02
-8.997744880616664886e-03 -7.289532423019409180e-01 5.391883850097656250e-02
-6.475666165351867676e-02 -6.627844572067260742e-01 3.758163750171661377e-02
-4.608549177646636963e-02 -6.880616545677185059e-01 5.754400417208671570e-02
-5.066997930407524109e-02 -6.927353143692016602e-01 5.795978382229804993e-02
-9.819251298904418945e-02 -7.272332310676574707e-01 4.141304641962051392e-02
-1.138128340244293213e-01 -7.714086174964904785e-01 4.400488361716270447e-02
-1.236142367124557495e-01 -7.142332792282104492e-01 1.467721629887819290e-02
-1.157614588737487793e-01 -6.949761509895324707e-01 5.879134312272071838e-02
-2.420420646667480469e+00 -2.092593669891357422e+00 9.496165066957473755e-02
-5.536978721618652344e+00 -5.148036479949951172e+00 1.530884355306625366e-01
-2.421052694320678711e+00 -2.067317724227905273e+00 9.448698908090591431e-02
-5.567726135253906250e+00 -5.113288879394531250e+00 1.530681848526000977e-01
-2.425286769866943359e+00 -2.045335054397583008e+00 9.416066855192184448e-02
-2.437791109085083008e+00 -2.030415296554565430e+00 9.416066855192184448e-02
-2.443255901336669922e+00 -2.009704113006591797e+00 9.389366954565048218e-02
-2.428482055664062500e+00 -2.096648693084716797e+00 6.496439874172210693e-02
-5.553794384002685547e+00 -5.156559467315673828e+00 8.068836480379104614e-02
-2.425325155258178711e+00 -2.068085432052612305e+00 6.453926861286163330e-02
-5.581645011901855469e+00 -5.119005680084228516e+00 8.063513785600662231e-02
-2.415027141571044922e+00 -2.033844232559204102e+00 6.393193453550338745e-02
-2.433610439300537109e+00 -2.024102210998535156e+00 6.409388780593872070e-02
-2.449074506759643555e+00 -2.011670112609863281e+00 6.417486816644668579e-02
-2.394027948379516602e+00 -2.089777708053588867e+00 3.383396565914154053e-02
-5.499676704406738281e+00 -5.162395477294921875e+00 9.215511381626129150e-03
-2.420437335968017578e+00 -2.086801767349243164e+00 3.402559831738471985e-02
-5.559847354888916016e+00 -5.155069351196289062e+00 9.263158775866031647e-03
-2.430329084396362305e+00 -2.071665763854980469e+00 1.500419676303863525e-01
-2.436241388320922852e+00 -2.074504137039184570e+00 3.406818211078643799e-02
-5.577362060546875000e+00 -5.108025074005126953e+00 9.239945560693740845e-03
-2.445286989212036133e+00 -2.058644294738769531e+00 1.501827538013458252e-01
-2.449689865112304688e+00 -2.060160160064697266e+00 3.407883271574974060e-02
-5.665701389312744141e+00 -5.125363349914550781e+00 9.334019385278224945e-03
-2.484755754470825195e+00 -2.065953493118286133e+00 1.518253833055496216e-01
-2.459208011627197266e+00 -2.042534828186035156e+00 3.403624892234802246e-02
-2.477106332778930664e+00 -2.031846046447753906e+00 3.411076962947845459e-02
-2.403889417648315430e+00 -2.095476865768432617e+00 3.896097652614116669e-03
-2.415033340454101562e+00 -2.080719232559204102e+00 1.196753159165382385e-01
-2.431858062744140625e+00 -2.093736410140991211e+00 3.920532297343015671e-03
-2.444498062133789062e+00 -2.080109119415283203e+00 1.205006688833236694e-01
-2.440088272094726562e+00 -2.074888706207275391e+00 3.913201857358217239e-03
-2.449565172195434570e+00 -2.058641433715820312e+00 1.201255097985267639e-01
-2.434395074844360352e+00 -2.044442892074584961e+00 3.883880330249667168e-03
-2.478298425674438477e+00 -2.056975126266479492e+00 1.209133416414260864e-01
-2.443814992904663086e+00 -2.026913642883300781e+00 3.878993447870016098e-03
-2.459300279617309570e+00 -2.014415264129638672e+00 3.883880330249667168e-03
-1.055039978027343750e+01 -5.479690074920654297e+00 2.407266050577163696e-01
-1.070944786071777344e+01 -6.585034847259521484e+00 1.535959262400865555e-02
-1.058471393585205078e+01 -5.415306091308593750e+00 2.407468408346176147e-01
-1.133193874359130859e+01 -6.872330665588378906e+00 1.619159057736396790e-02
-1.135844516754150391e+01 -6.793430805206298828e+00 1.616960018873214722e-02
-1.127846527099609375e+01 -6.651978492736816406e+00 1.599733531475067139e-02
-1.122397899627685547e+01 -6.527349948883056641e+00 1.586294546723365784e-02
-1.128984546661376953e+01 -6.473280429840087891e+00 1.589959673583507538e-02
-1.060011386871337891e+01 -5.496264457702636719e+00 1.271275728940963745e-01
-1.132412815093994141e+01 -6.400932788848876953e+00 1.589226722717285156e-02
-1.063898181915283203e+01 -5.433848857879638672e+00 1.271914392709732056e-01
-1.135183429718017578e+01 -6.325001716613769531e+00 1.587638445198535919e-02
-1.129313659667968750e+01 -6.201798439025878906e+00 1.574077270925045013e-02
-1.123863315582275391e+01 -6.082411289215087891e+00 1.561249047517776489e-02
-1.109309291839599609e+01 -5.915931224822998047e+00 1.535959262400865555e-02
-1.065115642547607422e+01 -5.596577644348144531e+00 1.469985768198966980e-02
-1.062401866912841797e+01 -5.499398708343505859e+00 1.461555808782577515e-02
-1.066023540496826172e+01 -5.435470104217529297e+00 1.461922377347946167e-02
-1.112412452697753906e+01 -5.586264133453369141e+00 1.520809810608625412e-02
-1.122542095184326172e+01 -5.551148414611816406e+00 1.529972814023494720e-02
-1.129523372650146484e+01 -5.499676704406738281e+00 1.534859742969274521e-02
-1.136483669281005859e+01 -5.447556495666503906e+00 1.539746578782796860e-02
-1.141342353820800781e+01 -5.384974479675292969e+00 1.541823614388704300e-02
-1.150429725646972656e+01 -5.341794967651367188e+00 1.549642626196146011e-02
-1.133220672607421875e+01 -5.177601814270019531e+00 1.522153709083795547e-02
-1.135190582275390625e+01 -5.102641582489013672e+00 1.520565524697303772e-02
-1.137476921081542969e+01 -5.029252052307128906e+00 1.519465819001197815e-02
-1.161175155639648438e+01 -5.049083709716796875e+00 1.546954829245805740e-02
-1.150734901428222656e+01 -4.919950962066650391e+00 1.528995390981435776e-02
-1.154008674621582031e+01 -4.850413322448730469e+00 1.529361866414546967e-02
-1.157240390777587891e+01 -4.780658721923828125e+00 1.529728434979915619e-02
-1.159873962402343750e+01 -4.708433151245117188e+00 1.529361866414546967e-02
-1.152802371978759766e+01 -4.597538948059082031e+00 1.516289357095956802e-02
-1.155694866180419922e+01 -4.527082443237304688e+00 1.516411546617746353e-02
-1.174317455291748047e+01 -4.517117977142333984e+00 1.537180971354246140e-02
-1.154708099365234375e+01 -4.360543727874755859e+00 1.507981587201356888e-02
-1.150985908508300781e+01 -4.265977859497070312e+00 1.499673817306756973e-02
-1.155743217468261719e+01 -4.203135013580322266e+00 1.502483803778886795e-02
-1.163857460021972656e+01 -4.151965141296386719e+00 1.509692054241895676e-02
-1.159398269653320312e+01 -4.056037902832031250e+00 1.500651240348815918e-02
-1.159122085571289062e+01 -3.975414276123046875e+00 1.497108209878206253e-02
-1.179454517364501953e+01 -3.964433908462524414e+00 1.520198956131935120e-02
-8.467467308044433594e+00 -1.802470803260803223e+00 2.569393515586853027e-01
-1.168472385406494141e+01 -3.847886562347412109e+00 1.502972561866044998e-02
-8.472495079040527344e+00 -1.749268889427185059e+00 2.567613720893859863e-01
-1.165862464904785156e+01 -3.760156631469726562e+00 1.496619544923305511e-02
-1.178923225402832031e+01 -3.722574710845947266e+00 1.510425098240375519e-02
-1.178223323822021484e+01 -3.641014575958251953e+00 1.506637781858444214e-02
-1.163779735565185547e+01 -3.518299341201782227e+00 1.485379692167043686e-02
-1.165053462982177734e+01 -3.444272994995117188e+00 1.484279986470937729e-02
-8.441356658935546875e+00 -1.790849447250366211e+00 1.747297346591949463e-01
-1.174926567077636719e+01 -3.395208597183227539e+00 1.494176033884286880e-02
-8.462957382202148438e+00 -1.741236805915832520e+00 1.749524176120758057e-01
-1.170347309112548828e+01 -3.304304361343383789e+00 1.485746074467897415e-02
-1.166857910156250000e+01 -3.217280387878417969e+00 1.478782296180725098e-02
-1.171320533752441406e+01 -3.152379512786865234e+00 1.481958758085966110e-02
-1.169073867797851562e+01 -3.069529533386230469e+00 1.476705353707075119e-02
-1.168513298034667969e+01 -2.991538286209106445e+00 1.473650988191366196e-02
-8.411552429199218750e+00 -1.778486609458923340e+00 9.153695404529571533e-02
-1.187112426757812500e+01 -2.961660623550415039e+00 1.494786981493234634e-02
-8.414469718933105469e+00 -1.725234031677246094e+00 9.145177900791168213e-02
-1.189490318298339844e+01 -2.890181541442871094e+00 1.495519932359457016e-02
-1.194550037384033203e+01 -2.824966192245483398e+00 1.499673817306756973e-02
-1.195091438293457031e+01 -2.748926877975463867e+00 1.498207729309797287e-02
-1.194706249237060547e+01 -2.670963764190673828e+00 1.495642121881246567e-02
-8.372890472412109375e+00 -1.818028450012207031e+00 1.046778541058301926e-02
-8.470975875854492188e+00 -1.784969806671142578e+00 1.057651918381452560e-02
-8.447477340698242188e+00 -1.725952982902526855e+00 1.053375843912363052e-02
-8.428479194641113281e+00 -1.668262720108032227e+00 1.049710530787706375e-02
-1.200176429748535156e+01 -2.299093961715698242e+00 1.492954324930906296e-02
-1.197533130645751953e+01 -2.217942714691162109e+00 1.487945299595594406e-02
-1.209798145294189453e+01 -2.163966178894042969e+00 1.501506473869085312e-02
-1.196617126464843750e+01 -2.064698696136474609e+00 1.483547035604715347e-02
-1.195691299438476562e+01 -1.987629175186157227e+00 1.480859145522117615e-02
-1.106339168548583984e+01 -1.769407153129577637e+00 1.368826534599065781e-02
-1.200610160827636719e+01 -1.844698309898376465e+00 1.484035700559616089e-02
-1.203797054290771484e+01 -1.774057269096374512e+00 1.486601307988166809e-02
-1.212289428710937500e+01 -1.710639715194702148e+00 1.495764404535293579e-02
-1.215000915527343750e+01 -1.638494610786437988e+00 1.497841253876686096e-02
-1.199816513061523438e+01 -1.543120145797729492e+00 1.477926969528198242e-02
-1.203222370147705078e+01 -1.472508668899536133e+00 1.480981428176164627e-02
-1.201123237609863281e+01 -1.395191192626953125e+00 1.477316208183765411e-02
-1.200763893127441406e+01 -1.320153951644897461e+00 1.475850120186805725e-02
-1.196379089355468750e+01 -1.241086006164550781e+00 1.469497196376323700e-02
-1.201397705078125000e+01 -1.171828508377075195e+00 1.474750507622957230e-02
-1.204185485839843750e+01 -1.100000500679016113e+00 1.477316208183765411e-02
-1.209122180938720703e+01 -1.029741168022155762e+00 1.482569612562656403e-02
-1.233457374572753906e+01 -9.742720127105712891e-01 1.511646714061498642e-02
-1.226252555847167969e+01 -8.929055929183959961e-01 1.502117328345775604e-02
-9.790343284606933594e+00 4.046669602394104004e-01 1.003955960273742676e+00
-1.211311626434326172e+01 -8.073393702507019043e-01 1.483180467039346695e-02
-9.781714439392089844e+00 4.644486904144287109e-01 1.003344416618347168e+00
-1.226756858825683594e+01 -7.420563697814941406e-01 1.501506473869085312e-02
-9.828348159790039062e+00 5.271232724189758301e-01 1.008440613746643066e+00
-1.206319904327392578e+01 -6.554310917854309082e-01 1.475972216576337814e-02
-9.632830619812011719e+00 5.725591778755187988e-01 1.344174981117248535e+00
-1.219284725189208984e+01 -5.874641537666320801e-01 1.491366140544414520e-02
-9.751783370971679688e+00 6.379905343055725098e-01 1.726696014404296875e+00
-9.611346244812011719e+00 6.304873824119567871e-01 1.341691732406616211e+00
-9.584892272949218750e+00 6.321122646331787109e-01 9.841825366020202637e-01
-1.208631896972656250e+01 -5.080196857452392578e-01 1.477926969528198242e-02
-9.747685432434082031e+00 6.978142857551574707e-01 1.726696014404296875e+00
-9.614212036132812500e+00 6.899459362030029297e-01 1.342657446861267090e+00
-9.559996604919433594e+00 6.894095540046691895e-01 9.820421338081359863e-01
-1.228808116912841797e+01 -4.409868419170379639e-01 1.502239517867565155e-02
-9.721620559692382812e+00 7.559323310852050781e-01 1.722868204116821289e+00
-9.581161499023437500e+00 7.466928958892822266e-01 1.338656544685363770e+00
-9.540710449218750000e+00 7.468910813331604004e-01 9.805133342742919922e-01
-9.505976676940917969e+00 7.475105524063110352e-01 6.283208131790161133e-01
-1.233753490447998047e+01 -3.669776916503906250e-01 1.507981587201356888e-02
-9.684416770935058594e+00 8.128508329391479492e-01 1.717126488685607910e+00
-9.574425697326660156e+00 8.053017258644104004e-01 1.338380575180053711e+00
-9.546852111816406250e+00 8.063386678695678711e-01 9.816344976425170898e-01
-9.818333625793457031e+00 4.712326526641845703e-01 9.135981202125549316e-01
-9.537003517150878906e+00 8.088597655296325684e-01 6.306878328323364258e-01
-9.931806564331054688e+00 8.440899848937988281e-01 2.958317995071411133e-01
-1.231056213378906250e+01 -2.905847430229187012e-01 1.504438556730747223e-02
-9.711611747741699219e+00 8.751746416091918945e-01 1.722868204116821289e+00
-9.577196121215820312e+00 8.647466897964477539e-01 1.339484333992004395e+00
-9.610708236694335938e+00 5.170276761054992676e-01 1.246601819992065430e+00
-9.542716026306152344e+00 8.649917244911193848e-01 9.817364811897277832e-01
-9.486149787902832031e+00 8.632029294967651367e-01 6.276633143424987793e-01
-9.932413101196289062e+00 9.055591225624084473e-01 2.960098087787628174e-01
-1.244309329986572266e+01 -2.173307836055755615e-01 1.520443242043256760e-02
-9.618044853210449219e+00 9.279655218124389648e-01 1.345968604087829590e+00
-9.584585189819335938e+00 5.746230483055114746e-01 1.243647456169128418e+00
-9.552080154418945312e+00 9.249665737152099609e-01 9.832652807235717773e-01
-9.633621215820312500e+00 9.362569451332092285e-01 6.377890706062316895e-01
-9.574491500854492188e+00 9.321971535682678223e-01 2.855079472064971924e-01
-1.250118923187255859e+01 -1.416230052709579468e-01 1.527407206594944000e-02
-9.662418365478515625e+00 9.921226501464843750e-01 1.353004693984985352e+00
-9.613533973693847656e+00 6.355810761451721191e-01 1.247886180877685547e+00
-9.592734336853027344e+00 9.883515238761901855e-01 9.880557060241699219e-01
-9.596377372741699219e+00 6.378112435340881348e-01 8.938861489295959473e-01
-9.297163009643554688e+00 9.628183841705322266e-01 2.774090766906738281e-01
-1.252082252502441406e+01 -6.501313298940658569e-02 1.529728434979915619e-02
-9.813009262084960938e+00 7.058261036872863770e-01 1.639316916465759277e+00
-9.716210365295410156e+00 1.057931184768676758e+00 1.361420392990112305e+00
-9.617366790771484375e+00 6.951286196708679199e-01 1.248913884162902832e+00
-9.655713081359863281e+00 1.054754614830017090e+00 9.951905012130737305e-01
-9.549579620361328125e+00 6.935799717903137207e-01 8.899067044258117676e-01
-9.278162956237792969e+00 1.018428683280944824e+00 2.770234048366546631e-01
-1.254898548126220703e+01 1.184083241969347000e-02 1.533149275928735733e-02
-9.764240264892578125e+00 7.625682353973388672e-01 1.631920695304870605e+00
-9.701664924621582031e+00 1.116622805595397949e+00 1.360316753387451172e+00
-9.570407867431640625e+00 7.507914304733276367e-01 1.243390560150146484e+00
-9.735035896301269531e+00 1.123906970024108887e+00 1.004057884216308594e+00
-9.506431579589843750e+00 7.491115331649780273e-01 8.862975239753723145e-01
-9.731719017028808594e+00 1.126966476440429688e+00 6.455477476119995117e-01
-1.255567646026611328e+01 8.888929337263107300e-02 1.534004509449005127e-02
-9.760359764099121094e+00 8.225489258766174316e-01 1.632084965705871582e+00
-9.562655448913574219e+00 8.092493414878845215e-01 1.243005156517028809e+00
-9.646387100219726562e+00 4.645620882511138916e-01 1.160143733024597168e+00
-9.730917930603027344e+00 1.183979272842407227e+00 1.004363656044006348e+00
-9.462963104248046875e+00 8.041396737098693848e-01 8.826882243156433105e-01
-9.688962936401367188e+00 1.182306766510009766e+00 6.431806683540344238e-01
-9.491353034973144531e+00 8.098893165588378906e-01 5.375807881355285645e-01
-9.921607017517089844e+00 8.500911593437194824e-01 2.016345858573913574e-01
-1.261488914489746094e+01 1.667207032442092896e-01 1.541334763169288635e-02
-9.729586601257324219e+00 8.801113963127136230e-01 1.627811670303344727e+00
-9.553560256958007812e+00 8.675507307052612305e-01 1.242491364479064941e+00
-9.595767974853515625e+00 5.211579799652099609e-01 1.154418826103210449e+00
-9.524288177490234375e+00 8.682447075843811035e-01 8.888887166976928711e-01
-9.655793190002441406e+00 1.238434433937072754e+00 6.414711475372314453e-01
-9.487198829650878906e+00 8.682029247283935547e-01 5.376371741294860840e-01
-9.924169540405273438e+00 9.116847515106201172e-01 2.017965465784072876e-01
-1.230468654632568359e+01 2.381418794393539429e-01 1.503583323210477829e-02
-9.556940078735351562e+00 9.270156025886535645e-01 1.243647456169128418e+00
-9.607254981994628906e+00 5.809255242347717285e-01 1.156207799911499023e+00
-9.496978759765625000e+00 9.245457649230957031e-01 8.868527412414550781e-01
-9.507529258728027344e+00 9.289231896400451660e-01 5.391021370887756348e-01
-1.266387653350830078e+01 3.228374421596527100e-01 1.547687780112028122e-02
-9.626045227050781250e+00 9.933753609657287598e-01 1.253409624099731445e+00
-9.654034614562988281e+00 6.432299613952636719e-01 1.162290573120117188e+00
-9.593139648437500000e+00 9.933640956878662109e-01 8.963848948478698730e-01
-9.282775878906250000e+00 9.677765965461730957e-01 1.889818161725997925e-01
-1.252772426605224609e+01 3.962986469268798828e-01 1.531316619366407394e-02
-9.658508300781250000e+00 6.946073174476623535e-01 1.519851446151733398e+00
-9.640470504760742188e+00 1.054685831069946289e+00 1.256106972694396973e+00
-9.571676254272460938e+00 6.967592835426330566e-01 1.152868151664733887e+00
-9.622494697570800781e+00 1.056118488311767578e+00 8.997163772583007812e-01
-9.741532325744628906e+00 1.072625041007995605e+00 5.530754923820495605e-01
-9.270700454711914062e+00 1.024057865142822266e+00 1.888603568077087402e-01
-1.231420803070068359e+01 4.651946127414703369e-01 1.505538169294595718e-02
-9.642246246337890625e+00 7.529349327087402344e-01 1.517990946769714355e+00
-9.672239303588867188e+00 1.118260979652404785e+00 1.261116623878479004e+00
-9.555343627929687500e+00 7.545389533042907715e-01 1.151436924934387207e+00
-9.807715415954589844e+00 1.137393474578857422e+00 9.176700115203857422e-01
-9.493089675903320312e+00 7.529575824737548828e-01 7.946394681930541992e-01
-9.716916084289550781e+00 1.130301117897033691e+00 5.520612597465515137e-01
-9.264242172241210938e+00 1.080922484397888184e+00 1.888603568077087402e-01
-9.948495864868164062e+00 7.978156805038452148e-01 1.062608063220977783e-01
-1.241102504730224609e+01 5.451324582099914551e-01 1.517755445092916489e-02
-9.654178619384765625e+00 8.134945631027221680e-01 1.520626783370971680e+00
-9.565373420715332031e+00 8.144187331199645996e-01 1.153226017951965332e+00
-9.666567802429199219e+00 4.705015718936920166e-01 1.070172190666198730e+00
-9.766948699951171875e+00 1.193444967269897461e+00 9.145236015319824219e-01
-9.495241165161132812e+00 8.117861151695251465e-01 7.952215671539306641e-01
-9.676104545593261719e+00 1.185772776603698730e+00 5.501456260681152344e-01
-9.739396095275878906e+00 8.360844850540161133e-01 4.592776596546173096e-01
-9.950387001037597656e+00 8.594458103179931641e-01 1.063353270292282104e-01
-1.158547687530517578e+01 5.801165699958801270e-01 1.417207065969705582e-02
-9.658844947814941406e+00 8.736060857772827148e-01 1.522177338600158691e+00
-9.558218955993652344e+00 8.729148507118225098e-01 1.152987480163574219e+00
-9.645635604858398438e+00 5.288262963294982910e-01 1.068193912506103516e+00
-9.519852638244628906e+00 8.727619051933288574e-01 7.977162003517150879e-01
-9.438657760620117188e+00 8.686406016349792480e-01 4.453388154506683350e-01
-1.254318046569824219e+01 7.052530646324157715e-01 1.534859742969274521e-02
-9.672969818115234375e+00 9.347557425498962402e-01 1.525278568267822266e+00
-9.617212295532226562e+00 5.814223289489746094e-01 1.421021103858947754e+00
-9.554658889770507812e+00 9.317392110824584961e-01 1.153226017951965332e+00
-9.622366905212402344e+00 5.867908000946044922e-01 1.065995693206787109e+00
-9.552998542785644531e+00 9.349437952041625977e-01 8.009593486785888672e-01
-9.580679893493652344e+00 1.293602943420410156e+00 5.455816984176635742e-01
-9.429174423217773438e+00 9.261482357978820801e-01 4.451510906219482422e-01
-1.250168895721435547e+01 7.798995971679687500e-01 1.530339289456605911e-02
-9.601618766784667969e+00 6.396324038505554199e-01 1.419270157814025879e+00
-9.626778602600097656e+00 9.984394907951354980e-01 1.162648320198059082e+00
-9.624535560607910156e+00 6.462210416793823242e-01 1.066655158996582031e+00
-9.706662178039550781e+00 1.010149359703063965e+00 8.143473863601684570e-01
-1.246973133087158203e+01 8.547473549842834473e-01 1.527040638029575348e-02
-9.612313270568847656e+00 6.996120214462280273e-01 1.421458840370178223e+00
-9.667843818664550781e+00 1.062696695327758789e+00 1.168373346328735352e+00
-9.579746246337890625e+00 7.022843956947326660e-01 1.062148928642272949e+00
-9.717928886413574219e+00 1.075069069862365723e+00 4.593715071678161621e-01
-9.287270545959472656e+00 1.032348990440368652e+00 9.948974102735519409e-02
-1.024543666839599609e+01 7.654693722724914551e-01 1.255205646157264709e-02
-9.623619079589843750e+00 7.598247528076171875e-01 1.423793435096740723e+00
-9.699604034423828125e+00 1.126464366912841797e+00 1.173024892807006836e+00
-9.548504829406738281e+00 7.589250802993774414e-01 1.059181332588195801e+00
-9.795489311218261719e+00 1.141065597534179688e+00 8.229125142097473145e-01
-9.471778869628906250e+00 7.578178048133850098e-01 7.027889490127563477e-01
-9.743890762329101562e+00 1.138502478599548340e+00 4.609202742576599121e-01
-9.243021965026855469e+00 1.084885597229003906e+00 9.908518195152282715e-02
-1.003422164916992188e+01 8.116308450698852539e-01 1.229915767908096313e-02
-9.620747566223144531e+00 8.190276622772216797e-01 1.424085259437561035e+00
-9.545649528503417969e+00 8.176690340042114258e-01 1.059401273727416992e+00
-9.737857818603515625e+00 1.194957733154296875e+00 8.186715245246887207e-01
-9.519610404968261719e+00 8.204598426818847656e-01 7.066982388496398926e-01
-9.742671012878417969e+00 1.199000477790832520e+00 4.612018764019012451e-01
-9.913787841796875000e+00 8.596621155738830566e-01 3.735820651054382324e-01
-9.206419944763183594e+00 1.137899637222290039e+00 9.876579791307449341e-02
-1.000215435028076172e+01 8.708425760269165039e-01 1.226617209613323212e-02
-9.613570213317871094e+00 8.778641819953918457e-01 1.423793435096740723e+00
-9.563217163085937500e+00 8.783154487609863281e-01 1.061929106712341309e+00
-9.520356178283691406e+00 8.794060945510864258e-01 7.071408033370971680e-01
-9.765044212341308594e+00 9.071650505065917969e-01 3.681797981262207031e-01
-1.227374172210693359e+01 1.144542574882507324e+00 1.506026834249496460e-02
-9.622773170471191406e+00 9.382755160331726074e-01 1.425982117652893066e+00
-9.557647705078125000e+00 9.369776844978332520e-01 1.061929106712341309e+00
-9.627922058105468750e+00 9.489567875862121582e-01 7.155494689941406250e-01
-9.566868782043457031e+00 1.296732664108276367e+00 4.535988867282867432e-01
-9.419200897216796875e+00 9.333646893501281738e-01 3.553494215011596680e-01
-1.248441314697265625e+01 1.241502642631530762e+00 1.532782707363367081e-02
-9.674891471862792969e+00 1.003322839736938477e+00 1.434590816497802734e+00
-9.573467254638671875e+00 9.978715777397155762e-01 1.064347028732299805e+00
-9.631836891174316406e+00 1.009053826332092285e+00 7.162870764732360840e-01
-9.398389816284179688e+00 9.895727038383483887e-01 3.547866940498352051e-01
-1.249247169494628906e+01 1.319763064384460449e+00 1.534737460315227509e-02
-9.707888603210449219e+00 1.066991329193115234e+00 1.440427184104919434e+00
-9.666946411132812500e+00 1.067614436149597168e+00 1.075447797775268555e+00
-9.727822303771972656e+00 1.084649920463562012e+00 3.674670159816741943e-01
-1.412742900848388672e+01 2.624023199081420898e+00 2.909530401229858398e-01
-9.280121803283691406e+00 1.038011074066162109e+00 1.140851713716983795e-02
-9.729320526123046875e+00 1.134971261024475098e+00 1.083141326904296875e+00
-9.771265983581542969e+00 1.145050406455993652e+00 7.276461720466613770e-01
-9.736864089965820312e+00 1.146187663078308105e+00 3.680672943592071533e-01
-9.252722740173339844e+00 1.092471003532409668e+00 1.138286013156175613e-02
-9.680739402770996094e+00 1.189556479454040527e+00 1.078525185585021973e+00
-9.708627700805664062e+00 1.198143959045410156e+00 7.235155701637268066e-01
-9.716754913330078125e+00 1.204312324523925781e+00 3.675795495510101318e-01
-1.225766658782958984e+01 1.523582220077514648e+00 1.509081106632947922e-02
-1.235914516448974609e+01 1.613261818885803223e+00 1.522764563560485840e-02
-9.587380409240722656e+00 1.307927608489990234e+00 3.632652461528778076e-01
-1.223309230804443359e+01 1.673210263252258301e+00 1.508470252156257629e-02
-1.213053321838378906e+01 1.735071659088134766e+00 1.497108209878206253e-02
-1.412083625793457031e+01 2.632838964462280273e+00 1.529342085123062134e-01
-1.218790245056152344e+01 1.819659352302551270e+00 1.505538169294595718e-02
-1.409852409362792969e+01 2.718297243118286133e+00 1.528703272342681885e-01
-1.233658123016357422e+01 1.919312834739685059e+00 1.525330170989036560e-02
-1.225547218322753906e+01 1.983787298202514648e+00 1.516778115183115005e-02
-1.217601013183593750e+01 2.047670602798461914e+00 1.508470252156257629e-02
-1.212184238433837891e+01 2.115123271942138672e+00 1.503339037299156189e-02
-1.198759841918945312e+01 2.167575836181640625e+00 1.488311681896448135e-02
-1.209005928039550781e+01 2.262797832489013672e+00 1.502728089690208435e-02
-1.206514739990234375e+01 2.334848403930664062e+00 1.501384284347295761e-02
-1.195449542999267578e+01 2.389625549316406250e+00 1.489411387592554092e-02
-1.227161788940429688e+01 2.531419515609741211e+00 1.530827954411506653e-02
-1.194774532318115234e+01 2.541138172149658203e+00 1.492343470454216003e-02
-1.198858451843261719e+01 2.626814365386962891e+00 1.499429531395435333e-02
-1.198882484436035156e+01 2.704065799713134766e+00 1.501506473869085312e-02
-1.182004356384277344e+01 2.742320537567138672e+00 1.482447516173124313e-02
-1.195862960815429688e+01 2.851911544799804688e+00 1.501995138823986053e-02
-1.186417388916015625e+01 2.906437158584594727e+00 1.492343470454216003e-02
-1.183448028564453125e+01 2.976253032684326172e+00 1.490877475589513779e-02
-1.180147075653076172e+01 3.045064449310302734e+00 1.489044819027185440e-02
-1.180383300781250000e+01 3.123046636581420898e+00 1.491732615977525711e-02
-1.183174037933349609e+01 3.208238363265991211e+00 1.497719157487154007e-02
-1.173089599609375000e+01 3.258295774459838867e+00 1.487456541508436203e-02
-1.166162776947021484e+01 3.316263914108276367e+00 1.481225714087486267e-02
-8.721548080444335938e+00 3.237613916397094727e+00 1.883744895458221436e-01
-1.159689331054687500e+01 3.374902486801147461e+00 1.475605834275484085e-02
-1.168139362335205078e+01 3.477380514144897461e+00 1.489044819027185440e-02
-1.157182407379150391e+01 3.522201299667358398e+00 1.477804873138666153e-02
-1.155190372467041016e+01 3.593732595443725586e+00 1.478049252182245255e-02
-1.152487087249755859e+01 3.663031578063964844e+00 1.477438304573297501e-02
-4.665493011474609375e+00 2.096143960952758789e+00 1.518021672964096069e-01
-8.714054107666015625e+00 3.180917263031005859e+00 9.876579791307449341e-02
-1.123300361633300781e+01 3.646302461624145508e+00 1.442863419651985168e-02
-4.612537860870361328e+00 2.106461524963378906e+00 1.504968702793121338e-01
-8.632517814636230469e+00 3.211315631866455078e+00 9.806314110755920410e-02
-1.121991157531738281e+01 3.718303918838500977e+00 1.444085128605365753e-02
-1.134560871124267578e+01 3.837380170822143555e+00 1.463266275823116302e-02
-1.144379329681396484e+01 3.949003458023071289e+00 1.479026675224304199e-02
-1.125710296630859375e+01 3.962043523788452148e+00 1.458012871444225311e-02
-1.123728656768798828e+01 4.032730102539062500e+00 1.458623632788658142e-02
-4.587654590606689453e+00 2.064962625503540039e+00 1.018700078129768372e-01
-8.666336059570312500e+00 3.170249700546264648e+00 1.127412635833024979e-02
-8.642035484313964844e+00 3.221619129180908203e+00 1.126801781356334686e-02
-8.585645675659179688e+00 3.260737895965576172e+00 1.122036948800086975e-02
-1.471421527862548828e+01 6.951548576354980469e+00 3.295187056064605713e-01
-1.122353553771972656e+01 4.341566085815429688e+00 1.470230147242546082e-02
-1.105991363525390625e+01 4.356476783752441406e+00 1.452270802110433578e-02
-1.058838844299316406e+01 4.245976448059082031e+00 1.393749937415122986e-02
-4.570507049560546875e+00 2.061022758483886719e+00 5.338058993220329285e-02
-1.115468215942382812e+01 4.552709102630615234e+00 1.471940521150827408e-02
-4.569591999053955078e+00 2.094444513320922852e+00 5.351899191737174988e-02
-1.113946628570556641e+01 4.626437187194824219e+00 1.473650988191366196e-02
-1.471780490875244141e+01 6.855403900146484375e+00 1.728641092777252197e-01
-1.115969085693359375e+01 4.715329170227050781e+00 1.480126194655895233e-02
-1.467636680603027344e+01 6.946009159088134766e+00 1.728747487068176270e-01
-1.110666084289550781e+01 4.773448467254638672e+00 1.476949732750654221e-02
-1.101943588256835938e+01 4.816277027130126953e+00 1.469252817332744598e-02
-4.626702785491943359e+00 2.056101799011230469e+00 6.185620091855525970e-03
-4.604886531829833984e+00 2.080335140228271484e+00 6.173403002321720123e-03
-4.592944145202636719e+00 2.108968257904052734e+00 6.174624897539615631e-03
-4.569948673248291016e+00 2.132458925247192383e+00 6.161185447126626968e-03
-1.087373924255371094e+01 5.155456542968750000e+00 1.470230147242546082e-02
-1.088875102996826172e+01 5.244644641876220703e+00 1.476583164185285568e-02
-1.078360557556152344e+01 5.275761604309082031e+00 1.466687116771936417e-02
-1.077968883514404297e+01 5.356068134307861328e+00 1.470596715807914734e-02
-1.075376510620117188e+01 5.425714015960693359e+00 1.471574138849973679e-02
-1.072828102111816406e+01 5.495699405670166016e+00 1.472673658281564713e-02
-1.091172313690185547e+01 5.674460411071777344e+00 1.502605993300676346e-02
-1.068567848205566406e+01 5.640475273132324219e+00 1.476216595619916916e-02
-1.074342346191406250e+01 5.755519390106201172e+00 1.489044819027185440e-02
-1.060599231719970703e+01 5.765926361083984375e+00 1.474872697144746780e-02
-1.054852390289306641e+01 5.818819999694824219e+00 1.471818424761295319e-02
-1.064526081085205078e+01 5.957667350769042969e+00 1.490388717502355576e-02
-1.041197109222412109e+01 5.911293029785156250e+00 1.462777610868215561e-02
-1.029231357574462891e+01 5.927160263061523438e+00 1.451049000024795532e-02
-1.026438617706298828e+01 5.995244503021240234e+00 1.452270802110433578e-02
-1.027989006042480469e+01 6.089200973510742188e+00 1.459723338484764099e-02
-1.027147960662841797e+01 6.169669151306152344e+00 1.463877130299806595e-02
-1.023428440093994141e+01 6.233098030090332031e+00 1.463999319821596146e-02
-9.236927986145019531e+00 5.703660011291503906e+00 1.326310355216264725e-02
-1.011209964752197266e+01 6.330097198486328125e+00 1.457524113357067108e-02
-1.000974273681640625e+01 6.351840019226074219e+00 1.448361203074455261e-02
-9.872179031372070312e+00 6.349846363067626953e+00 1.434066984802484512e-02
-9.956173896789550781e+00 6.490580081939697266e+00 1.452026329934597015e-02
-9.846076011657714844e+00 6.505243301391601562e+00 1.441763807088136673e-02
-9.913998603820800781e+00 6.637861251831054688e+00 1.457646396011114120e-02
-9.787020683288574219e+00 6.640177726745605469e+00 1.444940362125635147e-02
-9.938097953796386719e+00 6.832100868225097656e+00 1.473406609147787094e-02
-9.708901405334472656e+00 6.762637138366699219e+00 1.445551216602325439e-02
-9.692552566528320312e+00 6.839956760406494141e+00 1.449338626116514206e-02
-9.085026741027832031e+00 6.495100975036621094e+00 1.364428270608186722e-02
-9.574679374694824219e+00 6.934334754943847656e+00 1.444329507648944855e-02
-9.280388832092285156e+00 6.808398723602294922e+00 1.406211499124765396e-02
-9.248069763183593750e+00 6.872371673583984375e+00 1.407677587121725082e-02
-4.067721843719482422e+00 3.911892890930175781e+00 1.674956232309341431e-01
-3.997089385986328125e+00 3.891455888748168945e+00 1.655673235654830933e-01
-4.042943954467773438e+00 3.893415927886962891e+00 1.136522740125656128e-01
-3.998933553695678711e+00 3.898607969284057617e+00 1.130854263901710510e-01
-4.002717971801757812e+00 3.859982967376708984e+00 5.920412018895149231e-02
-3.982535839080810547e+00 3.887963294982910156e+00 5.925735086202621460e-02
-3.994247913360595703e+00 3.810031890869140625e+00 6.743951234966516495e-03
-3.991655826568603516e+00 3.854613065719604492e+00 6.779381074011325836e-03
-3.972219705581665039e+00 3.883227109909057617e+00 6.786711513996124268e-03
-3.950449943542480469e+00 3.909637212753295898e+00 6.790376268327236176e-03
-9.556583315134048462e-02 7.013741731643676758e-01 1.433306094259023666e-02
-9.482927620410919189e-02 6.995619535446166992e-01 7.516293320804834366e-03
-5.623244494199752808e-02 6.966221332550048828e-01 3.944099694490432739e-02
-3.928719833493232727e-02 7.007828354835510254e-01 3.961002826690673828e-02
-1.726672239601612091e-02 6.816963553428649902e-01 3.848314285278320312e-02
-9.334337897598743439e-03 7.347900867462158203e-01 1.487966068089008331e-02
-9.182868525385856628e-03 7.124644517898559570e-01 5.945659428834915161e-02
