-1.372577190399169922e+01 1.696484684944152832e+00 1.472490727901458740e-01
-7.883172512054443359e+00 6.863523125648498535e-01 9.667551144957542419e-03
-7.863876819610595703e+00 7.333168387413024902e-01 9.649225510656833649e-03
-4.887675285339355469e+00 6.651020050048828125e-01 5.251823365688323975e-02
-7.821416378021240234e+00 7.777945995330810547e-01 9.602800011634826660e-03
-4.880532741546630859e+00 6.946569681167602539e-01 5.248629674315452576e-02
-1.058110904693603516e+01 1.117837905883789062e+00 1.299920957535505295e-02
-4.867276668548583984e+00 7.232674956321716309e-01 5.239047855138778687e-02
-1.012087726593017578e+01 1.132052421569824219e+00 1.244209986180067062e-02
-4.834090232849121094e+00 7.486807107925415039e-01 5.208173766732215881e-02
-1.358463001251220703e+01 1.603940248489379883e+00 1.671204715967178345e-02
-1.170194339752197266e+01 1.454507946968078613e+00 1.440664287656545639e-02
-4.907365798950195312e+00 6.405674219131469727e-01 6.046343129128217697e-03
-4.900370597839355469e+00 6.702598333358764648e-01 6.042677443474531174e-03
-4.932537555694580078e+00 7.037608027458190918e-01 1.870536506175994873e-01
-4.892206192016601562e+00 6.997489929199218750e-01 6.037790793925523758e-03
-4.878707408905029297e+00 7.266523241996765137e-01 1.851778626441955566e-01
-4.875952243804931641e+00 7.279818654060363770e-01 6.023129913955926895e-03
-4.858548164367675781e+00 7.558879256248474121e-01 6.007247604429721832e-03
-4.839998722076416016e+00 7.834481596946716309e-01 5.990143399685621262e-03
-1.484749507904052734e+01 2.496940851211547852e+00 1.839436963200569153e-02
-1.424476623535156250e+01 2.485549211502075195e+00 1.766621880233287811e-02
-1.409344863891601562e+01 2.548352003097534180e+00 1.749761961400508881e-02
-1.302089595794677734e+01 2.437014818191528320e+00 1.618426106870174408e-02
-1.448150157928466797e+01 2.894757509231567383e+00 1.804251223802566528e-02
-1.299439907073974609e+01 2.680516719818115234e+00 1.620991714298725128e-02
-1.495938014984130859e+01 3.181675672531127930e+00 1.868514157831668854e-02
-1.486240673065185547e+01 3.256496429443359375e+00 1.858862675726413727e-02
-1.280531311035156250e+01 2.888223886489868164e+00 1.603765226900577545e-02
-2.399681091308593750e+00 1.042446255683898926e+00 1.724002957344055176e-01
-2.385937452316284180e+00 1.053925275802612305e+00 1.718742847442626953e-01
-2.339590549468994141e+00 1.033940792083740234e+00 7.591591775417327881e-02
-2.371233224868774414e+00 1.064866185188293457e+00 1.712825149297714233e-01
-2.304026126861572266e+00 1.035168290138244629e+00 7.496660202741622925e-02
-2.381901741027832031e+00 1.087268590927124023e+00 1.725317984819412231e-01
-2.337637186050415039e+00 1.067556142807006836e+00 7.627191394567489624e-02
-2.346456050872802734e+00 1.089033126831054688e+00 7.677624374628067017e-02
-2.422497272491455078e+00 1.036204218864440918e+00 1.486925631761550903e-01
-2.415178060531616211e+00 1.050650596618652344e+00 1.486362069845199585e-01
-2.586823701858520508e+00 1.126393914222717285e+00 5.712980031967163086e-02
-2.401381492614746094e+00 1.062219023704528809e+00 1.481854617595672607e-01
-2.289149284362792969e+00 1.013530135154724121e+00 5.069207400083541870e-02
-2.393908023834228516e+00 1.076524138450622559e+00 1.481291204690933228e-01
-2.325736761093139648e+00 1.046844124794006348e+00 5.164355784654617310e-02
-2.399970054626464844e+00 1.097003459930419922e+00 1.489179432392120361e-01
-2.307450532913208008e+00 1.055687546730041504e+00 5.138038098812103271e-02
-2.357138395309448242e+00 1.095960378646850586e+00 5.263553559780120850e-02
-2.410291433334350586e+00 1.032445430755615234e+00 1.231968030333518982e-01
-2.403911113739013672e+00 1.047215223312377930e+00 1.231968030333518982e-01
-2.413879871368408203e+00 1.069227576255798340e+00 1.240415722131729126e-01
-2.324439525604248047e+00 1.031066298484802246e+00 2.707356214523315430e-02
-2.405452013015747070e+00 1.083198428153991699e+00 1.239477097988128662e-01
-2.339035034179687500e+00 1.054763555526733398e+00 2.731842733919620514e-02
-2.406934976577758789e+00 1.101679086685180664e+00 1.243700981140136719e-01
-2.338882207870483398e+00 1.072012186050415039e+00 2.739294990897178650e-02
-2.439933061599731445e+00 1.013351678848266602e+00 3.227811306715011597e-03
-2.422615528106689453e+00 1.023633122444152832e+00 3.213150426745414734e-03
-2.392401695251464844e+00 1.028212428092956543e+00 3.181385574862360954e-03
-2.306890726089477539e+00 1.007316350936889648e+00 9.450223296880722046e-02
-2.381466150283813477e+00 1.040870189666748047e+00 3.175277030095458031e-03
-2.242213726043701172e+00 9.955003261566162109e-01 9.210123121738433838e-02
-2.366810321807861328e+00 1.051807999610900879e+00 3.164281370118260384e-03
-2.351198673248291016e+00 1.062193632125854492e+00 3.152064047753810883e-03
-2.350998401641845703e+00 1.079521298408508301e+00 3.160616150125861168e-03
-2.391452550888061523e+00 1.115914940834045410e+00 3.224146086722612381e-03
-8.103606224060058594e+00 6.552662849426269531e+00 3.093002736568450928e-01
-8.129756927490234375e+00 6.656721115112304688e+00 3.118515610694885254e-01
-8.095685005187988281e+00 6.712221622467041016e+00 3.121185898780822754e-01
-8.020663261413574219e+00 6.733490467071533203e+00 3.108132481575012207e-01
-8.151060104370117188e+00 6.683526515960693359e+00 2.134370952844619751e-01
-8.103743553161621094e+00 6.728305339813232422e+00 2.132751494646072388e-01
-8.020215988159179688e+00 6.742516994476318359e+00 2.121617048978805542e-01
-8.145355224609375000e+00 6.688215255737304688e+00 1.122120916843414307e-01
-8.105701446533203125e+00 6.739346504211425781e+00 1.122333779931068420e-01
-8.010648727416992188e+00 6.743875503540039062e+00 1.114881336688995361e-01
-8.119253158569335938e+00 6.593045711517333984e+00 1.277807634323835373e-02
-8.132715225219726562e+00 6.687198638916015625e+00 1.286359690129756927e-02
-8.088189125061035156e+00 6.729413986206054688e+00 3.950035870075225830e-01
-5.803719997406005859e+00 5.589069843292236328e+00 1.631499081850051880e-01
-8.075391769409179688e+00 6.723537445068359375e+00 1.283794082701206207e-02
-5.796520233154296875e+00 5.651096820831298828e+00 1.639191955327987671e-01
-8.012577056884765625e+00 6.754913330078125000e+00 1.280373241752386093e-02
-5.739677429199218750e+00 5.664785385131835938e+00 1.632916182279586792e-01
-5.800737380981445312e+00 5.593886375427246094e+00 8.579859137535095215e-02
-5.769167423248291016e+00 5.632168292999267578e+00 8.584118634462356567e-02
-5.820235729217529297e+00 5.620413780212402344e+00 9.885019622743129730e-03
-5.781349182128906250e+00 5.651825428009033203e+00 9.877688251435756683e-03
-5.741586208343505859e+00 5.682268619537353516e+00 9.869136847555637360e-03
-1.591654896736145020e+00 3.511736154556274414e+00 9.791978597640991211e-01
-1.564958453178405762e+00 3.511603355407714844e+00 1.132966756820678711e+00
-1.562972903251647949e+00 3.505502462387084961e+00 9.747670888900756836e-01
-1.537035226821899414e+00 3.445710897445678711e+00 8.102351427078247070e-01
-1.548773288726806641e+00 3.533438920974731445e+00 1.136924147605895996e+00
-1.539098620414733887e+00 3.509700775146484375e+00 9.732902050018310547e-01
-1.508400321006774902e+00 3.438066005706787109e+00 8.062459230422973633e-01
-1.506392717361450195e+00 3.435119390487670898e+00 6.627352833747863770e-01
-1.524785280227661133e+00 3.537590265274047852e+00 1.135228157043457031e+00
-1.517150759696960449e+00 3.518188238143920898e+00 9.730439782142639160e-01
-1.485727190971374512e+00 3.443665742874145508e+00 8.054060935974121094e-01
-1.484117031097412109e+00 3.441585063934326172e+00 6.622133255004882812e-01
-1.497436404228210449e+00 3.533632040023803711e+00 1.130988001823425293e+00
-1.503479957580566406e+00 3.546170473098754883e+00 9.782132506370544434e-01
-1.464187502861022949e+00 3.451817035675048828e+00 8.051961064338684082e-01
-1.458359241485595703e+00 3.439747095108032227e+00 6.601254343986511230e-01
-1.488982915878295898e+00 3.513683557510375977e+00 5.315720438957214355e-01
-1.480152130126953125e+00 3.553378820419311523e+00 1.134379982948303223e+00
-1.500707864761352539e+00 3.600955724716186523e+00 9.907670021057128906e-01
-1.452386498451232910e+00 3.483296394348144531e+00 8.104450702667236328e-01
-1.432680130004882812e+00 3.437722921371459961e+00 6.580374836921691895e-01
-1.447591304779052734e+00 3.475210428237915039e+00 5.243979692459106445e-01
-1.461528182029724121e+00 3.512121915817260742e+00 3.897591233253479004e-01
-1.453662037849426270e+00 3.496659517288208008e+00 2.495267391204833984e-01
-1.416823744773864746e+00 3.409727096557617188e+00 1.095871105790138245e-01
-1.464135646820068359e+00 3.576597452163696289e+00 1.138902902603149414e+00
-1.464257955551147461e+00 3.575116634368896484e+00 9.811670780181884766e-01
-1.577261805534362793e+00 3.476651191711425781e+00 9.285382628440856934e-01
-1.433951973915100098e+00 3.499380111694335938e+00 8.121247887611389160e-01
-1.410813331604003906e+00 3.444626569747924805e+00 6.576895117759704590e-01
-1.423238873481750488e+00 3.476694583892822266e+00 5.232942700386047363e-01
-1.434302449226379395e+00 3.507212162017822266e+00 3.882302641868591309e-01
-1.425764083862304688e+00 3.489810228347778320e+00 2.484089583158493042e-01
-1.390963077545166016e+00 3.406326293945312500e+00 1.092014536261558533e-01
-1.438225030899047852e+00 3.575724601745605469e+00 1.135793447494506836e+00
-1.567712187767028809e+00 3.509438991546630859e+00 1.089101433753967285e+00
-1.435057044029235840e+00 3.566050529479980469e+00 9.762439727783203125e-01
-1.549959778785705566e+00 3.472954034805297852e+00 9.249933958053588867e-01
-1.410992383956909180e+00 3.504484891891479492e+00 8.112848997116088867e-01
-1.538027048110961914e+00 3.449451208114624023e+00 7.725189328193664551e-01
-1.401415109634399414e+00 3.482451915740966797e+00 6.632573008537292480e-01
-1.404466629028320312e+00 3.491794109344482422e+00 5.242600440979003906e-01
-1.410901069641113281e+00 3.511331319808959961e+00 3.877206444740295410e-01
-1.403580784797668457e+00 3.496640920639038086e+00 2.482774704694747925e-01
-9.513208866119384766e-01 2.371155023574829102e+00 7.582692801952362061e-02
-1.403921127319335938e+00 3.553258657455444336e+00 1.125899791717529297e+00
-1.542665958404541016e+00 3.511064767837524414e+00 1.086647868156433105e+00
-1.414574503898620605e+00 3.578394174575805664e+00 9.772286415100097656e-01
-1.522372126579284668e+00 3.468163251876831055e+00 9.212120771408081055e-01
-1.384788036346435547e+00 3.501257181167602539e+00 8.085554242134094238e-01
-1.501487255096435547e+00 3.423831462860107422e+00 7.647035717964172363e-01
-1.382916927337646484e+00 3.498311519622802734e+00 6.646491885185241699e-01
-1.385198593139648438e+00 3.505872964859008789e+00 5.250878334045410156e-01
-1.383485674858093262e+00 3.505117177963256836e+00 3.860898613929748535e-01
-1.383563399314880371e+00 3.508900403976440430e+00 2.485404759645462036e-01
-9.334554076194763184e-01 2.368577957153320312e+00 7.555992901325225830e-02
-1.367518305778503418e+00 3.524247407913208008e+00 1.114027380943298340e+00
-1.520330190658569336e+00 3.518697977066040039e+00 1.086102604866027832e+00
-1.381015539169311523e+00 3.557190179824829102e+00 9.691056013107299805e-01
-1.501448273658752441e+00 3.478331327438354492e+00 9.214484095573425293e-01
-1.355136513710021973e+00 3.488726615905761719e+00 8.037263751029968262e-01
-1.477347016334533691e+00 3.425782918930053711e+00 7.631003856658935547e-01
-1.361782073974609375e+00 3.507648944854736328e+00 6.648231744766235352e-01
-1.492858767509460449e+00 3.465078592300415039e+00 6.286732554435729980e-01
-1.364377498626708984e+00 3.516153097152709961e+00 5.253636837005615234e-01
-1.359795331954956055e+00 3.507974863052368164e+00 3.854782879352569580e-01
-1.360205531120300293e+00 3.512670993804931641e+00 2.482117116451263428e-01
-9.221515655517578125e-01 2.382650613784790039e+00 7.582692801952362061e-02
-8.967901468276977539e-01 2.353852748870849609e+00 7.423080205917358398e-01
-1.501344561576843262e+00 3.534158945083618164e+00 1.088010907173156738e+00
-1.344663381576538086e+00 3.527559041976928711e+00 9.587671160697937012e-01
-1.491085886955261230e+00 3.513417720794677734e+00 9.283019900321960449e-01
-1.335446715354919434e+00 3.501543760299682617e+00 8.047761917114257812e-01
-1.460888147354125977e+00 3.445607185363769531e+00 7.655051350593566895e-01
-1.345495223999023438e+00 3.529741287231445312e+00 6.674330830574035645e-01
-1.464259505271911621e+00 3.456916093826293945e+00 6.255504488945007324e-01
-1.340308785438537598e+00 3.517979621887207031e+00 5.243979692459106445e-01
-1.491420149803161621e+00 3.524463653564453125e+00 4.956863820552825928e-01
-1.332937598228454590e+00 3.502306461334228516e+00 3.839494585990905762e-01
-1.331889271736145020e+00 3.503229856491088867e+00 2.469624429941177368e-01
-9.004133939743041992e-01 2.369576215744018555e+00 7.523359358310699463e-02
-7.959788441658020020e-01 2.128411293029785156e+00 6.696602106094360352e-01
-1.492236256599426270e+00 3.573490381240844727e+00 1.097279906272888184e+00
-1.325371026992797852e+00 3.542097568511962891e+00 9.604901671409606934e-01
-1.487457156181335449e+00 3.565545320510864258e+00 9.396457672119140625e-01
-1.310508489608764648e+00 3.500515460968017578e+00 8.026766180992126465e-01
-1.438588142395019531e+00 3.451793193817138672e+00 7.649039030075073242e-01
-1.324156880378723145e+00 3.538852930068969727e+00 6.676070690155029297e-01
-1.436954498291015625e+00 3.451265573501586914e+00 6.229206919670104980e-01
-1.327024102210998535e+00 3.548402070999145508e+00 5.277091264724731445e-01
-1.452627301216125488e+00 3.492343425750732422e+00 4.899061322212219238e-01
-1.316296696662902832e+00 3.523465633392333984e+00 3.853763937950134277e-01
-1.482086539268493652e+00 3.566678524017333984e+00 3.589796423912048340e-01
-1.310019850730895996e+00 3.510401010513305664e+00 2.468966841697692871e-01
-1.457682728767395020e+00 3.511408567428588867e+00 2.145590186119079590e-01
-8.914459943771362305e-01 2.390041112899780273e+00 7.570825517177581787e-02
-1.519755840301513672e+00 3.664548397064208984e+00 8.032992482185363770e-02
-7.792688608169555664e-01 2.123349905014038086e+00 6.665507555007934570e-01
-1.483432054519653320e+00 3.614622592926025391e+00 1.107094049453735352e+00
-8.228592276573181152e-01 2.240915298461914062e+00 6.062755584716796875e-01
-1.458548069000244141e+00 3.557523488998413086e+00 9.351555705070495605e-01
-1.568234443664550781e+00 3.455049753189086914e+00 8.843580484390258789e-01
-1.287319183349609375e+00 3.503901958465576172e+00 8.016267418861389160e-01
-1.432605981826782227e+00 3.497726678848266602e+00 7.731201052665710449e-01
-1.318711042404174805e+00 3.591282129287719727e+00 6.759586930274963379e-01
-1.409400463104248047e+00 3.444497585296630859e+00 6.201266050338745117e-01
-1.328089237213134766e+00 3.618774175643920898e+00 5.369526147842407227e-01
-1.430045604705810547e+00 3.498436927795410156e+00 4.895207881927490234e-01
-1.309375882148742676e+00 3.571638107299804688e+00 3.897591233253479004e-01
-1.441728830337524414e+00 3.530536413192749023e+00 3.544449508190155029e-01
-1.290514469146728516e+00 3.523995161056518555e+00 2.472911924123764038e-01
-1.422910213470458984e+00 3.487931251525878906e+00 2.125869840383529663e-01
-8.671445846557617188e-01 2.369183540344238281e+00 7.487760484218597412e-02
-9.772824645042419434e-01 2.397972106933593750e+00 5.243309214711189270e-02
-7.613514065742492676e-01 2.114553928375244141e+00 6.623106002807617188e-01
-1.437477111816406250e+00 3.564764261245727539e+00 1.089101433753967285e+00
-1.561037540435791016e+00 3.491122484207153320e+00 1.043323278427124023e+00
-7.713163495063781738e-01 2.141057729721069336e+00 5.779679417610168457e-01
-1.423984289169311523e+00 3.534860610961914062e+00 9.268839955329895020e-01
-1.543828606605529785e+00 3.457493066787719727e+00 8.825421333312988281e-01
-8.168989419937133789e-01 2.266347646713256836e+00 5.173411369323730469e-01
-1.407459735870361328e+00 3.497362375259399414e+00 7.711161971092224121e-01
-1.283967614173889160e+00 3.564100503921508789e+00 6.693469882011413574e-01
-1.391182422637939453e+00 3.460402250289916992e+00 6.214414238929748535e-01
-1.152860879898071289e+00 3.201920270919799805e+00 4.740414321422576904e-01
-1.409661531448364258e+00 3.509906530380249023e+00 4.899061322212219238e-01
-7.709803581237792969e-01 2.143644332885742188e+00 2.334070205688476562e-01
-1.412994146347045898e+00 3.521758317947387695e+00 3.526866137981414795e-01
-7.827100157737731934e-01 2.178645610809326172e+00 1.525433659553527832e-01
-1.410396575927734375e+00 3.518838167190551758e+00 2.139392346143722534e-01
-8.313102126121520996e-01 2.315192222595214844e+00 7.300863415002822876e-02
-9.573474526405334473e-01 2.390929460525512695e+00 5.214967206120491028e-02
-7.442101836204528809e-01 2.107427597045898438e+00 6.586358547210693359e-01
-1.399986267089843750e+00 3.534159421920776367e+00 1.077106356620788574e+00
-1.540752291679382324e+00 3.503284454345703125e+00 1.044112920761108398e+00
-7.475088834762573242e-01 2.115592718124389648e+00 5.698449015617370605e-01
-1.388324022293090820e+00 3.508295059204101562e+00 9.176671504974365234e-01
-1.519451856613159180e+00 3.459767103195190430e+00 8.807261586189270020e-01
-7.531172633171081543e-01 2.130281686782836914e+00 4.852172732353210449e-01
-1.383452534675598145e+00 3.499554634094238281e+00 7.697133421897888184e-01
-1.490749597549438477e+00 3.400859355926513672e+00 7.231267094612121582e-01
-7.991717457771301270e-01 2.261808395385742188e+00 4.238443672657012939e-01
-1.371735215187072754e+00 3.473460674285888672e+00 6.222632527351379395e-01
-7.591994404792785645e-01 2.149873495101928711e+00 3.175911903381347656e-01
-1.385914921760559082e+00 3.512954711914062500e+00 4.891354441642761230e-01
-7.588054537773132324e-01 2.151149034500122070e+00 2.337127923965454102e-01
-1.382596254348754883e+00 3.508129358291625977e+00 3.504655659198760986e-01
-7.603740096092224121e-01 2.157996892929077148e+00 1.507680714130401611e-01
-1.385121345520019531e+00 3.518135786056518555e+00 2.133757919073104858e-01
-7.799031734466552734e-01 2.214654922485351562e+00 6.968601047992706299e-02
-9.382676482200622559e-01 2.385593414306640625e+00 5.190673843026161194e-02
-7.293821573257446289e-01 2.106515645980834961e+00 6.569397449493408203e-01
-1.370600223541259766e+00 3.522956609725952148e+00 1.071108698844909668e+00
-1.521525382995605469e+00 3.517985105514526367e+00 1.045692086219787598e+00
-7.329274415969848633e-01 2.115560531616210938e+00 5.686141252517700195e-01
-1.367827296257019043e+00 3.519464492797851562e+00 9.183761477470397949e-01
-1.493947029113769531e+00 3.459190368652343750e+00 8.782292604446411133e-01
-7.371498942375183105e-01 2.126548528671264648e+00 4.833275973796844482e-01
-1.360535264015197754e+00 3.504324197769165039e+00 7.689117789268493652e-01
-1.470242738723754883e+00 3.410843610763549805e+00 7.233178019523620605e-01
-7.427264451980590820e-01 2.143845081329345703e+00 4.008774161338806152e-01
-1.351466655731201172e+00 3.484570980072021484e+00 6.227563023567199707e-01
-7.382162809371948242e-01 2.132029294967651367e+00 3.142800927162170410e-01
-1.360034465789794922e+00 3.510295867919921875e+00 4.875940680503845215e-01
-7.439661026000976562e-01 2.151063680648803711e+00 2.332031726837158203e-01
-1.362123012542724609e+00 3.519332647323608398e+00 3.507432043552398682e-01
-7.461410164833068848e-01 2.159792423248291016e+00 1.505708247423171997e-01
-1.362788200378417969e+00 3.524706125259399414e+00 2.132631093263626099e-01
-7.552079558372497559e-01 2.187274456024169922e+00 6.867735832929611206e-02
-9.236122369766235352e-01 2.391305685043334961e+00 5.190673843026161194e-02
-7.105857133865356445e-01 2.093693256378173828e+00 6.515688896179199219e-01
-1.339344620704650879e+00 3.506134510040283203e+00 1.063475489616394043e+00
-1.511236548423767090e+00 3.553889036178588867e+00 1.053588032722473145e+00
-7.196210622787475586e-01 2.119099855422973633e+00 5.683679580688476562e-01
-1.346899390220642090e+00 3.529606819152832031e+00 9.188488125801086426e-01
-1.485635519027709961e+00 3.498770475387573242e+00 8.859469890594482422e-01
-7.222004532814025879e-01 2.125477075576782227e+00 4.820678532123565674e-01
-1.334121942520141602e+00 3.499789953231811523e+00 7.661063075065612793e-01
-1.451584577560424805e+00 3.425223350524902344e+00 7.244647145271301270e-01
-7.232251167297363281e-01 2.129713058471679688e+00 3.973976075649261475e-01
-1.330060362815856934e+00 3.492797851562500000e+00 6.227563023567199707e-01
-1.475779414176940918e+00 3.484006881713867188e+00 5.938615798950195312e-01
-7.222556471824645996e-01 2.128077745437622070e+00 3.130384087562561035e-01
-1.344111680984497070e+00 3.533405303955078125e+00 4.896492660045623779e-01
-1.495971441268920898e+00 3.540275335311889648e+00 4.616959393024444580e-01
-7.297952771186828613e-01 2.152761697769165039e+00 2.328973859548568726e-01
-1.335551381111145020e+00 3.514593362808227539e+00 3.494475781917572021e-01
-7.354349493980407715e-01 2.171890735626220703e+00 1.510968208312988281e-01
-1.337946534156799316e+00 3.524600982666015625e+00 2.127560079097747803e-01
-7.401707768440246582e-01 2.187133312225341797e+00 6.852903217077255249e-02
-9.071496129035949707e-01 2.392253637313842773e+00 5.180551111698150635e-02
-1.666444778442382812e+00 3.957184553146362305e+00 4.571524634957313538e-02
-6.962122321128845215e-01 2.093462944030761719e+00 6.501555442810058594e-01
-8.039935231208801270e-01 2.144066095352172852e+00 6.488263607025146484e-01
-1.493866682052612305e+00 3.573776245117187500e+00 1.056746482849121094e+00
-7.069110274314880371e-01 2.124395370483398438e+00 5.686141252517700195e-01
-1.326580166816711426e+00 3.541444540023803711e+00 9.197941422462463379e-01
-1.472392320632934570e+00 3.527592897415161133e+00 8.909407854080200195e-01
-7.113072872161865234e-01 2.136362075805664062e+00 4.835376143455505371e-01
-1.304382205009460449e+00 3.485888242721557617e+00 7.612968683242797852e-01
-1.433182597160339355e+00 3.440408229827880859e+00 7.258027791976928711e-01
-7.135639786720275879e-01 2.144388437271118164e+00 3.993114829063415527e-01
-1.314129710197448730e+00 3.515676498413085938e+00 6.253860592842102051e-01
-1.450197100639343262e+00 3.482964515686035156e+00 5.921559929847717285e-01
-7.098095417022705078e-01 2.134349107742309570e+00 3.133143484592437744e-01
-1.325181007385253906e+00 3.549018621444702148e+00 4.906768500804901123e-01
-1.464699625968933105e+00 3.526464700698852539e+00 4.587141573429107666e-01
-7.175132632255554199e-01 2.160031318664550781e+00 2.332031726837158203e-01
-1.313961148262023926e+00 3.522722005844116211e+00 3.494475781917572021e-01
-1.471940517425537109e+00 3.547393083572387695e+00 3.204835057258605957e-01
-7.192665934562683105e-01 2.167838811874389648e+00 1.505050510168075562e-01
-1.320129275321960449e+00 3.543035507202148438e+00 2.133757919073104858e-01
-1.447794198989868164e+00 3.492644071578979492e+00 1.776380389928817749e-01
-7.267368435859680176e-01 2.191633701324462891e+00 6.852903217077255249e-02
-8.900126814842224121e-01 2.391215801239013672e+00 5.166380107402801514e-02
-1.651310920715332031e+00 3.989509344100952148e+00 4.597075656056404114e-02
-6.797885298728942871e-01 2.086750745773315430e+00 6.467633843421936035e-01
-7.801896929740905762e-01 2.120065212249755859e+00 6.401026248931884766e-01
-1.478142380714416504e+00 3.598045349121093750e+00 1.061220765113830566e+00
-1.590205073356628418e+00 3.496864080429077148e+00 1.009938120841979980e+00
-6.893570423126220703e-01 2.114870071411132812e+00 5.649218559265136719e-01
-1.166363596916198730e+00 3.172860145568847656e+00 8.221900463104248047e-01
-1.454785466194152832e+00 3.546472311019897461e+00 8.934376835823059082e-01
-6.972759366035461426e-01 2.137897968292236328e+00 4.829077124595642090e-01
-1.278578400611877441e+00 3.481870412826538086e+00 7.586917281150817871e-01
-1.421714663505554199e+00 3.472755193710327148e+00 7.307727336883544922e-01
-7.006979584693908691e-01 2.149662733078002930e+00 3.994854688644409180e-01
-1.320048451423645020e+00 3.598684787750244141e+00 6.386991143226623535e-01
-1.422064423561096191e+00 3.475339412689208984e+00 5.893650054931640625e-01
-6.963933110237121582e-01 2.137722492218017578e+00 3.131763935089111328e-01
-1.314298033714294434e+00 3.586880445480346680e+00 4.947872459888458252e-01
-1.433278799057006836e+00 3.511485338211059570e+00 4.556131362915039062e-01
-7.036303877830505371e-01 2.162501335144042969e+00 2.329993098974227905e-01
-1.310460448265075684e+00 3.580275297164916992e+00 3.543524146080017090e-01
-1.440363287925720215e+00 3.532366037368774414e+00 3.183214366436004639e-01
-7.037925720214843750e-01 2.165568590164184570e+00 1.500447988510131836e-01
-1.294593453407287598e+00 3.540754318237304688e+00 2.127560079097747803e-01
-1.428220748901367188e+00 3.506087303161621094e+00 1.778727024793624878e-01
-7.123492360115051270e-01 2.193199634552001953e+00 6.844002753496170044e-02
-8.670918345451354980e-01 2.374092817306518555e+00 5.117793753743171692e-02
-1.552957892417907715e+00 3.818020582199096680e+00 4.388407990336418152e-02
-6.637650728225708008e-01 2.080830335617065430e+00 6.436539888381958008e-01
-7.642260193824768066e-01 2.116668224334716797e+00 6.376491189002990723e-01
-1.434731364250183105e+00 3.554265737533569336e+00 1.045692086219787598e+00
-1.567139029502868652e+00 3.503024339675903320e+00 1.008921027183532715e+00
-6.748939752578735352e-01 2.114443540573120117e+00 5.636910796165466309e-01
-7.638130784034729004e-01 2.117838621139526367e+00 5.475752949714660645e-01
-1.407876133918762207e+00 3.493005275726318359e+00 8.777753114700317383e-01
-1.539701938629150391e+00 3.449767351150512695e+00 8.444325327873229980e-01
-6.865245103836059570e-01 2.149586915969848633e+00 4.845873713493347168e-01
-1.102116584777832031e+00 3.059204578399658203e+00 6.651077270507812500e-01
-1.399280548095703125e+00 3.478681325912475586e+00 7.301992774009704590e-01
-6.871953010559082031e-01 2.152983665466308594e+00 3.993114829063415527e-01
-1.286252260208129883e+00 3.574232101440429688e+00 6.329465508460998535e-01
-1.398133754730224609e+00 3.477583408355712891e+00 5.882796049118041992e-01
-6.844673156738281250e-01 2.145729780197143555e+00 3.137282431125640869e-01
-7.762981057167053223e-01 2.159539461135864258e+00 2.972320020198822021e-01
-1.403575420379638672e+00 3.499940156936645508e+00 4.529891908168792725e-01
-6.864224076271057129e-01 2.154455900192260742e+00 2.316742837429046631e-01
-7.739554643630981445e-01 2.155385732650756836e+00 2.128520756959915161e-01
-1.413844227790832520e+00 3.529111862182617188e+00 3.172404170036315918e-01
-6.898865103721618652e-01 2.167944431304931641e+00 1.499133110046386719e-01
-7.837290167808532715e-01 2.185001850128173828e+00 1.310004591941833496e-01
-1.402227044105529785e+00 3.503656148910522461e+00 1.773095130920410156e-01
-6.985756158828735352e-01 2.196576356887817383e+00 6.841035932302474976e-02
-8.481243848800659180e-01 2.367132902145385742e+00 5.091476067900657654e-02
-9.513931274414062500e-01 2.380798816680908203e+00 2.729713357985019684e-02
-6.501271724700927734e-01 2.082117080688476562e+00 6.428059339523315430e-01
-7.464063763618469238e-01 2.107713460922241211e+00 6.335598826408386230e-01
-1.395825862884521484e+00 3.519955635070800781e+00 1.033058524131774902e+00
-1.548731446266174316e+00 3.519655942916870117e+00 1.010955095291137695e+00
-6.604620218276977539e-01 2.113919019699096680e+00 5.624603033065795898e-01
-7.472393512725830078e-01 2.112408876419067383e+00 5.449756383895874023e-01
-1.383190274238586426e+00 3.493428707122802734e+00 8.757324218750000000e-01
-1.518113255500793457e+00 3.458256006240844727e+00 8.442143797874450684e-01
-6.671956181526184082e-01 2.134162187576293945e+00 4.801782369613647461e-01
-7.562711238861083984e-01 2.140317201614379883e+00 4.643129408359527588e-01
-1.369252443313598633e+00 3.465292692184448242e+00 7.256116867065429688e-01
-1.507651448249816895e+00 3.442583322525024414e+00 6.951923966407775879e-01
-6.701541543006896973e-01 2.144940376281738281e+00 3.970496058464050293e-01
-1.241315722465515137e+00 3.516945838928222656e+00 6.214414238929748535e-01
-1.377495169639587402e+00 3.487934589385986328e+00 5.885897278785705566e-01
-6.733549237251281738e-01 2.156507015228271484e+00 3.146939873695373535e-01
-7.603948116302490234e-01 2.156779766082763672e+00 2.962043881416320801e-01
-1.382073760032653809e+00 3.508486509323120117e+00 4.529891908168792725e-01
-6.720053553581237793e-01 2.154828548431396484e+00 2.312666028738021851e-01
-7.593926787376403809e-01 2.156337261199951172e+00 2.124818861484527588e-01
-1.388879179954528809e+00 3.529374599456787109e+00 3.164920210838317871e-01
-6.952660083770751953e-01 2.232156276702880859e+00 1.540556401014328003e-01
-7.729579210281372070e-01 2.197304248809814453e+00 1.314512193202972412e-01
-1.378875374794006348e+00 3.507545948028564453e+00 1.770748645067214966e-01
-6.856787204742431641e-01 2.202730417251586914e+00 6.846969574689865112e-02
-7.861874103546142578e-01 2.237406730651855469e+00 4.801980778574943542e-02
-9.382283091545104980e-01 2.390314817428588867e+00 2.733971737325191498e-02
-6.370589733123779297e-01 2.085149526596069336e+00 6.425232291221618652e-01
-7.328283786773681641e-01 2.110435724258422852e+00 6.330146193504333496e-01
-1.373151183128356934e+00 3.525757074356079102e+00 1.032268881797790527e+00
-1.534787774085998535e+00 3.546844482421875000e+00 1.016040444374084473e+00
-6.488956809043884277e-01 2.122566223144531250e+00 5.636910796165466309e-01
-7.320349216461181641e-01 2.110527992248535156e+00 5.433213114738464355e-01
-1.364199757575988770e+00 3.508203744888305664e+00 8.773213624954223633e-01
-1.491450190544128418e+00 3.454962015151977539e+00 8.411603569984436035e-01
-6.532300710678100586e-01 2.135411024093627930e+00 4.795483648777008057e-01
-7.405582666397094727e-01 2.137511253356933594e+00 4.627097547054290771e-01
-1.350804805755615234e+00 3.480949640274047852e+00 7.271408438682556152e-01
-1.489222288131713867e+00 3.458091259002685547e+00 6.964656114578247070e-01
-6.546773314476013184e-01 2.141478300094604492e+00 3.956576883792877197e-01
-7.461507320404052734e-01 2.156085729598999023e+00 3.801624178886413574e-01
-1.349637389183044434e+00 3.479741811752319336e+00 5.857987403869628906e-01
-6.606888771057128906e-01 2.162492275238037109e+00 3.149698972702026367e-01
-7.416387200355529785e-01 2.145470857620239258e+00 2.940207421779632568e-01
-1.366968154907226562e+00 3.533568620681762695e+00 4.551360607147216797e-01
-6.689326763153076172e-01 2.192213296890258789e+00 2.348339557647705078e-01
-7.487471699714660645e-01 2.168485879898071289e+00 2.132222503423690796e-01
-1.361090421676635742e+00 3.522027969360351562e+00 3.150783777236938477e-01
-7.100639343261718750e-01 2.329920768737792969e+00 1.604992896318435669e-01
-7.633672952651977539e-01 2.213331937789916992e+00 1.321273446083068848e-01
-1.357327461242675781e+00 3.515940427780151367e+00 1.770748645067214966e-01
-6.762272715568542480e-01 2.220282793045043945e+00 6.888502091169357300e-02
-7.574641704559326172e-01 2.198705911636352539e+00 4.708856344223022461e-02
-9.217457771301269531e-01 2.391361474990844727e+00 2.728648856282234192e-02
-6.234288811683654785e-01 2.086262226104736328e+00 6.416752934455871582e-01
-7.149049043655395508e-01 2.100319623947143555e+00 6.286527514457702637e-01
-1.353903770446777344e+00 3.540423870086669922e+00 1.034111261367797852e+00
-1.516024827957153320e+00 3.563314437866210938e+00 1.018074631690979004e+00
-6.350266337394714355e-01 2.123722076416015625e+00 5.629526376724243164e-01
-7.190712094306945801e-01 2.114979743957519531e+00 5.433213114738464355e-01
-1.341258645057678223e+00 3.512868881225585938e+00 8.764134049415588379e-01
-1.476323485374450684e+00 3.478422164916992188e+00 8.446506857872009277e-01
-6.513255238533020020e-01 2.176846265792846680e+00 4.879467487335205078e-01
-7.236483693122863770e-01 2.130882978439331055e+00 4.603050649166107178e-01
-1.347943067550659180e+00 3.537786006927490234e+00 7.372719049453735352e-01
-1.463375210762023926e+00 3.456297874450683594e+00 6.942828893661499023e-01
-6.341902017593383789e-01 2.120924711227416992e+00 3.911338746547698975e-01
-7.300553917884826660e-01 2.152216196060180664e+00 3.786831796169281006e-01
-1.331073403358459473e+00 3.495343446731567383e+00 5.870391726493835449e-01
-1.483708500862121582e+00 3.511147737503051758e+00 5.621926784515380859e-01
-6.459897756576538086e-01 2.161760807037353516e+00 3.142800927162170410e-01
-7.306880950927734375e-01 2.156555891036987305e+00 2.949198782444000244e-01
-1.342087984085083008e+00 3.533535957336425781e+00 4.540626108646392822e-01
-1.476847529411315918e+00 3.500021457672119141e+00 4.200676083564758301e-01
-7.021256089210510254e-01 2.352608680725097656e+00 2.515495717525482178e-01
-7.338314652442932129e-01 2.168323278427124023e+00 2.127595096826553345e-01
-1.343342661857604980e+00 3.540562152862548828e+00 3.159930706024169922e-01
-7.134261727333068848e-01 2.393521785736083984e+00 1.645758599042892456e-01
-7.430577874183654785e-01 2.198111772537231445e+00 1.309441179037094116e-01
-1.323691725730895996e+00 3.492444515228271484e+00 1.754791736602783203e-01
-7.471573352813720703e-01 2.212784767150878906e+00 4.729100689291954041e-02
-9.088248014450073242e-01 2.401648283004760742e+00 2.733971737325191498e-02
-1.657618522644042969e+00 3.943800210952758789e+00 5.226562265306711197e-03
-6.116920709609985352e-01 2.093731164932250977e+00 6.428059339523315430e-01
-6.983510255813598633e-01 2.093714475631713867e+00 6.253814101219177246e-01
-1.291128754615783691e+00 3.439377546310424805e+00 1.002264142036437988e+00
-1.499729633331298828e+00 3.585933208465576172e+00 1.021888494491577148e+00
-6.222556829452514648e-01 2.128508806228637695e+00 5.631987452507019043e-01
-7.048518657684326172e-01 2.115664720535278320e+00 5.423760414123535156e-01
-1.319678783416748047e+00 3.521032571792602539e+00 8.764134049415588379e-01
-1.475619435310363770e+00 3.536952257156372070e+00 8.566485643386840820e-01
-6.297211647033691406e-01 2.152650356292724609e+00 4.816479384899139404e-01
-7.121065855026245117e-01 2.139930963516235352e+00 4.613069891929626465e-01
-1.330336451530456543e+00 3.557022571563720703e+00 7.395657300949096680e-01
-1.439117670059204102e+00 3.457949161529541016e+00 6.928278207778930664e-01
-6.214407682418823242e-01 2.125721216201782227e+00 3.913078606128692627e-01
-7.183914780616760254e-01 2.161335468292236328e+00 3.795049488544464111e-01
-1.325858831405639648e+00 3.546937227249145508e+00 5.943267345428466797e-01
-1.456444501876831055e+00 3.506481409072875977e+00 5.600040555000305176e-01
-6.393792629241943359e-01 2.188500404357910156e+00 3.175911903381347656e-01
-7.165046334266662598e-01 2.158175230026245117e+00 2.945345640182495117e-01
-1.316219449043273926e+00 3.530540704727172852e+00 4.526313543319702148e-01
-1.466386556625366211e+00 3.535642385482788086e+00 4.232549071311950684e-01
-6.893488764762878418e-01 2.362602472305297852e+00 2.521611154079437256e-01
-7.220801711082458496e-01 2.177510738372802734e+00 2.132222503423690796e-01
-1.331330895423889160e+00 3.574886560440063477e+00 3.183214366436004639e-01
-1.454184889793395996e+00 3.511417150497436523e+00 2.811008095741271973e-01
-6.920266151428222656e-01 2.374862670898437500e+00 1.629978418350219727e-01
-7.301843166351318359e-01 2.204525232315063477e+00 1.310568004846572876e-01
-1.309203267097473145e+00 3.519225120544433594e+00 1.764178127050399780e-01
-1.431230425834655762e+00 3.461114406585693359e+00 1.406091302633285522e-01
-7.345079779624938965e-01 2.220175266265869141e+00 4.735174030065536499e-02
-8.825822472572326660e-01 2.376246213912963867e+00 2.698839083313941956e-02
-1.625370383262634277e+00 3.934487581253051758e+00 5.200905259698629379e-03
-6.001502871513366699e-01 2.102056741714477539e+00 6.442192792892456055e-01
-6.836981773376464844e-01 2.092472791671752930e+00 6.237456798553466797e-01
-7.870804071426391602e-01 2.136416673660278320e+00 6.211510896682739258e-01
-1.478066086769104004e+00 3.595962285995483398e+00 1.022142767906188965e+00
-6.131774783134460449e-01 2.146265983581542969e+00 5.668910741806030273e-01
-6.903498768806457520e-01 2.115331411361694336e+00 5.411943793296813965e-01
-1.298049330711364746e+00 3.529063701629638672e+00 8.764134049415588379e-01
-1.450557231903076172e+00 3.537813186645507812e+00 8.546852469444274902e-01
-6.181133389472961426e-01 2.162113904953002930e+00 4.829077124595642090e-01
-7.007846236228942871e-01 2.149848937988281250e+00 4.625093638896942139e-01
-1.306794881820678711e+00 3.560511112213134766e+00 7.386099100112915039e-01
-1.419361948966979980e+00 3.470354795455932617e+00 6.935553550720214844e-01
-6.140667200088500977e-01 2.149378538131713867e+00 3.949617147445678711e-01
-6.996194720268249512e-01 2.148819923400878906e+00 3.765465021133422852e-01
-1.320400953292846680e+00 3.599524736404418945e+00 6.017694473266601562e-01
-1.425928831100463867e+00 3.493369340896606445e+00 5.565021634101867676e-01
-6.234917044639587402e-01 2.183811187744140625e+00 3.163495361804962158e-01
-7.029420733451843262e-01 2.161587715148925781e+00 2.944061160087585449e-01
-1.317727446556091309e+00 3.601955175399780273e+00 4.607417583465576172e-01
-1.425907731056213379e+00 3.498552083969116211e+00 4.177595078945159912e-01
-6.732025742530822754e-01 2.361047744750976562e+00 2.515495717525482178e-01
-7.114740014076232910e-01 2.190423488616943359e+00 2.140551507472991943e-01
-1.334340453147888184e+00 3.651315927505493164e+00 3.243918418884277344e-01
-1.431484103202819824e+00 3.517502546310424805e+00 2.808795273303985596e-01
-7.160276770591735840e-01 2.207064628601074219e+00 1.309441179037094116e-01
-8.953837156295776367e-01 2.452801227569580078e+00 1.226805448532104492e-01
-1.414104580879211426e+00 3.480014801025390625e+00 1.410217881202697754e-01
-7.190222144126892090e-01 2.218933582305908203e+00 4.723027348518371582e-02
-8.765452504158020020e-01 2.405104160308837891e+00 2.725454792380332947e-02
-1.556814670562744141e+00 3.835052490234375000e+00 5.056741647422313690e-03
-5.869833827018737793e-01 2.104775667190551758e+00 6.439366340637207031e-01
-6.676209568977355957e-01 2.086548566818237305e+00 6.207469105720520020e-01
-7.687095999717712402e-01 2.126689195632934570e+00 6.169399023056030273e-01
-1.451265573501586914e+00 3.593306064605712891e+00 1.018837332725524902e+00
-5.989545583724975586e-01 2.146253585815429688e+00 5.659064054489135742e-01
-6.746953129768371582e-01 2.111197233200073242e+00 5.390674471855163574e-01
-8.912447094917297363e-01 2.469735622406005859e+00 6.119685173034667969e-01
-1.417517185211181641e+00 3.518585205078125000e+00 8.479228019714355469e-01
-6.035203337669372559e-01 2.161157369613647461e+00 4.818578958511352539e-01
-6.831115484237670898e-01 2.140108585357666016e+00 4.595034718513488770e-01
-1.223736524581909180e+00 3.398535490036010742e+00 7.034380435943603516e-01
-1.405374526977539062e+00 3.497246742248535156e+00 6.971932053565979004e-01
-5.982198119163513184e-01 2.143620729446411133e+00 3.932217657566070557e-01
-6.870206594467163086e-01 2.154951810836791992e+00 3.768752515316009521e-01
-1.297286272048950195e+00 3.604770183563232422e+00 6.013042330741882324e-01
-1.401521205902099609e+00 3.494707345962524414e+00 5.553348660469055176e-01
-6.521181464195251465e-01 2.338332653045654297e+00 3.381477296352386475e-01
-6.887629032135009766e-01 2.163025379180908203e+00 2.940207421779632568e-01
-7.757510542869567871e-01 2.161498308181762695e+00 2.758725583553314209e-01
-1.403305649757385254e+00 3.504467248916625977e+00 4.174298048019409180e-01
-6.600372791290283203e-01 2.369925260543823242e+00 2.520591914653778076e-01
-6.965114474296569824e-01 2.190003395080566406e+00 2.135924249887466431e-01
-7.845908999443054199e-01 2.188531398773193359e+00 1.940031200647354126e-01
-1.409874200820922852e+00 3.526219844818115234e+00 2.808795273303985596e-01
-7.070059180259704590e-01 2.225690126419067383e+00 1.317892819643020630e-01
-8.085846900939941406e-01 2.257940292358398438e+00 1.126839965581893921e-01
-1.398653149604797363e+00 3.503475189208984375e+00 1.416220515966415405e-01
-7.035794258117675781e-01 2.217585802078247070e+00 4.710880666971206665e-02
-8.526823520660400391e-01 2.385014772415161133e+00 2.696709893643856049e-02
-1.381373167037963867e+00 3.463701725006103516e+00 4.555832128971815109e-03
-5.758216381072998047e-01 2.114816427230834961e+00 6.459153890609741211e-01
-6.527925729751586914e-01 2.084178924560546875e+00 6.188386082649230957e-01
-7.530670166015625000e-01 2.124091863632202148e+00 6.148343086242675781e-01
-1.404223084449768066e+00 3.539216041564941406e+00 1.001038908958435059e+00
-5.860289335250854492e-01 2.150823593139648438e+00 5.661526322364807129e-01
-6.625989079475402832e-01 2.118079423904418945e+00 5.397763848304748535e-01
-7.503169775009155273e-01 2.119858741760253906e+00 5.241228342056274414e-01
-1.388359308242797852e+00 3.508160591125488281e+00 8.433418273925781250e-01
-6.159672737121582031e-01 2.259147644042968750e+00 5.028539299964904785e-01
-6.699672341346740723e-01 2.144259929656982422e+00 4.595034718513488770e-01
-7.671504616737365723e-01 2.172238111495971680e+00 4.486329257488250732e-01
-1.395442962646484375e+00 3.535072565078735352e+00 7.030137777328491211e-01
-6.233689785003662109e-01 2.287867546081542969e+00 4.189726114273071289e-01
-6.714344024658203125e-01 2.151593685150146484e+00 3.755603432655334473e-01
-1.207078814506530762e+00 3.419825553894042969e+00 5.692078471183776855e-01
-1.375337839126586914e+00 3.491275310516357422e+00 5.534380674362182617e-01
-6.395795941352844238e-01 2.348979473114013672e+00 3.391134738922119141e-01
-6.781337261199951172e-01 2.175731897354125977e+00 2.951768040657043457e-01
-7.637923359870910645e-01 2.169963598251342773e+00 2.763496339321136475e-01
-1.382503867149353027e+00 3.514861822128295898e+00 4.176496267318725586e-01
-6.465273499488830566e-01 2.377770662307739258e+00 2.524668872356414795e-01
-6.866122484207153320e-01 2.205644369125366211e+00 2.147029638290405273e-01
-7.698253393173217773e-01 2.189543724060058594e+00 1.936704814434051514e-01
-1.387482166290283203e+00 3.532947778701782227e+00 2.807320356369018555e-01
-6.963002681732177734e-01 2.239520072937011719e+00 1.323527246713638306e-01
-7.735314965248107910e-01 2.202541351318359375e+00 1.096803471446037292e-01
-1.380048274993896484e+00 3.519433975219726562e+00 1.419221758842468262e-01
-6.923313140869140625e-01 2.229499578475952148e+00 4.727075994014739990e-02
-8.006465435028076172e-01 2.283572196960449219e+00 2.576406486332416534e-02
-9.596160054206848145e-01 2.449752569198608398e+00 3.214372089132666588e-03
-5.618492960929870605e-01 2.114601612091064453e+00 6.447846889495849609e-01
-6.394280791282653809e-01 2.086305141448974609e+00 6.182933449745178223e-01
-7.371685504913330078e-01 2.120471239089965820e+00 6.124655008316040039e-01
-1.376861929893493652e+00 3.533347368240356445e+00 9.969706535339355469e-01
-5.942392349243164062e-01 2.234933853149414062e+00 5.873218178749084473e-01
-6.518653631210327148e-01 2.129538059234619141e+00 5.416670441627502441e-01
-7.363377213478088379e-01 2.121662378311157227e+00 5.234418511390686035e-01
-1.362918496131896973e+00 3.506607532501220703e+00 8.409422636032104492e-01
-6.113954782485961914e-01 2.297843456268310547e+00 5.106224417686462402e-01
-6.602348685264587402e-01 2.159573078155517578e+00 4.619081914424896240e-01
-7.505956292152404785e-01 2.167629003524780273e+00 4.467214047908782959e-01
-1.377280116081237793e+00 3.552736520767211914e+00 7.048326730728149414e-01
-6.207058429718017578e-01 2.334475040435791016e+00 4.268022179603576660e-01
-6.582198143005371094e-01 2.155673027038574219e+00 3.755603432655334473e-01
-7.495744824409484863e-01 2.165902614593505859e+00 3.597281873226165771e-01
-1.350320458412170410e+00 3.490421772003173828e+00 5.519789457321166992e-01
-6.254087686538696289e-01 2.353816986083984375e+00 3.392514288425445557e-01
-6.659280657768249512e-01 2.183646202087402344e+00 2.956905961036682129e-01
-7.507871985435485840e-01 2.175547838211059570e+00 2.764689028263092041e-01
-1.356255292892456055e+00 3.511225223541259766e+00 4.162208139896392822e-01
-6.311600804328918457e-01 2.378808259963989258e+00 2.521611154079437256e-01
-6.898922920227050781e-01 2.265061140060424805e+00 2.200705260038375854e-01
-7.554018497467041016e-01 2.191399812698364258e+00 1.934210360050201416e-01
-1.352141976356506348e+00 3.506036520004272461e+00 2.779291272163391113e-01
-7.281649708747863770e-01 2.393715620040893555e+00 1.411987692117691040e-01
-7.635796070098876953e-01 2.217635393142700195e+00 1.101965978741645813e-01
-1.315696120262145996e+00 3.416862249374389648e+00 1.374578028917312622e-01
-6.736975312232971191e-01 2.217442989349365234e+00 4.692660644650459290e-02
-7.654914855957031250e-01 2.226975440979003906e+00 2.507205307483673096e-02
-9.219486713409423828e-01 2.396794795989990234e+00 3.137403167784214020e-03
-5.823104977607727051e-01 2.247076749801635742e+00 6.840766668319702148e-01
-6.246806979179382324e-01 2.083738327026367188e+00 6.163850426673889160e-01
-7.235212922096252441e-01 2.123127937316894531e+00 6.119390726089477539e-01
-1.364141821861267090e+00 3.565214157104492188e+00 1.003581523895263672e+00
-5.938962697982788086e-01 2.290138959884643555e+00 6.008602380752563477e-01
-6.362781524658203125e-01 2.125120162963867188e+00 5.395400524139404297e-01
-7.217373251914978027e-01 2.121530532836914062e+00 5.223069787025451660e-01
-1.345552206039428711e+00 3.525845289230346680e+00 8.435599207878112793e-01
-6.056348681449890137e-01 2.333728075027465820e+00 5.177610516548156738e-01
-6.466909050941467285e-01 2.162645101547241211e+00 4.617078006267547607e-01
-7.328644394874572754e-01 2.159181118011474609e+00 4.440452754497528076e-01
-1.353006482124328613e+00 3.554687500000000000e+00 7.035594582557678223e-01
-6.048869490623474121e-01 2.332520246505737305e+00 4.257582426071166992e-01
-6.407465338706970215e-01 2.145494222640991211e+00 3.730949759483337402e-01
-7.343664765357971191e-01 2.164847850799560547e+00 3.587978482246398926e-01
-1.338011384010314941e+00 3.522687196731567383e+00 5.557726025581359863e-01
-6.107057929039001465e-01 2.356651306152343750e+00 3.391134738922119141e-01
-6.496823430061340332e-01 2.178187847137451172e+00 2.944061160087585449e-01
-7.351972460746765137e-01 2.173529863357543945e+00 2.756340205669403076e-01
-1.326931715011596680e+00 3.499034881591796875e+00 4.138028323650360107e-01
-6.165521144866943359e-01 2.382636308670043945e+00 2.521611154079437256e-01
-7.055447101593017578e-01 2.368495702743530273e+00 2.296951413154602051e-01
-7.422603964805603027e-01 2.196937799453735352e+00 1.935041844844818115e-01
-1.332016348838806152e+00 3.517997741699218750e+00 2.782241702079772949e-01
-7.222895026206970215e-01 2.427804470062255859e+00 1.429454535245895386e-01
-7.489998340606689453e-01 2.219439506530761719e+00 1.100558042526245117e-01
-9.077781438827514648e-01 2.401335239410400391e+00 9.637802094221115112e-02
-7.498972415924072266e-01 2.225944995880126953e+00 2.500817738473415375e-02
-9.022789597511291504e-01 2.389309406280517578e+00 3.120298963040113449e-03
-5.772038698196411133e-01 2.285017490386962891e+00 6.945356726646423340e-01
-6.124246120452880859e-01 2.089378356933593750e+00 6.169302463531494141e-01
-7.043687701225280762e-01 2.109226226806640625e+00 6.066750884056091309e-01
-1.319796085357666016e+00 3.513762474060058594e+00 9.868000745773315430e-01
-5.826835036277770996e-01 2.305015802383422852e+00 6.038140654563903809e-01
-6.213157773017883301e-01 2.122456550598144531e+00 5.378857254981994629e-01
-7.068582773208618164e-01 2.120375633239746094e+00 5.209450125694274902e-01
-1.315676093101501465e+00 3.512101650238037109e+00 8.383244872093200684e-01
-5.929824113845825195e-01 2.344035148620605469e+00 5.192307233810424805e-01
-6.303849220275878906e-01 2.156228542327880859e+00 4.595034718513488770e-01
-7.220802903175354004e-01 2.171088457107543945e+00 4.455744922161102295e-01
-1.331514000892639160e+00 3.563843727111816406e+00 7.037413120269775391e-01
-5.973210930824279785e-01 2.362920045852661133e+00 4.306300580501556396e-01
