-2.995477020740509033e-01 -5.012866020202636719e+00 9.289240241050720215e-01
-4.864302575588226318e-01 -5.033641338348388672e+00 7.937278151512145996e-01
-3.026811182498931885e-01 -5.006598949432373047e+00 7.397655844688415527e-01
-1.021209836006164551e+00 -5.955741405487060547e+00 8.417132496833801270e-01
-8.963697552680969238e-01 -6.673825263977050781e+00 8.721717000007629395e-01
-4.953086972236633301e-01 -5.079216480255126953e+00 6.130501627922058105e-01
-3.023191690444946289e-01 -4.957518100738525391e+00 5.492092370986938477e-01
-9.924108982086181641e-01 -5.775680065155029297e+00 6.004369854927062988e-01
-5.146715641021728516e-01 -5.074555397033691406e+00 1.391536355018615723e+00
-3.259845376014709473e-01 -5.080550193786621094e+00 1.338447690010070801e+00
-5.141382217407226562e-01 -5.042992591857910156e+00 1.181489706039428711e+00
-3.243608474731445312e-01 -4.987133026123046875e+00 1.117111563682556152e+00
-5.182240009307861328e-01 -5.048138141632080078e+00 9.882539510726928711e-01
-3.305591046810150146e-01 -5.014857769012451172e+00 9.296514987945556641e-01
-5.179132819175720215e-01 -5.036458492279052734e+00 7.946581840515136719e-01
-3.336583673954010010e-01 -5.008595943450927734e+00 7.403492331504821777e-01
-1.057387709617614746e+00 -5.947412967681884766e+00 8.414373397827148438e-01
-8.308725357055664062e-01 -5.911029815673828125e+00 7.731371521949768066e-01
-5.282060503959655762e-01 -5.092870235443115234e+00 6.150777339935302734e-01
-3.343303203582763672e-01 -4.979370594024658203e+00 5.518470406532287598e-01
-1.038125157356262207e+00 -5.827264785766601562e+00 6.064505577087402344e-01
-3.573556244373321533e-01 -5.081348419189453125e+00 1.339210510253906250e+00
-3.582129478454589844e-01 -5.030801296234130859e+00 1.127364277839660645e+00
-3.619597554206848145e-01 -5.021562576293945312e+00 9.312885999679565430e-01
-3.646714985370635986e-01 -5.010400772094726562e+00 7.409328222274780273e-01
-1.085789561271667480e+00 -5.896980285644531250e+00 8.352289795875549316e-01
-8.688551187515258789e-01 -5.917594432830810547e+00 7.746785283088684082e-01
-3.649495244026184082e-01 -4.978216648101806641e+00 5.519569516181945801e-01
-1.071334362030029297e+00 -5.807089805603027344e+00 6.050236225128173828e-01
-8.196928352117538452e-02 -7.374162077903747559e-01 7.899560034275054932e-03
-3.897815048694610596e-01 -5.095453739166259766e+00 1.343533039093017578e+00
-3.905050456523895264e-01 -5.046995639801025391e+00 1.131509065628051758e+00
-3.930715024471282959e-01 -5.023168087005615234e+00 9.320161342620849609e-01
-3.960308432579040527e-01 -5.015959262847900391e+00 7.421001791954040527e-01
-1.088779330253601074e+00 -5.716049671173095703e+00 8.105335831642150879e-01
-9.078499078750610352e-01 -5.929797649383544922e+00 7.769906520843505859e-01
-8.106878995895385742e-01 -6.980559349060058594e+00 8.441963195800781250e-01
-3.907633721828460693e-01 -4.916434764862060547e+00 5.453624725341796875e-01
-1.087924718856811523e+00 -5.700736522674560547e+00 5.946272611618041992e-01
-4.213579893112182617e-01 -5.096821308135986328e+00 1.344550013542175293e+00
-4.229280650615692139e-01 -5.062010288238525391e+00 1.135435700416564941e+00
-4.247956871986389160e-01 -5.031439781188964844e+00 9.340169429779052734e-01
-4.275559782981872559e-01 -5.022306442260742188e+00 7.434133291244506836e-01
-1.121345162391662598e+00 -5.696628093719482422e+00 8.087400794029235840e-01
-9.495245814323425293e-01 -5.957413196563720703e+00 7.813578844070434570e-01
-7.225486040115356445e-01 -5.905187129974365234e+00 7.146685719490051270e-01
-4.259276092052459717e-01 -4.972373008728027344e+00 5.518470406532287598e-01
-1.120958685874938965e+00 -5.684194087982177734e+00 5.936080813407897949e-01
-1.063716292381286621e+00 -5.384026050567626953e+00 3.616329729557037354e-01
-8.772579580545425415e-02 -7.128299474716186523e-01 3.374418988823890686e-02
-8.601768612861633301e-01 -4.349813461303710938e+00 1.315994709730148315e-01
-4.533939361572265625e-01 -5.102810382843017578e+00 1.346838474273681641e+00
-4.551138579845428467e-01 -5.071956157684326172e+00 1.138271570205688477e+00
-4.573459923267364502e-01 -5.047345638275146484e+00 9.374729394912719727e-01
-4.601634740829467773e-01 -5.039292335510253906e+00 7.463315725326538086e-01
-1.151346564292907715e+00 -5.665375709533691406e+00 8.052909970283508301e-01
-9.880059361457824707e-01 -5.963215827941894531e+00 7.828993201255798340e-01
-7.545897364616394043e-01 -5.868145942687988281e+00 7.107326388359069824e-01
-4.560658633708953857e-01 -4.965706825256347656e+00 5.514073967933654785e-01
-1.155021309852600098e+00 -5.673309326171875000e+00 5.932003259658813477e-01
-1.099324226379394531e+00 -5.390108108520507812e+00 3.624877333641052246e-01
-8.962468504905700684e-01 -4.390483379364013672e+00 1.329937875270843506e-01
-4.843296110630035400e-01 -5.096080780029296875e+00 1.345821380615234375e+00
-4.861330687999725342e-01 -5.068096637725830078e+00 1.138053417205810547e+00
-4.896337389945983887e-01 -5.058146953582763672e+00 9.400194287300109863e-01
-4.914593696594238281e-01 -5.040312767028808594e+00 7.469152212142944336e-01
-1.187509417533874512e+00 -5.664989948272705078e+00 8.062567114830017090e-01
-1.024240732192993164e+00 -5.955086708068847656e+00 7.826424241065979004e-01
-7.899184823036193848e-01 -5.858485698699951172e+00 7.101362943649291992e-01
-4.968056976795196533e-01 -5.067670345306396484e+00 5.630576014518737793e-01
-1.187765955924987793e+00 -5.656380176544189453e+00 5.921811461448669434e-01
-1.135252237319946289e+00 -5.396931648254394531e+00 3.634082674980163574e-01
-9.217280149459838867e-01 -4.378054618835449219e+00 1.327861249446868896e-01
-5.141283273696899414e-01 -5.078579902648925781e+00 1.342007398605346680e+00
-5.160314440727233887e-01 -5.053367614746093750e+00 1.135435700416564941e+00
-5.206606984138488770e-01 -5.055047035217285156e+00 9.400194287300109863e-01
-5.220707058906555176e-01 -5.034249782562255859e+00 7.464774847030639648e-01
-1.225593090057373047e+00 -5.673086166381835938e+00 8.084641098976135254e-01
-1.059020280838012695e+00 -5.938926219940185547e+00 7.813578844070434570e-01
-8.287634253501892090e-01 -5.874174118041992188e+00 7.126410007476806641e-01
-5.264483690261840820e-01 -5.050686359405517578e+00 5.615189075469970703e-01
-1.221188068389892578e+00 -5.643152236938476562e+00 5.915696024894714355e-01
-1.172573566436767578e+00 -5.409368038177490234e+00 3.647232949733734131e-01
-9.534481167793273926e-01 -4.394783973693847656e+00 1.334684342145919800e-01
-1.264035820960998535e+00 -5.681895256042480469e+00 8.108094930648803711e-01
-1.081034302711486816e+00 -5.854298591613769531e+00 7.710819840431213379e-01
-8.681199550628662109e-01 -5.891570091247558594e+00 7.153841853141784668e-01
-5.704126358032226562e-01 -5.164925098419189453e+00 5.745979547500610352e-01
-1.261416435241699219e+00 -5.660798072814941406e+00 5.942196249961853027e-01
-1.032187581062316895e+00 -5.578865051269531250e+00 5.273178815841674805e-01
-1.204003810882568359e+00 -5.394279956817626953e+00 3.641972541809082031e-01
-9.930351376533508301e-01 -4.445430755615234375e+00 1.351890861988067627e-01
-1.299759507179260254e+00 -5.677894115447998047e+00 8.113613128662109375e-01
-1.094979763031005859e+00 -5.732610702514648438e+00 7.559249401092529297e-01
-9.068165421485900879e-01 -5.902815818786621094e+00 7.174118161201477051e-01
-6.964151263236999512e-01 -5.969883441925048828e+00 6.646124124526977539e-01
-1.303685545921325684e+00 -5.685919284820556641e+00 5.976850390434265137e-01
-1.069206714630126953e+00 -5.587095737457275391e+00 5.287060141563415527e-01
-1.239759922027587891e+00 -5.398461341857910156e+00 3.649862706661224365e-01
-1.014024019241333008e+00 -4.411977767944335938e+00 1.343584209680557251e-01
-1.560410737991333008e+00 -6.629258632659912109e+00 2.007001876831054688e+00
-1.332531571388244629e+00 -5.661135196685791016e+00 8.101196885108947754e-01
-1.119187712669372559e+00 -5.670325756072998047e+00 7.486032843589782715e-01
-9.475649595260620117e-01 -5.925571918487548828e+00 7.208706140518188477e-01
-7.350932955741882324e-01 -5.982268810272216797e+00 6.664808392524719238e-01
-1.365940928459167480e+00 -5.794002532958984375e+00 6.099159717559814453e-01
-1.105786204338073730e+00 -5.592151641845703125e+00 5.298165678977966309e-01
-1.272860884666442871e+00 -5.390752315521240234e+00 3.649862706661224365e-01
-1.051569938659667969e+00 -5.308233261108398438e+00 3.053860068321228027e-01
-1.044064640998840332e+00 -4.418318748474121094e+00 1.347440928220748901e-01
-8.731003403663635254e-01 -4.399277687072753906e+00 9.081654250621795654e-02
-1.580988049507141113e+00 -6.536581516265869141e+00 1.981843590736389160e+00
-1.578583240509033203e+00 -6.531627178192138672e+00 1.706580877304077148e+00
-1.579308152198791504e+00 -6.539625167846679688e+00 1.444733858108520508e+00
-1.589280128479003906e+00 -6.575887203216552734e+00 1.195324659347534180e+00
-1.375391960144042969e+00 -5.686545848846435547e+00 8.149483799934387207e-01
-1.151385068893432617e+00 -5.650719165802001953e+00 7.469334602355957031e-01
-9.873243570327758789e-01 -5.940214157104492188e+00 7.233752608299255371e-01
-7.722950577735900879e-01 -5.981588840484619141e+00 6.669204831123352051e-01
-1.394674777984619141e+00 -5.757474422454833984e+00 6.069601774215698242e-01
-1.144060969352722168e+00 -5.604773044586181641e+00 5.316674709320068359e-01
-8.911165595054626465e-02 -6.873545050621032715e-01 5.126346647739410400e-02
-1.315794825553894043e+00 -5.423568725585937500e+00 3.677478432655334473e-01
-1.091321706771850586e+00 -5.336895465850830078e+00 3.074144124984741211e-01
-1.081060171127319336e+00 -4.452625274658203125e+00 1.359900683164596558e-01
-8.996761441230773926e-01 -4.391879081726074219e+00 9.077605605125427246e-02
-1.605574488639831543e+00 -6.464385032653808594e+00 1.962904334068298340e+00
-1.632638812065124512e+00 -6.578259468078613281e+00 1.721350073814392090e+00
-1.624111771583557129e+00 -6.548790931701660156e+00 1.448933124542236328e+00
-1.663044929504394531e+00 -6.700772762298583984e+00 1.219857454299926758e+00
-1.407154440879821777e+00 -5.665503501892089844e+00 8.131548762321472168e-01
-1.187871336936950684e+00 -5.652283191680908203e+00 7.480895519256591797e-01
-1.024935841560363770e+00 -5.940893650054931641e+00 7.242102026939392090e-01
-7.633876204490661621e-01 -5.639881134033203125e+00 6.293320059776306152e-01
-1.429735541343688965e+00 -5.747843265533447266e+00 6.068582534790039062e-01
-1.179044961929321289e+00 -5.600570678710937500e+00 5.319450497627258301e-01
-1.349289655685424805e+00 -5.416361331939697266e+00 3.678135871887207031e-01
-1.123635768890380859e+00 -5.328145027160644531e+00 3.073017299175262451e-01
-1.106668114662170410e+00 -4.439119338989257812e+00 1.357824057340621948e-01
-9.228875637054443359e-01 -4.368668079376220703e+00 9.041165560483932495e-02
-1.224114000797271729e-01 -7.044022679328918457e-01 7.612110115587711334e-03
-1.619147181510925293e+00 -6.352167606353759766e+00 1.931809902191162109e+00
-1.679191708564758301e+00 -6.592538356781005859e+00 1.727750062942504883e+00
-1.425500154495239258e+00 -5.592459678649902344e+00 8.039113283157348633e-01
-1.227358579635620117e+00 -5.667180538177490234e+00 7.510438561439514160e-01
-1.061893582344055176e+00 -5.937424659729003906e+00 7.245680093765258789e-01
-7.926831841468811035e-01 -5.597694396972656250e+00 6.251555085182189941e-01
-1.458333373069763184e+00 -5.712936878204345703e+00 6.041062474250793457e-01
-1.218664765357971191e+00 -5.617558002471923828e+00 5.342586636543273926e-01
-1.384228348731994629e+00 -5.414747714996337891e+00 3.682738542556762695e-01
-1.157791614532470703e+00 -5.327979564666748047e+00 3.076961338520050049e-01
-1.113818645477294922e+00 -4.353806972503662109e+00 1.333794444799423218e-01
-9.515897035598754883e-01 -4.371715545654296875e+00 9.059385955333709717e-02
-1.662282586097717285e+00 -6.362675666809082031e+00 1.670150160789489746e+00
-1.680430412292480469e+00 -6.432140350341796875e+00 1.174619555473327637e+00
-1.468055129051208496e+00 -5.615229606628417969e+00 8.084641098976135254e-01
-1.264267325401306152e+00 -5.669222354888916016e+00 7.523283362388610840e-01
-1.088903784751892090e+00 -5.880031585693359375e+00 7.183659672737121582e-01
-8.273058533668518066e-01 -5.594691276550292969e+00 6.253753304481506348e-01
-1.490084409713745117e+00 -5.691370964050292969e+00 6.027812957763671875e-01
-1.260924816131591797e+00 -5.644958019256591797e+00 5.375903248786926270e-01
-1.417173504829406738e+00 -5.405187129974365234e+00 3.682081103324890137e-01
-1.190025568008422852e+00 -5.318826198577880859e+00 3.075834214687347412e-01
-1.137975454330444336e+00 -4.337222099304199219e+00 1.330827772617340088e-01
-9.790520071983337402e-01 -4.368721008300781250e+00 9.065458923578262329e-02
-1.814878463745117188e+00 -6.776471138000488281e+00 1.781657576560974121e+00
-1.596632122993469238e+00 -6.991937160491943359e+00 1.744347453117370605e+00
-1.849531412124633789e+00 -6.910686016082763672e+00 1.536276340484619141e+00
-1.497866868972778320e+00 -5.588896274566650391e+00 8.059808015823364258e-01
-1.298807382583618164e+00 -5.660391807556152344e+00 7.521998882293701172e-01
-1.095264792442321777e+00 -5.718193054199218750e+00 6.994019746780395508e-01
-8.643443584442138672e-01 -5.607192039489746094e+00 6.273536682128906250e-01
-1.518015742301940918e+00 -5.656179428100585938e+00 6.000292897224426270e-01
-1.296875953674316406e+00 -5.642937183380126953e+00 5.381455421447753906e-01
-1.072586894035339355e+00 -5.589235305786132812e+00 4.749043583869934082e-01
-1.464815497398376465e+00 -5.450353145599365234e+00 3.718901872634887695e-01
-1.229133963584899902e+00 -5.339640617370605469e+00 3.092174232006072998e-01
-1.170537590980529785e+00 -4.352359294891357422e+00 1.337651014328002930e-01
-1.005614995956420898e+00 -4.361657142639160156e+00 9.063434600830078125e-02
-1.670011043548583984e+00 -6.081719398498535156e+00 1.858596801757812500e+00
-1.538181781768798828e+00 -6.560807704925537109e+00 1.909403324127197266e+00
-1.864118456840515137e+00 -6.793247699737548828e+00 1.789042115211486816e+00
-1.637060403823852539e+00 -6.971603393554687500e+00 1.741747856140136719e+00
-1.560429334640502930e+00 -6.634853839874267578e+00 1.394141077995300293e+00
-1.594894170761108398e+00 -6.770790576934814453e+00 1.159059762954711914e+00
-1.356315135955810547e+00 -6.884768009185791016e+00 1.101357340812683105e+00
-1.534491896629333496e+00 -5.588195800781250000e+00 8.072224855422973633e-01
-1.340573668479919434e+00 -5.682237148284912109e+00 7.561818361282348633e-01
-1.125704169273376465e+00 -5.687989711761474609e+00 6.965394616127014160e-01
-9.214061498641967773e-01 -5.743103504180908203e+00 6.431804299354553223e-01
-1.544516682624816895e+00 -5.617023944854736328e+00 5.968696475028991699e-01
-1.333078861236572266e+00 -5.641656875610351562e+00 5.387933850288391113e-01
-1.112869739532470703e+00 -5.612851142883300781e+00 4.774821698665618896e-01
-1.500349760055541992e+00 -5.448958873748779297e+00 3.724161684513092041e-01
-1.264633536338806152e+00 -5.343657493591308594e+00 3.098935782909393311e-01
-8.720632195472717285e-01 -4.390289783477783203e+00 2.103028148412704468e-01
-1.198814153671264648e+00 -4.350877285003662109e+00 1.339430958032608032e-01
-1.038123488426208496e+00 -4.379725933074951172e+00 9.114045649766921997e-02
-8.746907711029052734e-01 -4.391483783721923828e+00 4.767416417598724365e-02
-1.579761266708374023e+00 -6.556858062744140625e+00 1.911038994789123535e+00
-1.580887079238891602e+00 -6.551486968994140625e+00 1.639180898666381836e+00
-1.584770321846008301e+00 -6.557540893554687500e+00 1.379913091659545898e+00
-1.589071035385131836e+00 -6.565298557281494141e+00 1.125530600547790527e+00
-1.160292744636535645e+00 -5.704932212829589844e+00 9.137405753135681152e-01
-1.606555938720703125e+00 -5.713112354278564453e+00 8.266752362251281738e-01
-1.380554080009460449e+00 -5.695108890533447266e+00 7.590077519416809082e-01
-1.159391403198242188e+00 -5.675138473510742188e+00 6.958237886428833008e-01
-9.595703482627868652e-01 -5.754989147186279297e+00 6.451587677001953125e-01
-1.371194005012512207e+00 -5.647884845733642578e+00 5.401815176010131836e-01
-1.145690202713012695e+00 -5.598106861114501953e+00 4.768169224262237549e-01
-1.539442420005798340e+00 -5.459818840026855469e+00 3.737969994544982910e-01
-1.297397732734680176e+00 -5.335796833038330078e+00 3.098935782909393311e-01
-9.001887440681457520e-01 -4.390727043151855469e+00 2.105843871831893921e-01
-1.218973875045776367e+00 -4.320351123809814453e+00 1.332311034202575684e-01
-1.068052649497985840e+00 -4.385901927947998047e+00 9.140363335609436035e-02
-9.050428271293640137e-01 -4.402685165405273438e+00 4.785515367984771729e-02
-1.609564423561096191e+00 -6.505013465881347656e+00 1.898771286010742188e+00
-1.594646573066711426e+00 -6.435088157653808594e+00 1.612475633621215820e+00
-1.631348371505737305e+00 -6.573366641998291016e+00 1.385323762893676758e+00
-1.602915048599243164e+00 -6.449166774749755859e+00 1.107286691665649414e+00
-1.195275664329528809e+00 -5.697705268859863281e+00 9.137405753135681152e-01
-1.634183645248413086e+00 -5.677448749542236328e+00 8.229502439498901367e-01
-1.417388916015625000e+00 -5.694229125976562500e+00 7.600353360176086426e-01
-1.193372964859008789e+00 -5.664031982421875000e+00 6.953467726707458496e-01
-1.001474022865295410e+00 -5.787189006805419922e+00 6.494451761245727539e-01
-1.412807464599609375e+00 -5.667383193969726562e+00 5.428653359413146973e-01
-1.175902128219604492e+00 -5.571470260620117188e+00 4.751538038253784180e-01
-1.575957655906677246e+00 -5.460815906524658203e+00 3.745202422142028809e-01
-1.332531452178955078e+00 -5.337422370910644531e+00 3.104569911956787109e-01
-9.295923113822937012e-01 -4.396848678588867188e+00 2.111475765705108643e-01
-1.246846675872802734e+00 -4.317592144012451172e+00 1.333794444799423218e-01
-1.088153481483459473e+00 -4.352107524871826172e+00 9.083678573369979858e-02
-9.299665689468383789e-01 -4.387266635894775391e+00 4.774868860840797424e-02
-1.457658529281616211e+00 -5.714715003967285156e+00 9.827025532722473145e-01
-1.232092499732971191e+00 -5.698954582214355469e+00 9.151360988616943359e-01
-1.679061889648437500e+00 -5.701518058776855469e+00 8.279169797897338867e-01
-1.459664821624755859e+00 -5.714251041412353516e+00 7.638888359069824219e-01
-1.225787043571472168e+00 -5.645929813385009766e+00 6.940347552299499512e-01
-1.059602737426757812e+00 -5.907138824462890625e+00 6.636232137680053711e-01
-1.680283665657043457e+00 -5.698326587677001953e+00 6.086928844451904297e-01
-1.451256752014160156e+00 -5.673077106475830078e+00 5.442534685134887695e-01
-1.213030695915222168e+00 -5.577783107757568359e+00 4.763179719448089600e-01
-1.613673329353332520e+00 -5.465398311614990234e+00 3.755065202713012695e-01
-1.365256190299987793e+00 -5.329145908355712891e+00 3.104569911956787109e-01
-9.567659497261047363e-01 -4.392037868499755859e+00 2.111945003271102905e-01
-1.277846813201904297e+00 -4.325197696685791016e+00 1.338540911674499512e-01
-1.117073297500610352e+00 -4.354064941406250000e+00 9.101898968219757080e-02
-9.585756063461303711e-01 -4.389293193817138672e+00 4.783385992050170898e-02
-1.258450269699096680e+00 -5.652715206146240234e+00 9.089338779449462891e-01
-1.239844083786010742e+00 -6.695510387420654297e+00 1.004301071166992188e+00
-1.712014794349670410e+00 -5.684469699859619141e+00 8.269512057304382324e-01
-1.462528109550476074e+00 -5.582391738891601562e+00 7.474472522735595703e-01
-1.265605211257934570e+00 -5.661557197570800781e+00 6.968972682952880859e-01
-1.094739437103271484e+00 -5.894662857055664062e+00 6.629638075828552246e-01
-1.724981546401977539e+00 -5.720292091369628906e+00 6.121583580970764160e-01
-1.487554907798767090e+00 -5.669844150543212891e+00 5.448087453842163086e-01
-1.254853487014770508e+00 -5.604271411895751953e+00 4.792284667491912842e-01
-1.648620009422302246e+00 -5.460170269012451172e+00 3.758352696895599365e-01
-1.399959206581115723e+00 -5.328393459320068359e+00 3.109077513217926025e-01
-9.847900271415710449e-01 -4.390957832336425781e+00 2.114291638135910034e-01
-1.306674361228942871e+00 -4.324930191040039062e+00 1.340914219617843628e-01
-1.145294666290283203e+00 -4.352930068969726562e+00 9.114045649766921997e-02
-9.896572232246398926e-01 -4.401865005493164062e+00 4.803613945841789246e-02
-1.736389875411987305e+00 -5.639844894409179688e+00 1.739024758338928223e+00
-1.670902132987976074e+00 -6.247885227203369141e+00 1.573008537292480469e+00
-1.743436574935913086e+00 -5.669769763946533203e+00 1.273826599121093750e+00
-1.300611138343811035e+00 -5.677628040313720703e+00 9.142057299613952637e-01
-1.088851809501647949e+00 -5.685047626495361328e+00 8.537216186523437500e-01
-1.743655920028686523e+00 -5.663445472717285156e+00 8.254336118698120117e-01
-1.497525215148925781e+00 -5.576186180114746094e+00 7.478326559066772461e-01
-1.307441473007202148e+00 -5.684648513793945312e+00 7.007139325141906738e-01
-1.095828771591186523e+00 -5.705304145812988281e+00 6.424110531806945801e-01
-1.754480242729187012e+00 -5.691537857055664062e+00 6.102217435836791992e-01
-1.521282196044921875e+00 -5.656764030456542969e+00 5.444386005401611328e-01
-1.296599388122558594e+00 -5.628512382507324219e+00 4.819726049900054932e-01
-1.031391024589538574e+00 -5.354679584503173828e+00 4.033217728137969971e-01
-1.689154624938964844e+00 -5.472834587097167969e+00 3.774133026599884033e-01
-1.437560200691223145e+00 -5.338020324707031250e+00 3.119782805442810059e-01
-1.013510465621948242e+00 -4.392619132995605469e+00 2.118046134710311890e-01
-1.176667928695678711e+00 -4.363195896148681641e+00 9.150484949350357056e-02
-1.008761763572692871e+00 -4.361611843109130859e+00 4.766352102160453796e-02
-1.734115481376647949e+00 -5.511964321136474609e+00 1.702842116355895996e+00
-1.572761058807373047e+00 -6.719181537628173828e+00 1.882666826248168945e+00
-1.720434546470642090e+00 -5.471814632415771484e+00 1.456735253334045410e+00
-1.544966697692871094e+00 -6.584898948669433594e+00 1.576454401016235352e+00
-1.709316015243530273e+00 -5.439770221710205078e+00 1.224485993385314941e+00
-1.567379117012023926e+00 -6.659514427185058594e+00 1.332327008247375488e+00
-1.744727373123168945e+00 -5.549077987670898438e+00 1.027770400047302246e+00
-1.126786947250366211e+00 -5.693787097930908203e+00 8.560561537742614746e-01
-1.532764196395874023e+00 -5.570717334747314453e+00 7.483463883399963379e-01
-1.369257450103759766e+00 -5.790532588958740234e+00 7.147878408432006836e-01
-1.125204682350158691e+00 -5.670199871063232422e+00 6.392237544059753418e-01
-1.894275188446044922e+00 -6.013705730438232422e+00 6.459972262382507324e-01
-1.567600011825561523e+00 -5.689560413360595703e+00 5.485104918479919434e-01
-1.330421805381774902e+00 -5.617541313171386719e+00 4.817231297492980957e-01
-1.070650100708007812e+00 -5.380527496337890625e+00 4.057558774948120117e-01
-1.723003625869750977e+00 -5.463318824768066406e+00 3.774790465831756592e-01
-1.487015604972839355e+00 -5.389733791351318359e+00 3.155279755592346191e-01
-1.045054793357849121e+00 -4.405756473541259766e+00 2.127432525157928467e-01
-8.744353055953979492e-01 -4.382465362548828125e+00 1.677705496549606323e-01
-1.206346511840820312e+00 -4.366494655609130859e+00 9.172753989696502686e-02
-1.044294238090515137e+00 -4.392307758331298828e+00 4.806808009743690491e-02
-8.840300440788269043e-01 -4.422506332397460938e+00 5.510003305971622467e-03
-1.761447191238403320e+00 -5.481129646301269531e+00 1.696623325347900391e+00
-1.565899610519409180e+00 -6.509614467620849609e+00 1.826605319976806641e+00
-1.758718729019165039e+00 -5.475920200347900391e+00 1.460673809051513672e+00
-1.580319881439208984e+00 -6.554466724395751953e+00 1.571460723876953125e+00
-1.765072345733642578e+00 -5.498999118804931641e+00 1.240232944488525391e+00
-1.573832273483276367e+00 -6.507616996765136719e+00 1.303845286369323730e+00
-1.763988018035888672e+00 -5.492326736450195312e+00 1.019244790077209473e+00
-1.391334176063537598e+00 -5.748616695404052734e+00 9.283158183097839355e-01
-1.160514116287231445e+00 -5.680950164794921875e+00 8.551806807518005371e-01
-1.605107903480529785e+00 -5.696753501892089844e+00 7.665862441062927246e-01
-1.397964000701904297e+00 -5.754042625427246094e+00 7.113289833068847656e-01
-1.158778548240661621e+00 -5.657346725463867188e+00 6.385642886161804199e-01
-1.759292602539062500e+00 -5.467871665954589844e+00 5.885118246078491211e-01
-1.605725407600402832e+00 -5.691334247589111328e+00 5.496210455894470215e-01
-1.365572214126586914e+00 -5.612177371978759766e+00 4.819726049900054932e-01
-1.104246020317077637e+00 -5.376787185668945312e+00 4.059771299362182617e-01
-1.762000799179077148e+00 -5.469739913940429688e+00 3.786625862121582031e-01
-1.519786953926086426e+00 -5.379547595977783203e+00 3.154716491699218750e-01
-1.068284392356872559e+00 -4.383733272552490234e+00 2.119923532009124756e-01
-9.059447646141052246e-01 -4.399528980255126953e+00 1.686334162950515747e-01
-1.235021233558654785e+00 -4.365744590759277344e+00 9.186925739049911499e-02
-1.073597908020019531e+00 -4.395531177520751953e+00 4.817454144358634949e-02
-9.087250828742980957e-01 -4.405246257781982422e+00 5.495342426002025604e-03
-1.792952060699462891e+00 -5.463838577270507812e+00 1.694644570350646973e+00
-1.589846730232238770e+00 -6.435259342193603516e+00 1.808444499969482422e+00
-1.789264798164367676e+00 -5.455815792083740234e+00 1.458212137222290039e+00
-1.605292677879333496e+00 -6.483199119567871094e+00 1.556706190109252930e+00
-1.793299078941345215e+00 -5.471342086791992188e+00 1.236453652381896973e+00
-1.610657095909118652e+00 -6.485453605651855469e+00 1.301360368728637695e+00
-1.787528395652770996e+00 -5.450521469116210938e+00 1.013503074645996094e+00
-1.423483133316040039e+00 -5.727507591247558594e+00 9.263000488281250000e-01
-1.192086815834045410e+00 -5.658233642578125000e+00 8.528461456298828125e-01
-1.812401890754699707e+00 -5.523109912872314453e+00 8.097058534622192383e-01
-1.631513357162475586e+00 -5.657258510589599609e+00 7.626042962074279785e-01
-1.422910332679748535e+00 -5.703933238983154297e+00 7.062003612518310547e-01
-1.190182805061340332e+00 -5.634570121765136719e+00 6.368057131767272949e-01
-1.796535611152648926e+00 -5.468315124511718750e+00 5.897349119186401367e-01
-1.634539246559143066e+00 -5.660328865051269531e+00 5.475850701332092285e-01
-1.402155995368957520e+00 -5.612393856048583984e+00 4.827210009098052979e-01
-1.138043045997619629e+00 -5.373813152313232422e+00 4.062722027301788330e-01
-1.778069615364074707e+00 -5.405744075775146484e+00 3.749804794788360596e-01
-1.547497391700744629e+00 -5.351897716522216797e+00 3.144010901451110840e-01
-1.095889687538146973e+00 -4.380002975463867188e+00 2.121331393718719482e-01
-9.341679811477661133e-01 -4.399752616882324219e+00 1.688585132360458374e-01
-1.563036441802978516e+00 -4.749200344085693359e+00 1.483905613422393799e-01
-1.265956521034240723e+00 -4.372490406036376953e+00 9.217292815446853638e-02
-1.102007389068603516e+00 -4.394680500030517578e+00 4.823841899633407593e-02
-9.353219866752624512e-01 -4.397631168365478516e+00 5.492899101227521896e-03
-1.829490303993225098e+00 -5.461829662322998047e+00 1.697471261024475098e+00
-1.601558923721313477e+00 -6.315970897674560547e+00 1.777650117874145508e+00
-1.650097846984863281e+00 -4.929121017456054688e+00 1.320120215415954590e+00
-1.663045048713684082e+00 -4.970677852630615234e+00 1.125594854354858398e+00
-1.697693467140197754e+00 -6.660923957824707031e+00 1.338634967803955078e+00
-1.681515455245971680e+00 -5.022970676422119141e+00 9.359025955200195312e-01
-1.443461894989013672e+00 -5.659315109252929688e+00 9.166865944862365723e-01
-1.229301333427429199e+00 -5.662414073944091797e+00 8.545970916748046875e-01
-1.637062668800354004e+00 -4.887349128723144531e+00 7.179603576660156250e-01
-1.685278773307800293e+00 -5.711821079254150391e+00 7.713388204574584961e-01
-1.451726675033569336e+00 -5.671048641204833984e+00 7.032186388969421387e-01
-1.227481484413146973e+00 -5.639786720275878906e+00 6.382345557212829590e-01
-1.640280723571777344e+00 -4.891286373138427734e+00 5.285802483558654785e-01
-1.665008068084716797e+00 -5.635869503021240234e+00 5.461969375610351562e-01
-1.443990826606750488e+00 -5.632644653320312500e+00 4.852156937122344971e-01
-1.175459384918212891e+00 -5.387190341949462891e+00 4.078211486339569092e-01
-1.775953054428100586e+00 -5.289732456207275391e+00 3.676820993423461914e-01
-1.579740285873413086e+00 -5.340386390686035156e+00 3.142884075641632080e-01
-1.124731540679931641e+00 -4.380936622619628906e+00 2.125086188316345215e-01
-9.641363024711608887e-01 -4.407604694366455078e+00 1.693837344646453857e-01
-1.584508299827575684e+00 -4.716779708862304688e+00 1.476785689592361450e-01
-1.289354443550109863e+00 -4.353136539459228516e+00 9.192999452352523804e-02
-1.124965429306030273e+00 -4.372341632843017578e+00 4.806808009743690491e-02
-9.691367745399475098e-01 -4.423068046569824219e+00 5.531994625926017761e-03
-1.863899827003479004e+00 -5.453224658966064453e+00 1.698319315910339355e+00
-1.805010795593261719e+00 -5.283945560455322266e+00 1.418089151382446289e+00
-1.764905571937561035e+00 -5.169491767883300781e+00 1.173045873641967773e+00
-1.726310849189758301e+00 -5.053561210632324219e+00 9.435582756996154785e-01
-1.467408418655395508e+00 -5.609255313873291016e+00 9.100192785263061523e-01
-1.267043471336364746e+00 -5.668281555175781250e+00 8.566398024559020996e-01
-1.730446338653564453e+00 -5.062778472900390625e+00 7.452770471572875977e-01
-1.717142939567565918e+00 -5.690929412841796875e+00 7.699259519577026367e-01
-1.477924108505249023e+00 -5.629383563995361328e+00 6.991634368896484375e-01
-1.272060871124267578e+00 -5.676764011383056641e+00 6.432902812957763672e-01
-1.696671962738037109e+00 -4.958308696746826172e+00 5.369380712509155273e-01
-1.719427108764648438e+00 -5.691315174102783203e+00 5.525824427604675293e-01
-1.485873103141784668e+00 -5.651628017425537109e+00 4.876272082328796387e-01
-1.213300943374633789e+00 -5.401283264160156250e+00 4.094438850879669189e-01
-1.724619626998901367e+00 -5.034245014190673828e+00 3.506524562835693359e-01
-1.626643538475036621e+00 -5.377419948577880859e+00 3.170492947101593018e-01
-1.151336908340454102e+00 -4.372987270355224609e+00 2.124616801738739014e-01
-9.931384325027465820e-01 -4.410379409790039062e+00 1.697213649749755859e-01
-1.593973517417907715e+00 -4.650235176086425781e+00 1.458985954523086548e-01
-1.311693310737609863e+00 -4.330790042877197266e+00 9.162631630897521973e-02
-1.151262164115905762e+00 -4.363422393798828125e+00 4.804678633809089661e-02
-9.859169721603393555e-01 -4.371190071105957031e+00 5.474573466926813126e-03
-1.895114541053771973e+00 -5.435345172882080078e+00 1.696340560913085938e+00
-1.742299914360046387e+00 -5.676872730255126953e+00 1.682586669921875000e+00
-1.881411910057067871e+00 -5.399075984954833984e+00 1.452058315277099609e+00
-1.685388803482055664e+00 -5.484614849090576172e+00 1.395525217056274414e+00
-1.869908809661865234e+00 -5.369081020355224609e+00 1.220916628837585449e+00
-1.861628293991088867e+00 -5.342302799224853516e+00 9.995837211608886719e-01
-1.500263214111328125e+00 -5.594420433044433594e+00 9.090889096260070801e-01
-1.303351640701293945e+00 -5.667149066925048828e+00 8.576611876487731934e-01
-1.869736433029174805e+00 -5.362558841705322266e+00 7.910807728767395020e-01
-1.507019281387329102e+00 -5.600075244903564453e+00 6.966587305068969727e-01
-1.314237117767333984e+00 -5.700813770294189453e+00 6.469172835350036621e-01
-1.858527660369873047e+00 -5.324431896209716797e+00 5.778097510337829590e-01
-1.760192155838012695e+00 -5.699685096740722656e+00 5.544333457946777344e-01
-1.523375153541564941e+00 -5.652988910675048828e+00 4.885419607162475586e-01
-1.245297193527221680e+00 -5.388878822326660156e+00 4.090751111507415771e-01
-1.871345520019531250e+00 -5.355144500732421875e+00 3.737969994544982910e-01
-1.662852525711059570e+00 -5.377830028533935547e+00 3.176690638065338135e-01
-1.178928136825561523e+00 -4.368733406066894531e+00 2.126024663448333740e-01
-1.019279241561889648e+00 -4.400308609008789062e+00 1.695712953805923462e-01
-1.181146264076232910e+00 -4.367859840393066406e+00 4.817454144358634949e-02
-1.016109585762023926e+00 -4.379670143127441406e+00 5.492899101227521896e-03
-1.923609137535095215e+00 -5.410057544708251953e+00 1.692100405693054199e+00
-1.726424217224121094e+00 -5.504501819610595703e+00 1.634606242179870605e+00
-1.628492832183837891e+00 -6.963098526000976562e+00 1.880030870437622070e+00
-1.922293782234191895e+00 -5.409348964691162109e+00 1.457966089248657227e+00
-1.721630215644836426e+00 -5.482513904571533203e+00 1.397652268409729004e+00
-1.561073780059814453e+00 -6.648657798767089844e+00 1.526566386222839355e+00
-1.909689545631408691e+00 -5.376854419708251953e+00 1.225325822830200195e+00
-1.586655020713806152e+00 -6.731206893920898438e+00 1.279248595237731934e+00
-1.904595136642456055e+00 -5.359544754028320312e+00 1.004977464675903320e+00
-1.732358217239379883e+00 -5.503232955932617188e+00 9.613358974456787109e-01
-1.543722510337829590e+00 -5.618450641632080078e+00 9.145158529281616211e-01
-1.353807687759399414e+00 -5.725475311279296875e+00 8.677290081977844238e-01
-1.908246159553527832e+00 -5.366849899291992188e+00 7.934261560440063477e-01
-1.549532890319824219e+00 -5.620394706726074219e+00 7.003561258316040039e-01
-1.368904948234558105e+00 -5.775817394256591797e+00 6.563693284988403320e-01
-1.874483108520507812e+00 -5.266068458557128906e+00 5.727135539054870605e-01
-1.799026846885681152e+00 -5.701121807098388672e+00 5.556364059448242188e-01
-1.564662456512451172e+00 -5.667550086975097656e+00 4.906208217144012451e-01
-1.274881720542907715e+00 -5.366581916809082031e+00 4.079686701297760010e-01
-1.834499955177307129e+00 -5.148053646087646484e+00 3.601206839084625244e-01
-1.702135324478149414e+00 -5.387518405914306641e+00 3.188523054122924805e-01
-1.211301326751708984e+00 -4.381635665893554688e+00 2.135880440473556519e-01
-1.042787790298461914e+00 -4.379389762878417969e+00 1.690085679292678833e-01
-1.496502041816711426e+00 -4.197232246398925781e+00 1.322521269321441650e-01
-1.212195873260498047e+00 -4.375948905944824219e+00 4.834488406777381897e-02
-1.049458861351013184e+00 -4.400588989257812500e+00 5.527107510715723038e-03
-1.943692803382873535e+00 -5.362080574035644531e+00 1.680793285369873047e+00
-1.754001975059509277e+00 -5.474564075469970703e+00 1.628881335258483887e+00
-1.561115503311157227e+00 -6.495022773742675781e+00 1.756204128265380859e+00
-1.960400819778442383e+00 -5.411120891571044922e+00 1.461658358573913574e+00
-1.756721735000610352e+00 -5.476472854614257812e+00 1.398833870887756348e+00
-1.588792562484741211e+00 -6.584878921508789062e+00 1.514132380485534668e+00
-1.944642543792724609e+00 -5.370551586151123047e+00 1.226585626602172852e+00
-1.762704133987426758e+00 -5.488534927368164062e+00 1.179118394851684570e+00
-1.573068737983703613e+00 -6.494846820831298828e+00 1.236140131950378418e+00
-1.941805362701416016e+00 -5.359793663024902344e+00 1.007239341735839844e+00
-1.766998529434204102e+00 -5.495316982269287109e+00 9.618289470672607422e-01
-1.384709119796752930e+00 -5.699756622314453125e+00 8.651025891304016113e-01
-1.949578881263732910e+00 -5.378318786621093750e+00 7.968752384185791016e-01
-1.605300307273864746e+00 -5.686266899108886719e+00 7.097784876823425293e-01
-1.397734761238098145e+00 -5.740268707275390625e+00 6.532919406890869141e-01
-1.817173480987548828e+00 -5.007594585418701172e+00 5.458054542541503906e-01
-1.816563367843627930e+00 -5.635957241058349609e+00 5.503614544868469238e-01
-1.601577162742614746e+00 -5.665514945983886719e+00 4.912860989570617676e-01
-1.314879894256591797e+00 -5.387723922729492188e+00 4.101814925670623779e-01
-1.536589384078979492e+00 -4.229782581329345703e+00 2.965390384197235107e-01
-1.740986227989196777e+00 -5.395026206970214844e+00 3.199228346347808838e-01
-1.236259222030639648e+00 -4.367393016815185547e+00 2.132595181465148926e-01
-1.075575470924377441e+00 -4.397176265716552734e+00 1.699464619159698486e-01
-1.528032422065734863e+00 -4.203941345214843750e+00 1.327564567327499390e-01
-1.240387558937072754e+00 -4.373238086700439453e+00 4.839811474084854126e-02
-1.071681857109069824e+00 -4.374641418457031250e+00 5.502672865986824036e-03
-2.180329561233520508e+00 -5.901615142822265625e+00 1.854074001312255859e+00
-1.779482603073120117e+00 -5.439009189605712891e+00 1.621520757675170898e+00
-1.623190164566040039e+00 -6.575460433959960938e+00 1.780613422393798828e+00
-1.972750782966613770e+00 -5.342618465423583984e+00 1.446396827697753906e+00
-1.781822681427001953e+00 -5.439735889434814453e+00 1.392216682434082031e+00
-1.632218003273010254e+00 -6.587320804595947266e+00 1.516968250274658203e+00
-1.982975125312805176e+00 -5.373193740844726562e+00 1.229944944381713867e+00
-1.792073845863342285e+00 -5.464582443237304688e+00 1.176312804222106934e+00
-1.611704111099243164e+00 -6.480300903320312500e+00 1.235230684280395508e+00
-1.977725863456726074e+00 -5.356091976165771484e+00 1.008805274963378906e+00
-1.800683975219726562e+00 -5.484371185302734375e+00 9.618289470672607422e-01
-1.412951707839965820e+00 -5.664276123046875000e+00 8.610171675682067871e-01
-1.987691521644592285e+00 -5.380190849304199219e+00 7.989447116851806641e-01
-1.811383008956909180e+00 -5.510467052459716797e+00 7.513007521629333496e-01
-1.644018888473510742e+00 -5.689663410186767578e+00 7.114482522010803223e-01
-1.428831696510314941e+00 -5.715191841125488281e+00 6.514234542846679688e-01
-1.974852085113525391e+00 -5.339703559875488281e+00 5.833136439323425293e-01
-1.789790987968444824e+00 -5.438381195068359375e+00 5.321301817893981934e-01
-1.635479092597961426e+00 -5.652709007263183594e+00 4.910365939140319824e-01
-1.355912327766418457e+00 -5.411477565765380859e+00 4.126155972480773926e-01
-1.986921787261962891e+00 -5.366579532623291016e+00 3.770845532417297363e-01
-1.772806882858276367e+00 -5.380448818206787109e+00 3.196974694728851318e-01
-1.263867735862731934e+00 -4.362603664398193359e+00 2.134003341197967529e-01
-1.105699777603149414e+00 -4.403093338012695312e+00 1.704341620206832886e-01
-2.548923969268798828e+00 -6.880831718444824219e+00 2.177799195051193237e-01
-1.584521174430847168e+00 -4.803361892700195312e+00 1.024166047573089600e-01
-1.266919136047363281e+00 -4.364584922790527344e+00 4.838746786117553711e-02
-1.100455045700073242e+00 -4.375741481781005859e+00 5.512446630746126175e-03
-2.296928167343139648e+00 -6.101782321929931641e+00 1.921350955963134766e+00
-1.799716711044311523e+00 -5.388747215270996094e+00 1.609798192977905273e+00
-1.645697712898254395e+00 -4.921861648559570312e+00 1.262235403060913086e+00
-2.020724773406982422e+00 -5.373737335205078125e+00 1.232884407043457031e+00
-1.640525102615356445e+00 -4.900702953338623047e+00 1.057078361511230469e+00
-2.014714241027832031e+00 -5.354916095733642578e+00 1.010893225669860840e+00
-1.665979504585266113e+00 -4.970977306365966797e+00 8.735681176185607910e-01
-1.436886072158813477e+00 -5.613330364227294922e+00 8.545970916748046875e-01
-2.030436277389526367e+00 -5.393847465515136719e+00 8.028076291084289551e-01
-1.653672575950622559e+00 -4.928544998168945312e+00 6.733319163322448730e-01
-1.664544701576232910e+00 -5.630910396575927734e+00 7.053654789924621582e-01
-1.455969214439392090e+00 -5.675508975982666016e+00 6.479064822196960449e-01
-2.018102645874023438e+00 -5.355412483215332031e+00 5.863714218139648438e-01
-1.622424006462097168e+00 -4.829822063446044922e+00 4.735495746135711670e-01
-1.659102082252502441e+00 -5.605300903320312500e+00 4.877935051918029785e-01
-1.391077518463134766e+00 -5.410782814025878906e+00 4.132056534290313721e-01
-2.028265714645385742e+00 -5.376693725585937500e+00 3.786625862121582031e-01
-1.695670604705810547e+00 -5.042039871215820312e+00 3.002023398876190186e-01
-1.298276066780090332e+00 -4.380625247955322266e+00 2.146674990653991699e-01
-1.130451917648315430e+00 -4.387516975402832031e+00 1.700965315103530884e-01
-1.806107878684997559e+00 -4.785250186920166016e+00 1.518021672964096069e-01
-1.597374916076660156e+00 -4.744277954101562500e+00 1.013639047741889954e-01
-1.289975643157958984e+00 -4.344267368316650391e+00 4.824906587600708008e-02
-1.125034928321838379e+00 -4.360192298889160156e+00 5.501451436430215836e-03
-1.816297888755798340e+00 -5.329336643218994141e+00 1.595349550247192383e+00
-1.812010049819946289e+00 -4.727922439575195312e+00 1.285904884338378906e+00
-1.785060048103332520e+00 -5.231698036193847656e+00 1.344478011131286621e+00
-1.919709920883178711e+00 -5.011551856994628906e+00 1.152469754219055176e+00
-1.770323157310485840e+00 -5.182586669921875000e+00 1.120202541351318359e+00
-1.945333003997802734e+00 -5.075790405273437500e+00 9.604355096817016602e-01
-1.743369340896606445e+00 -5.097861766815185547e+00 8.977289795875549316e-01
-1.471804141998291016e+00 -5.606321334838867188e+00 8.548888564109802246e-01
-1.942216396331787109e+00 -5.065013408660888672e+00 7.556242346763610840e-01
-1.748128294944763184e+00 -5.105955600738525391e+00 6.990218758583068848e-01
-1.719174623489379883e+00 -5.687117576599121094e+00 7.137144207954406738e-01
-1.487225532531738281e+00 -5.653010845184326172e+00 6.463677287101745605e-01
-1.826331853866577148e+00 -4.757834911346435547e+00 5.221589803695678711e-01
-1.739844322204589844e+00 -5.075977325439453125e+00 4.987216591835021973e-01
-1.712806701660156250e+00 -5.658919811248779297e+00 4.933649599552154541e-01
-1.423742890357971191e+00 -5.400217056274414062e+00 4.130581617355346680e-01
-1.979972124099731445e+00 -5.152710914611816406e+00 3.637369871139526367e-01
-1.786850690841674805e+00 -5.207191467285156250e+00 3.106823861598968506e-01
-1.332083582878112793e+00 -4.395519256591796875e+00 2.157938480377197266e-01
-1.145609974861145020e+00 -4.336055278778076172e+00 1.683707982301712036e-01
-1.832924842834472656e+00 -4.767547130584716797e+00 1.515945047140121460e-01
-1.550118565559387207e+00 -4.512182235717773438e+00 9.660645574331283569e-02
-1.313411712646484375e+00 -4.325746059417724609e+00 4.813195765018463135e-02
-1.151511549949645996e+00 -4.352240562438964844e+00 5.500229541212320328e-03
-2.300104141235351562e+00 -5.889967918395996094e+00 1.863402366638183594e+00
-1.885930538177490234e+00 -5.424417495727539062e+00 1.627245664596557617e+00
-1.701169848442077637e+00 -5.549981594085693359e+00 1.583672046661376953e+00
-1.832175612449645996e+00 -4.694142341613769531e+00 1.279751062393188477e+00
-1.873663187026977539e+00 -5.383074760437011719e+00 1.386308312416076660e+00
-2.026465415954589844e+00 -5.194601058959960938e+00 1.197401046752929688e+00
-1.867209911346435547e+00 -5.358508586883544922e+00 1.160682082176208496e+00
-1.706245779991149902e+00 -5.542366027832031250e+00 1.129323959350585938e+00
-2.026567935943603516e+00 -5.192186832427978516e+00 9.847943782806396484e-01
-1.868188261985778809e+00 -5.355299472808837891e+00 9.450643658638000488e-01
-1.505404949188232422e+00 -5.594319343566894531e+00 8.544511795043945312e-01
-2.045314311981201172e+00 -5.237517356872558594e+00 7.832168340682983398e-01
-1.871306180953979492e+00 -5.358222484588623047e+00 7.351161241531372070e-01
-1.516190648078918457e+00 -5.622666358947753906e+00 6.439497470855712891e-01
-1.842814564704895020e+00 -4.714111328125000000e+00 5.185916423797607422e-01
-1.854099035263061523e+00 -5.303004741668701172e+00 5.221353769302368164e-01
-1.741606116294860840e+00 -5.629263401031494141e+00 4.917018413543701172e-01
-1.465696334838867188e+00 -5.424112796783447266e+00 4.155659973621368408e-01
-2.008642435073852539e+00 -5.133031368255615234e+00 3.632109761238098145e-01
-1.880448818206787109e+00 -5.372349262237548828e+00 3.212187588214874268e-01
-1.655780792236328125e+00 -5.345247745513916016e+00 2.629137039184570312e-01
-1.189693212509155273e+00 -4.393569946289062500e+00 1.708843559026718140e-01
-1.838092207908630371e+00 -4.694780349731445312e+00 1.496365368366241455e-01
-1.485198616981506348e+00 -4.238393783569335938e+00 9.093800932168960571e-02
-1.181073427200317383e+00 -4.355709552764892578e+00 5.513668060302734375e-03
-1.922715425491333008e+00 -5.422718524932861328e+00 1.630244493484497070e+00
-1.724521756172180176e+00 -5.505375862121582031e+00 1.573933720588684082e+00
-1.909583330154418945e+00 -5.379718303680419922e+00 1.388435363769531250e+00
-1.692183136940002441e+00 -5.392238140106201172e+00 1.317230463027954102e+00
-2.142033100128173828e+00 -5.392877578735351562e+00 1.246111869812011719e+00
-1.899397850036621094e+00 -5.345104217529296875e+00 1.160281300544738770e+00
-1.730500698089599609e+00 -5.500894069671630859e+00 1.123015999794006348e+00
-2.135850667953491211e+00 -5.374577522277832031e+00 1.021854639053344727e+00
-1.905971646308898926e+00 -5.357675552368164062e+00 9.475297331809997559e-01
-1.541017293930053711e+00 -5.589745521545410156e+00 8.551806807518005371e-01
-2.138523817062377930e+00 -5.378569126129150391e+00 8.062567114830017090e-01
-1.907142996788024902e+00 -5.355047702789306641e+00 7.362721562385559082e-01
-1.544839620590209961e+00 -5.592180252075195312e+00 6.415318250656127930e-01
-2.131786584854125977e+00 -5.356177806854248047e+00 5.906522274017333984e-01
-1.547870278358459473e+00 -4.341454029083251953e+00 4.283879101276397705e-01
-1.792934894561767578e+00 -5.671681880950927734e+00 4.963586032390594482e-01
-1.500280737876892090e+00 -5.419823169708251953e+00 4.159348011016845703e-01
-2.150525808334350586e+00 -5.397775650024414062e+00 3.828706741333007812e-01
-1.627763867378234863e+00 -4.560505867004394531e+00 2.732697725296020508e-01
-1.697288513183593750e+00 -5.362605094909667969e+00 2.642747163772583008e-01
-1.212889909744262695e+00 -4.372706413269042969e+00 1.703591346740722656e-01
-2.782530784606933594e+00 -6.980551719665527344e+00 2.230308204889297485e-01
-1.505457997322082520e+00 -4.213195800781250000e+00 9.059385955333709717e-02
-1.212326884269714355e+00 -4.364760398864746094e+00 5.534437950700521469e-03
-1.948429465293884277e+00 -5.390007495880126953e+00 1.623974204063415527e+00
-1.758857727050781250e+00 -5.496528148651123047e+00 1.574460029602050781e+00
-1.944871187210083008e+00 -5.374295711517333984e+00 1.390089750289916992e+00
-1.750508069992065430e+00 -5.460583686828613281e+00 1.336524724960327148e+00
-2.183145523071289062e+00 -5.399573802947998047e+00 1.250730991363525391e+00
-1.939500570297241211e+00 -5.353613853454589844e+00 1.164690017700195312e+00
-1.765121817588806152e+00 -5.492975234985351562e+00 1.123589396476745605e+00
-2.180974483489990234e+00 -5.391496181488037109e+00 1.027596354484558105e+00
-1.945199728012084961e+00 -5.363498687744140625e+00 9.506525993347167969e-01
-1.766006112098693848e+00 -5.492435932159423828e+00 9.055226445198059082e-01
-1.583887100219726562e+00 -5.610651493072509766e+00 8.598498106002807617e-01
-2.188578367233276367e+00 -5.407578468322753906e+00 8.126030564308166504e-01
-1.941657304763793945e+00 -5.347906112670898438e+00 7.369144558906555176e-01
-1.601037025451660156e+00 -5.660065650939941406e+00 6.504343152046203613e-01
-2.174323081970214844e+00 -5.366968631744384766e+00 5.933022499084472656e-01
-1.573799610137939453e+00 -4.330003261566162109e+00 4.282028377056121826e-01
-1.814535260200500488e+00 -5.619795799255371094e+00 4.927828907966613770e-01
-1.535955429077148438e+00 -5.419150829315185547e+00 4.165986478328704834e-01
-2.187730312347412109e+00 -5.394649982452392578e+00 3.835939168930053711e-01
-1.576856136322021484e+00 -4.333700180053710938e+00 2.602542638778686523e-01
-1.743372917175292969e+00 -5.392960071563720703e+00 2.662928104400634766e-01
-1.234237551689147949e+00 -4.345956325531005859e+00 1.696088314056396484e-01
-2.807647466659545898e+00 -6.919814586639404297e+00 2.216365188360214233e-01
-1.535729765892028809e+00 -4.216091156005859375e+00 9.085703641176223755e-02
-1.237171053886413574e+00 -4.350506782531738281e+00 5.525886081159114838e-03
-1.773072838783264160e+00 -5.426026344299316406e+00 1.557352066040039062e+00
-1.977138042449951172e+00 -5.360437393188476562e+00 1.389616966247558594e+00
-1.782768607139587402e+00 -5.446037292480468750e+00 1.335616707801818848e+00
