-3.578027337789535522e-02 -7.323176264762878418e-01 3.444816917181015015e-02
-9.207066893577575684e-02 -7.149490714073181152e-01 4.068057239055633545e-02
-4.460864886641502380e-02 -7.191101908683776855e-01 2.704887278378009796e-02
-9.844866394996643066e-02 -7.272160053253173828e-01 1.485941652208566666e-02
-1.110559552907943726e-01 -7.203400731086730957e-01 1.475819479674100876e-02
-5.985820665955543518e-02 -6.945212483406066895e-01 5.155850946903228760e-02
-1.024372503161430359e-01 -7.197053432464599609e-01 7.739866152405738831e-03
-1.166219264268875122e-01 -7.236210703849792480e-01 7.803743705153465271e-03
-1.131540462374687195e-01 -6.778625249862670898e-01 3.228929266333580017e-02
-3.993858814239501953e+00 -6.935200691223144531e+00 9.777506813406944275e-03
-4.310319423675537109e+00 -6.980449199676513672e+00 1.002307515591382980e-02
-4.428874969482421875e+00 -6.979379177093505859e+00 1.009882241487503052e-02
-4.475402832031250000e+00 -6.957960128784179688e+00 1.010737475007772446e-02
-4.536033630371093750e+00 -6.958013057708740234e+00 1.014769170433282852e-02
-4.243484973907470703e+00 -6.422768592834472656e+00 9.404879063367843628e-03
-4.251101970672607422e+00 -6.349246501922607422e+00 9.335240349173545837e-03
-4.584175586700439453e+00 -6.756660461425781250e+00 9.975426830351352692e-03
-4.573995590209960938e+00 -6.653416633605957031e+00 9.864250198006629944e-03
-4.599873542785644531e+00 -6.603890895843505859e+00 9.832484647631645203e-03
-4.655875682830810547e+00 -6.597602844238281250e+00 9.865472093224525452e-03
-4.691035270690917969e+00 -6.561588764190673828e+00 9.854475967586040497e-03
-4.776959896087646484e+00 -6.595854282379150391e+00 9.949770756065845490e-03
-4.700220584869384766e+00 -6.406774044036865234e+00 9.707869030535221100e-03
-4.499667644500732422e+00 -6.055150032043457031e+00 9.216732345521450043e-03
-4.724965572357177734e+00 -6.277504444122314453e+00 9.599134325981140137e-03
-4.779157638549804688e+00 -6.269071102142333984e+00 9.630898945033550262e-03
-4.874369144439697266e+00 -6.313241004943847656e+00 9.744520299136638641e-03
-4.909318447113037109e+00 -6.278487205505371094e+00 9.737189859151840210e-03
-4.947750091552734375e+00 -6.248245716094970703e+00 9.737189859151840210e-03
-4.981616497039794922e+00 -6.212308406829833984e+00 9.728637523949146271e-03
-5.078895568847656250e+00 -6.254596233367919922e+00 9.843479841947555542e-03
-5.112096786499023438e+00 -6.217136383056640625e+00 9.833707474172115326e-03
-5.069526672363281250e+00 -6.088820934295654297e+00 9.679768234491348267e-03
-5.062317848205566406e+00 -6.004845619201660156e+00 9.595469571650028229e-03
-5.103611946105957031e+00 -5.978994846343994141e+00 9.604021906852722168e-03
-5.212129592895507812e+00 -6.030792236328125000e+00 9.738411754369735718e-03
-5.195696353912353516e+00 -5.937739849090576172e+00 9.639451280236244202e-03
-5.260546207427978516e+00 -5.937933921813964844e+00 9.691986255347728729e-03
-5.208076953887939453e+00 -5.806534767150878906e+00 9.529495611786842346e-03
-5.236884593963623047e+00 -5.767066478729248047e+00 9.517278522253036499e-03
-5.202462673187255859e+00 -5.658998489379882812e+00 9.391440078616142273e-03
-5.282052993774414062e+00 -5.675282955169677734e+00 9.472073987126350403e-03
-5.455302238464355469e+00 -5.789785385131835938e+00 9.718864224851131439e-03
-5.499698162078857422e+00 -5.765609741210937500e+00 9.734746068716049194e-03
-5.534276962280273438e+00 -5.731036663055419922e+00 9.733525104820728302e-03
-5.580522537231445312e+00 -5.708412170410156250e+00 9.753072634339332581e-03
-5.612629890441894531e+00 -5.671220302581787109e+00 9.748185984790325165e-03
-5.611933708190917969e+00 -5.601353168487548828e+00 9.687098674476146698e-03
-5.637651920318603516e+00 -5.558388233184814453e+00 9.672437794506549835e-03
-5.680248260498046875e+00 -5.532063961029052734e+00 9.687098674476146698e-03
-5.761648654937744141e+00 -5.542863845825195312e+00 9.767733514308929443e-03
-5.803524494171142578e+00 -5.514984130859375000e+00 9.781172499060630798e-03
-5.802257061004638672e+00 -5.446419715881347656e+00 9.722528979182243347e-03
-5.834099769592285156e+00 -5.409355163574218750e+00 9.720085188746452332e-03
-5.873080730438232422e+00 -5.378859043121337891e+00 9.729859419167041779e-03
-5.710196495056152344e+00 -5.165614604949951172e+00 9.407322853803634644e-03
-5.864822387695312500e+00 -5.240418910980224609e+00 9.608908556401729584e-03
-5.883371353149414062e+00 -5.192424297332763672e+00 9.586917236447334290e-03
-5.784711837768554688e+00 -5.042549133300781250e+00 9.375557303428649902e-03
-5.983780860900878906e+00 -5.151805400848388672e+00 9.646781720221042633e-03
-5.919290542602539062e+00 -5.033370494842529297e+00 9.492844343185424805e-03
-5.857404232025146484e+00 -4.919139385223388672e+00 9.345014579594135284e-03
-8.671619415283203125e+00 -6.678648948669433594e+00 1.165344789624214172e-01
-5.955981254577636719e+00 -4.939923763275146484e+00 9.453748352825641632e-03
-6.184223651885986328e+00 -5.065503597259521484e+00 9.766511619091033936e-03
-6.124223232269287109e+00 -4.953880310058593750e+00 9.623569436371326447e-03
-6.220135688781738281e+00 -4.968636035919189453e+00 9.726194664835929871e-03
-6.259927272796630859e+00 -4.937808513641357422e+00 9.740855544805526733e-03
-6.278273105621337891e+00 -4.890087604522705078e+00 9.722528979182243347e-03
-6.293099403381347656e+00 -4.839890003204345703e+00 9.699316695332527161e-03
-6.294803619384765625e+00 -4.780018329620361328e+00 9.656555950641632080e-03
-6.155192852020263672e+00 -4.614733695983886719e+00 9.398770518600940704e-03
-6.150438308715820312e+00 -4.552486419677734375e+00 9.348680265247821808e-03
-6.367187976837158203e+00 -4.652721881866455078e+00 9.634564630687236786e-03
-6.406971454620361328e+00 -4.621756553649902344e+00 9.651669301092624664e-03
-6.438467502593994141e+00 -4.584677219390869141e+00 9.656555950641632080e-03
-6.471385955810546875e+00 -4.548535346984863281e+00 9.663886390626430511e-03
-6.483562469482421875e+00 -4.497911930084228516e+00 9.640673175454139709e-03
-6.460706710815429688e+00 -4.423583030700683594e+00 9.566147811710834503e-03
-6.598756313323974609e+00 -4.458881378173828125e+00 9.729859419167041779e-03
-6.719174385070800781e+00 -4.480443954467773438e+00 9.866693057119846344e-03
-6.730667114257812500e+00 -4.428687572479248047e+00 9.843479841947555542e-03
-6.791263580322265625e+00 -4.409087181091308594e+00 9.892349131405353546e-03
-6.828294277191162109e+00 -4.373806476593017578e+00 9.907010011374950409e-03
-6.857539176940917969e+00 -4.333428859710693359e+00 9.910675697028636932e-03
-6.900123596191406250e+00 -4.301321506500244141e+00 9.933888912200927734e-03
-6.897422790527343750e+00 -4.241093158721923828e+00 9.892349131405353546e-03
-6.936996459960937500e+00 -4.206988334655761719e+00 9.911896660923957825e-03
-4.628706455230712891e+00 -2.126367807388305664e+00 1.511791795492172241e-01
-7.031337261199951172e+00 -4.205408573150634766e+00 1.000963617116212845e-02
-4.612519264221191406e+00 -2.084752798080444336e+00 1.502298712730407715e-01
-7.009634494781494141e+00 -4.134244441986083984e+00 9.942440316081047058e-03
-4.602390289306640625e+00 -2.046259403228759766e+00 1.494882106781005859e-01
-7.054751873016357422e+00 -4.102718830108642578e+00 9.970540180802345276e-03
-4.608448505401611328e+00 -2.015177965164184570e+00 1.492805480957031250e-01
-1.219168949127197266e+01 -6.416735649108886719e+00 1.466848254203796387e-01
-6.933183193206787109e+00 -3.975292682647705078e+00 9.764067828655242920e-03
-6.973984718322753906e+00 -3.942026138305664062e+00 9.787281043827533722e-03
-1.352603149414062500e+01 -6.908406257629394531e+00 1.617067754268646240e-01
-7.106361865997314453e+00 -3.959514141082763672e+00 9.938775561749935150e-03
-4.625803470611572266e+00 -2.121185541152954102e+00 1.030441820621490479e-01
-1.357709789276123047e+01 -6.829775333404541016e+00 1.618132293224334717e-01
-7.116498947143554688e+00 -3.908134222030639648e+00 9.919228032231330872e-03
-4.605923175811767578e+00 -2.077960729598999023e+00 1.023153886198997498e-01
-1.363218975067138672e+01 -6.752997398376464844e+00 1.619729250669479370e-01
-7.135067462921142578e+00 -3.861538410186767578e+00 9.911896660923957825e-03
-4.589343547821044922e+00 -2.036682605743408203e+00 1.016675680875778198e-01
-1.363292598724365234e+01 -6.649498462677001953e+00 1.614938378334045410e-01
-7.178039550781250000e+00 -3.828038454055786133e+00 9.938775561749935150e-03
-4.605419158935546875e+00 -2.010084152221679688e+00 1.017485335469245911e-01
-1.364192104339599609e+01 -6.550573825836181641e+00 1.611212193965911865e-01
-7.204933643341064453e+00 -3.785783290863037109e+00 9.943662211298942566e-03
-1.364388751983642578e+01 -6.448798656463623047e+00 1.606740802526473999e-01
-7.228026866912841797e+00 -3.741503238677978516e+00 9.943662211298942566e-03
-1.364783954620361328e+01 -6.348511695861816406e+00 1.602588742971420288e-01
-7.308755874633789062e+00 -3.726608514785766602e+00 1.002307515591382980e-02
-4.620672225952148438e+00 -2.114990711212158203e+00 5.410453677177429199e-02
-7.409231662750244141e+00 -3.720735549926757812e+00 1.012936513870954514e-02
-4.615327358245849609e+00 -2.078387260437011719e+00 5.389161035418510437e-02
-7.439989566802978516e+00 -3.679192543029785156e+00 1.014036033302545547e-02
-4.614279747009277344e+00 -2.043954372406005859e+00 5.373191833496093750e-02
-7.507379055023193359e+00 -3.655360937118530273e+00 1.020144764333963394e-02
-4.626734256744384766e+00 -2.015603303909301758e+00 5.373191833496093750e-02
-7.483677387237548828e+00 -3.587183475494384766e+00 1.013913936913013458e-02
-1.369920158386230469e+01 -5.868213176727294922e+00 1.586725711822509766e-01
-7.591463565826416016e+00 -3.581733226776123047e+00 1.025520358234643936e-02
-1.406486988067626953e+01 -5.922981262207031250e+00 1.624839603900909424e-01
-4.643803596496582031e+00 -2.156259059906005859e+00 6.255258806049823761e-03
-4.583862304687500000e+00 -2.096267461776733398e+00 1.892295628786087036e-01
-1.411480617523193359e+01 -5.842305660247802734e+00 1.626436412334442139e-01
-4.580543518066406250e+00 -2.092816591262817383e+00 6.152633577585220337e-03
-4.607573986053466797e+00 -2.073022127151489258e+00 1.896797567605972290e-01
-1.386232280731201172e+01 -5.638420104980468750e+00 1.593326479196548462e-01
-4.610628604888916016e+00 -2.072461366653442383e+00 6.175846327096223831e-03
-4.615638256072998047e+00 -2.042689323425292969e+00 1.894921809434890747e-01
-1.390223121643066406e+01 -5.555482864379882812e+00 1.593965291976928711e-01
-4.610453605651855469e+00 -2.038470745086669922e+00 6.158742122352123260e-03
-1.413431835174560547e+01 -5.547895908355712891e+00 1.616641879081726074e-01
-4.632962226867675781e+00 -2.014529466629028320e+00 6.172181107103824615e-03
-1.411771011352539062e+01 -5.441644668579101562e+00 1.610892862081527710e-01
-7.796309471130371094e+00 -3.333301067352294922e+00 1.035905070602893829e-02
-1.405076503753662109e+01 -5.317049980163574219e+00 1.599501371383666992e-01
-7.845193862915039062e+00 -3.297412872314453125e+00 1.039692386984825134e-02
-1.406250286102294922e+01 -5.223076343536376953e+00 1.597159057855606079e-01
-7.860657215118408203e+00 -3.247304677963256836e+00 1.039081532508134842e-02
-1.387256622314453125e+01 -5.055885791778564453e+00 1.572033762931823730e-01
-7.864683628082275391e+00 -3.192617416381835938e+00 1.037004683166742325e-02
-1.429125690460205078e+01 -5.109361171722412109e+00 1.615896522998809814e-01
-7.907345771789550781e+00 -3.153561353683471680e+00 1.040058955550193787e-02
-1.432516956329345703e+01 -5.022568225860595703e+00 1.616216003894805908e-01
-8.007553100585937500e+00 -3.136715412139892578e+00 1.050687953829765320e-02
-1.433964157104492188e+01 -4.929049968719482422e+00 1.614406108856201172e-01
-8.034116744995117188e+00 -3.090394973754882812e+00 1.051665470004081726e-02
-1.426727294921875000e+01 -4.806492805480957031e+00 1.602908074855804443e-01
-8.031410217285156250e+00 -3.032914876937866211e+00 1.048855390399694443e-02
-1.439809989929199219e+01 -4.752396106719970703e+00 1.614299714565277100e-01
-8.126757621765136719e+00 -3.012075901031494141e+00 1.058873627334833145e-02
-1.443459987640380859e+01 -4.666422367095947266e+00 1.615151315927505493e-01
-8.090578079223632812e+00 -2.942331314086914062e+00 1.051787566393613815e-02
-1.495583248138427734e+01 -4.733767509460449219e+00 1.670192778110504150e-01
-8.100003242492675781e+00 -2.889609098434448242e+00 1.050687953829765320e-02
-1.468945121765136719e+01 -4.550481319427490234e+00 1.637295633554458618e-01
-7.657899379730224609e+00 -2.679038763046264648e+00 9.911896660923957825e-03
-1.457259464263916016e+01 -4.416469097137451172e+00 1.621219813823699951e-01
-7.676085948944091797e+00 -2.632649660110473633e+00 9.914341382682323456e-03
-1.476144313812255859e+01 -4.374990940093994141e+00 1.639211922883987427e-01
-8.039968490600585938e+00 -2.702429294586181641e+00 1.036271546036005020e-02
-1.479089164733886719e+01 -4.285168647766113281e+00 1.639531403779983521e-01
-8.045951843261718750e+00 -2.649605512619018555e+00 1.034927740693092346e-02
-1.431274604797363281e+01 -4.051616668701171875e+00 1.583744734525680542e-01
-8.131533622741699219e+00 -2.622594118118286133e+00 1.043846365064382553e-02
-1.434890270233154297e+01 -3.966916561126708984e+00 1.585022211074829102e-01
-8.284789085388183594e+00 -2.616009950637817383e+00 1.061439234763383865e-02
-1.438552379608154297e+01 -3.882185697555541992e+00 1.586406379938125610e-01
-8.117243766784667969e+00 -2.508438110351562500e+00 1.037982013076543808e-02
-1.461890983581542969e+01 -3.849093675613403320e+00 1.609508842229843140e-01
-8.277979850769042969e+00 -2.502570390701293945e+00 1.056552305817604065e-02
-8.284547805786132812e+00 -2.449178934097290039e+00 1.055452693253755569e-02
-8.181255340576171875e+00 -2.364153623580932617e+00 1.040425524115562439e-02
-8.182134628295898438e+00 -2.310105800628662109e+00 1.038715057075023651e-02
-1.438886928558349609e+01 -3.413236379623413086e+00 1.574482470750808716e-01
-8.198082923889160156e+00 -2.260389328002929688e+00 1.038959436118602753e-02
-7.145731925964355469e+00 -1.923133492469787598e+00 9.040803648531436920e-03
-7.330529212951660156e+00 -1.924709558486938477e+00 9.259493090212345123e-03
-1.443948745727539062e+01 -3.145677566528320312e+00 1.573417782783508301e-01
-8.575427055358886719e+00 -2.195415019989013672e+00 1.081475615501403809e-02
-8.382070541381835938e+00 -2.091196060180664062e+00 1.055452693253755569e-02
-8.416122436523437500e+00 -2.044919729232788086e+00 1.058140490204095840e-02
-8.296162605285644531e+00 -1.961941957473754883e+00 1.041525043547153473e-02
-8.482488632202148438e+00 -1.951126098632812500e+00 1.063393987715244293e-02
-8.471855163574218750e+00 -1.894023656845092773e+00 1.060584094375371933e-02
-8.422729492187500000e+00 -1.828849911689758301e+00 1.053009275346994400e-02
-8.507180213928222656e+00 -1.792598724365234375e+00 1.062172278761863708e-02
-8.413186073303222656e+00 -1.718946695327758789e+00 1.049099769443273544e-02
-8.456927299499511719e+00 -1.673893570899963379e+00 1.053253654390573502e-02
-8.415966987609863281e+00 -1.612187862396240234e+00 1.046900637447834015e-02
-8.678402900695800781e+00 -1.607320904731750488e+00 1.078299060463905334e-02
-8.464648246765136719e+00 -1.514071822166442871e+00 1.050565764307975769e-02
-8.258955001831054688e+00 -1.425038337707519531e+00 1.023932080715894699e-02
-8.102804183959960938e+00 -1.346950531005859375e+00 1.003529224544763565e-02
-8.707336425781250000e+00 -1.392594814300537109e+00 1.077321730554103851e-02
-8.418208122253417969e+00 -1.293430089950561523e+00 1.040547620505094528e-02
-8.404221534729003906e+00 -1.238545179367065430e+00 1.037859916687011719e-02
-8.655248641967773438e+00 -1.221326470375061035e+00 1.067914348095655441e-02
-8.574378967285156250e+00 -1.156301498413085938e+00 1.057040970772504807e-02
-8.762816429138183594e+00 -1.127012133598327637e+00 1.079398579895496368e-02
-8.631596565246582031e+00 -1.056338429450988770e+00 1.062416564673185349e-02
-8.713407516479492188e+00 -1.012125015258789062e+00 1.071701757609844208e-02
-8.641921043395996094e+00 -9.501173496246337891e-01 1.062172278761863708e-02
-8.652562141418457031e+00 -8.975895643234252930e-01 1.062783133238554001e-02
-8.668853759765625000e+00 -8.455494046211242676e-01 1.064126938581466675e-02
-8.776453018188476562e+00 -8.017122745513916016e-01 1.076710876077413559e-02
-8.787184715270996094e+00 -7.483549714088439941e-01 1.077443826943635941e-02
-8.516468048095703125e+00 -6.726909875869750977e-01 1.043724082410335541e-02
-8.460594177246093750e+00 -6.160649061203002930e-01 1.036393828690052032e-02
-8.518095970153808594e+00 -5.677312016487121582e-01 1.042991131544113159e-02
-8.589294433593750000e+00 -5.195602178573608398e-01 1.051298901438713074e-02
-8.820983886718750000e+00 -4.792714715003967285e-01 1.079276483505964279e-02
-8.695906639099121094e+00 -4.189778864383697510e-01 1.063638366758823395e-02
-8.436544418334960938e+00 -3.546100854873657227e-01 1.031628996133804321e-02
-8.873281478881835938e+00 -3.184387087821960449e-01 1.084774266928434372e-02
-8.829088211059570312e+00 -2.626196146011352539e-01 1.079154293984174728e-02
-8.877520561218261719e+00 -2.095494866371154785e-01 1.084896363317966461e-02
-8.666224479675292969e+00 7.901179790496826172e-01 2.582743167877197266e-01
-8.699666976928710938e+00 -1.519481837749481201e-01 1.063027419149875641e-02
-8.655244827270507812e+00 8.426969647407531738e-01 2.580963373184204102e-01
-8.462450981140136719e+00 -9.586909413337707520e-02 1.033950317651033401e-02
-9.058871269226074219e+00 -4.703729227185249329e-02 1.106765400618314743e-02
-8.704990386962890625e+00 8.213758468627929688e-03 1.063516177237033844e-02
-8.738775253295898438e+00 6.186711788177490234e-02 1.067670062184333801e-02
-8.761228561401367188e+00 1.157900094985961914e-01 1.070479955524206161e-02
-8.660749435424804688e+00 7.956205606460571289e-01 1.761063635349273682e-01
-8.881330490112304688e+00 1.718870848417282104e-01 1.085262931883335114e-02
-8.639784812927246094e+00 8.471858501434326172e-01 1.757824569940567017e-01
-8.936090469360351562e+00 2.278057932853698730e-01 1.092104613780975342e-02
-8.619682312011718750e+00 2.726727128028869629e-01 1.053620129823684692e-02
-8.979588508605957031e+00 3.392224609851837158e-01 1.097846776247024536e-02
-8.990325927734375000e+00 3.948842585086822510e-01 1.099435053765773773e-02
-8.767857551574707031e+00 7.573070526123046875e-01 9.369815886020660400e-02
-9.298343658447265625e+00 4.655935466289520264e-01 1.137430872768163681e-02
-8.618670463562011719e+00 7.977282404899597168e-01 9.215443581342697144e-02
-8.674293518066406250e+00 4.877209663391113281e-01 1.061439234763383865e-02
-8.625554084777832031e+00 8.517755866050720215e-01 9.228219091892242432e-02
-8.903685569763183594e+00 5.554434061050415039e-01 1.089905574917793274e-02
-9.217365264892578125e+00 6.318114399909973145e-01 1.128756534308195114e-02
-9.171431541442871094e+00 6.852269768714904785e-01 1.123625319451093674e-02
-8.826168060302734375e+00 7.139158844947814941e-01 1.081842090934514999e-02
-8.721998214721679688e+00 7.593850493431091309e-01 1.069624815136194229e-02
-8.616610527038574219e+00 8.035102486610412598e-01 1.057285349816083908e-02
-8.592611312866210938e+00 8.544855117797851562e-01 1.054964028298854828e-02
-8.906430244445800781e+00 9.409169554710388184e-01 1.094181556254625320e-02
-9.338755607604980469e+00 1.044569611549377441e+00 1.148059871047735214e-02
-9.619176864624023438e+00 1.135738372802734375e+00 1.183367986232042313e-02
-1.003477382659912109e+01 1.247284889221191406e+00 1.235413644462823868e-02
-9.629304885864257812e+00 1.256930708885192871e+00 1.186422258615493774e-02
-9.557011604309082031e+00 1.307182908058166504e+00 1.178481057286262512e-02
-9.531981468200683594e+00 1.363391995429992676e+00 1.176404021680355072e-02
-9.484864234924316406e+00 1.416094422340393066e+00 1.171639282256364822e-02
-9.938433647155761719e+00 1.546211361885070801e+00 1.228816248476505280e-02
-9.934680938720703125e+00 1.608121991157531738e+00 1.229549292474985123e-02
-9.955197334289550781e+00 1.674190878868103027e+00 1.233336608856916428e-02
-9.956559181213378906e+00 1.737305998802185059e+00 1.234802696853876114e-02
-9.953584671020507812e+00 1.799789190292358398e+00 1.235780119895935059e-02
-1.238100147247314453e+01 3.257551670074462891e+00 2.592300176620483398e-01
-1.000132942199707031e+01 1.871867299079895020e+00 1.243110466748476028e-02
-9.892458915710449219e+00 1.914389491081237793e+00 1.231015380471944809e-02
-1.018843460083007812e+01 2.036601305007934570e+00 1.269377674907445908e-02
-1.017672634124755859e+01 2.099280118942260742e+00 1.269499957561492920e-02
-1.032015323638916016e+01 2.194969415664672852e+00 1.289047580212354660e-02
-1.244204711914062500e+01 3.201230287551879883e+00 1.367837637662887573e-01
-1.016387367248535156e+01 2.227002620697021484e+00 1.271210331469774246e-02
-1.239219760894775391e+01 3.269604921340942383e+00 1.364537179470062256e-01
-1.003686046600341797e+01 2.263802528381347656e+00 1.257038209587335587e-02
-1.031112194061279297e+01 2.392241716384887695e+00 1.293201372027397156e-02
-9.287538528442382812e+00 2.214905738830566406e+00 1.166507974267005920e-02
-1.052089595794677734e+01 2.577366352081298828e+00 1.323378179222345352e-02
-1.001610279083251953e+01 2.518949508666992188e+00 1.261802949011325836e-02
-9.488235473632812500e+00 2.448193788528442383e+00 1.197173446416854858e-02
-1.050937461853027344e+01 2.780560255050659180e+00 1.328142918646335602e-02
-9.357102394104003906e+00 2.537227392196655273e+00 1.184467505663633347e-02
-1.116241741180419922e+01 3.100399255752563477e+00 1.415374502539634705e-02
-1.123552227020263672e+01 3.195090770721435547e+00 1.427103113383054733e-02
-1.100927066802978516e+01 3.203893899917602539e+00 1.400835905224084854e-02
-1.106032848358154297e+01 3.292498350143432617e+00 1.409876719117164612e-02
-1.137283706665039062e+01 3.461634397506713867e+00 1.452392898499965668e-02
-1.194148731231689453e+01 3.714929580688476562e+00 1.527895778417587280e-02
-1.133807849884033203e+01 3.603662014007568359e+00 1.453492417931556702e-02
-1.173140335083007812e+01 3.808085918426513672e+00 1.506882067769765854e-02
-1.169073104858398438e+01 3.874334573745727539e+00 1.504683028906583786e-02
-1.168852519989013672e+01 3.953363418579101562e+00 1.507492922246456146e-02
-1.171131324768066406e+01 4.041318893432617188e+00 1.513601653277873993e-02
-1.182024097442626953e+01 4.160244941711425781e+00 1.530950050801038742e-02
-1.209286022186279297e+01 4.339770317077636719e+00 1.569679006934165955e-02
-1.220499610900878906e+01 4.464733600616455078e+00 1.587760634720325470e-02
-1.330365657806396484e+01 4.959400177001953125e+00 1.734612695872783661e-02
-1.215115737915039062e+01 4.614881515502929688e+00 1.588004827499389648e-02
-1.270178985595703125e+01 4.913393974304199219e+00 1.663874462246894836e-02
-1.324826335906982422e+01 5.218462467193603516e+00 1.739621721208095551e-02
-1.271943092346191406e+01 5.100531101226806641e+00 1.674259081482887268e-02
-1.270363521575927734e+01 5.184904098510742188e+00 1.676336117088794708e-02
-1.336329650878906250e+01 5.550036907196044922e+00 1.767843589186668396e-02
-1.323319149017333984e+01 5.591450214385986328e+00 1.755137741565704346e-02
-1.495710372924804688e+01 6.428301811218261719e+00 1.988976821303367615e-02
-1.336974716186523438e+01 5.843530654907226562e+00 1.782626472413539886e-02
-1.174141216278076172e+01 5.304380893707275391e+00 1.574077270925045013e-02
-5.606561183929443359e+00 3.837320566177368164e+00 2.016414701938629150e-01
-5.584624290466308594e+00 3.827944993972778320e+00 1.370953321456909180e-01
-5.569243431091308594e+00 3.867842674255371094e+00 1.372977793216705322e-01
-9.111825942993164062e+00 6.751707077026367188e+00 2.296326458454132080e-01
-5.584468841552734375e+00 3.833481788635253906e+00 7.211808860301971436e-02
-9.065429687500000000e+00 6.803888797760009766e+00 2.295111864805221558e-01
-5.610552310943603516e+00 3.806578397750854492e+00 8.283331058919429779e-03
-9.093277931213378906e+00 6.747648239135742188e+00 1.205587908625602722e-01
-5.591210365295410156e+00 3.843765020370483398e+00 8.289439603686332703e-03
-9.073286056518554688e+00 6.819537639617919922e+00 1.208462417125701904e-01
-5.552749633789062500e+00 3.867711544036865234e+00 8.267448283731937408e-03
-9.144125938415527344e+00 6.708432197570800781e+00 1.385564263910055161e-02
-9.111620903015136719e+00 6.770974159240722656e+00 1.386908162385225296e-02
-9.033150672912597656e+00 6.799091815948486328e+00 1.381288189440965652e-02
-1.940921425819396973e+00 1.866567492485046387e+00 7.992086559534072876e-02
-1.895054340362548828e+00 1.844972610473632812e+00 7.849688827991485596e-02
-1.915021896362304688e+00 1.887438297271728516e+00 7.980220019817352295e-02
-1.897744059562683105e+00 1.893505096435546875e+00 7.956486940383911133e-02
-1.980505108833312988e+00 1.905924320220947266e+00 1.551157981157302856e-01
-1.809746623039245605e+00 1.742813229560852051e+00 5.087426677346229553e-02
-1.968773365020751953e+00 1.918040633201599121e+00 1.551157981157302856e-01
-1.939332365989685059e+00 1.890678167343139648e+00 5.484218150377273560e-02
-1.927111864089965820e+00 1.900639295578002930e+00 1.527493596076965332e-01
-1.862940192222595215e+00 1.838632345199584961e+00 5.299993604421615601e-02
-1.967558383941650391e+00 1.872269153594970703e+00 1.276084184646606445e-01
-1.961069107055664062e+00 1.889157652854919434e+00 1.279369443655014038e-01
-1.771388053894042969e+00 1.708221316337585449e+00 2.620056457817554474e-02
-1.948725461959838867e+00 1.900457620620727539e+00 1.278900057077407837e-01
-1.968371510505676270e+00 1.921628952026367188e+00 2.928799390792846680e-02
-1.932051897048950195e+00 1.907466530799865723e+00 1.275614798069000244e-01
-1.894170522689819336e+00 1.893158316612243652e+00 1.258250027894973755e-01
-1.883489847183227539e+00 1.907724618911743164e+00 2.854275330901145935e-02
-1.960217475891113281e+00 1.868505120277404785e+00 1.016677469015121460e-01
-1.955187439918518066e+00 1.886742830276489258e+00 1.020053923130035400e-01
-1.941429376602172852e+00 1.896609187126159668e+00 1.018928438425064087e-01
-1.936412453651428223e+00 1.893029570579528809e+00 3.308445448055863380e-03
-1.925492286682128906e+00 1.904269814491271973e+00 1.016677469015121460e-01
-1.897529363632202148e+00 1.899786829948425293e+00 1.008048802614212036e-01
-1.316727250814437866e-01 7.332288026809692383e-01 7.931499741971492767e-03
-8.623743057250976562e-02 7.006729841232299805e-01 7.516293320804834366e-03
-1.845491491258144379e-02 7.286066412925720215e-01 4.113132506608963013e-02
-5.106986965984106064e-03 7.029517292976379395e-01 6.533633172512054443e-02
-3.483959659934043884e-02 7.102038264274597168e-01 5.259115621447563171e-02
