-3.603286296129226685e-02 -7.399713993072509766e-01 1.500112842768430710e-02
-1.280026324093341827e-02 -7.193855643272399902e-01 6.003868579864501953e-02
-5.876340717077255249e-02 -6.915165781974792480e-01 6.450343132019042969e-02
-9.164682775735855103e-02 -7.373256087303161621e-01 9.077455615624785423e-04
-1.126583814620971680e-01 -7.257911562919616699e-01 2.757409401237964630e-02
-1.219194382429122925e-01 -7.288548350334167480e-01 5.465644598007202148e-02
-1.286092400550842285e+00 -3.061362504959106445e+00 9.855127334594726562e-02
-1.302102804183959961e+00 -3.046979188919067383e+00 9.834360331296920776e-02
-1.312407255172729492e+00 -3.019681215286254883e+00 9.772061556577682495e-02
-1.330911040306091309e+00 -3.011571645736694336e+00 9.772061556577682495e-02
-1.354280352592468262e+00 -3.014289855957031250e+00 9.807661175727844238e-02
-1.308280348777770996e+00 -3.108193874359130859e+00 6.828448921442031860e-02
-1.300568103790283203e+00 -3.037609577178955078e+00 6.690786033868789673e-02
-1.321177840232849121e+00 -3.034155607223510742e+00 6.700908392667770386e-02
-1.346246480941772461e+00 -3.040619134902954102e+00 6.733299791812896729e-02
-1.374316453933715820e+00 -3.053270339965820312e+00 6.779862195253372192e-02
-1.281944394111633301e+00 -3.092644929885864258e+00 3.564383834600448608e-02
-1.302962541580200195e+00 -3.094144105911254883e+00 1.577388346195220947e-01
-1.301673531532287598e+00 -3.086563587188720703e+00 3.566513210535049438e-02
-1.309730768203735352e+00 -3.057626724243164062e+00 1.562839299440383911e-01
-1.307184815406799316e+00 -3.047274112701416016e+00 3.530315682291984558e-02
-1.325674772262573242e+00 -3.043122529983520508e+00 1.559554189443588257e-01
-1.329456448554992676e+00 -3.047444581985473633e+00 3.539897128939628601e-02
-1.347724795341491699e+00 -3.038315773010253906e+00 3.538832813501358032e-02
-1.283757686614990234e+00 -3.091012716293334961e+00 4.089131020009517670e-03
-1.294490098953247070e+00 -3.066633462905883789e+00 1.249650418758392334e-01
-1.305813431739807129e+00 -3.090446710586547852e+00 4.098905250430107117e-03
-1.323138833045959473e+00 -3.081588745117187500e+00 1.259029358625411987e-01
-1.306587934494018555e+00 -3.040114164352416992e+00 4.042705520987510681e-03
-1.353618860244750977e+00 -3.099970340728759766e+00 1.269908994436264038e-01
-1.323214650154113770e+00 -3.027458190917968750e+00 4.036596510559320450e-03
-1.344608545303344727e+00 -3.025678873062133789e+00 4.045148845762014389e-03
-6.740883827209472656e+00 -6.980542182922363281e+00 1.185567025095224380e-02
-6.268925666809082031e+00 -6.334367275238037109e+00 1.088806055486202240e-02
-7.104429721832275391e+00 -6.919092178344726562e+00 1.211589947342872620e-02
-7.194314002990722656e+00 -6.921127319335937500e+00 1.219653338193893433e-02
-7.199675559997558594e+00 -6.841721534729003906e+00 1.213422417640686035e-02
-7.221105098724365234e+00 -6.778253078460693359e+00 1.210001576691865921e-02
-7.073369979858398438e+00 -6.558401584625244141e+00 1.178481057286262512e-02
-7.343563556671142578e+00 -6.725600242614746094e+00 1.216598972678184509e-02
-7.424737930297851562e+00 -6.716640472412109375e+00 1.223196275532245636e-02
-7.529194355010986328e+00 -6.727591991424560547e+00 1.233580987900495529e-02
-7.435375690460205078e+00 -6.562160015106201172e+00 1.211589947342872620e-02
-7.457408905029296875e+00 -6.500643253326416016e+00 1.208657771348953247e-02
-7.490335464477539062e+00 -6.448891162872314453e+00 1.207558158785104752e-02
-7.358355998992919922e+00 -6.257055759429931641e+00 1.180069241672754288e-02
-7.091065883636474609e+00 -5.955187320709228516e+00 1.131322141736745834e-02
-7.429967403411865234e+00 -6.162456035614013672e+00 1.179336197674274445e-02
-7.467639923095703125e+00 -6.116750717163085938e+00 1.179336197674274445e-02
-7.796586513519287109e+00 -6.306654453277587891e+00 1.225151121616363525e-02
-7.464788436889648438e+00 -5.962862968444824219e+00 1.167241111397743225e-02
-7.446274757385253906e+00 -5.873594760894775391e+00 1.158688962459564209e-02
-7.491641521453857422e+00 -5.835168838500976562e+00 1.160155050456523895e-02
-7.641450405120849609e+00 -5.876878261566162109e+00 1.177747920155525208e-02
-7.577815532684326172e+00 -5.754285812377929688e+00 1.162476278841495514e-02
-7.672988414764404297e+00 -5.752670288085937500e+00 1.171639282256364822e-02
-7.956506252288818359e+00 -5.889317989349365234e+00 1.209390722215175629e-02
-7.878648757934570312e+00 -5.757197380065917969e+00 1.192164327949285507e-02
-8.086570739746093750e+00 -5.833358764648437500e+00 1.218187250196933746e-02
-8.078224182128906250e+00 -5.752308368682861328e+00 1.211589947342872620e-02
-7.903109073638916016e+00 -5.554848670959472656e+00 1.180191431194543839e-02
-7.637966632843017578e+00 -5.298769474029541016e+00 1.135720405727624893e-02
-8.029264450073242188e+00 -5.497559070587158203e+00 1.188865769654512405e-02
-8.139902114868164062e+00 -5.500257492065429688e+00 1.200227718800306320e-02
-8.193466186523437500e+00 -5.463523387908935547e+00 1.203159894794225693e-02
-8.226835250854492188e+00 -5.413146018981933594e+00 1.203159894794225693e-02
-8.235570907592773438e+00 -5.346773624420166016e+00 1.199616864323616028e-02
-8.214330673217773438e+00 -5.261620521545410156e+00 1.191797759383916855e-02
-8.445120811462402344e+00 -5.336656570434570312e+00 1.220508571714162827e-02
-8.205300331115722656e+00 -5.114927768707275391e+00 1.181290950626134872e-02
-8.291049003601074219e+00 -5.098007202148437500e+00 1.189110055565834045e-02
-8.507718086242675781e+00 -5.159563541412353516e+00 1.215621642768383026e-02
-8.251715660095214844e+00 -4.935310840606689453e+00 1.174693647772073746e-02
-8.578145980834960938e+00 -5.059344291687011719e+00 1.216721162199974060e-02
-8.589145660400390625e+00 -4.995051860809326172e+00 1.213911175727844238e-02
-8.537219047546386719e+00 -4.895001888275146484e+00 1.202304754406213760e-02
-8.600173950195312500e+00 -4.861225128173828125e+00 1.206947304308414459e-02
-8.645564079284667969e+00 -4.817124843597412109e+00 1.209146436303853989e-02
-8.334867477416992188e+00 -4.577219963073730469e+00 1.161743327975273132e-02
-8.484161376953125000e+00 -4.591675758361816406e+00 1.178603153675794601e-02
-8.419528007507324219e+00 -4.490122318267822266e+00 1.165775023400783539e-02
-8.457542419433593750e+00 -4.443958282470703125e+00 1.167241111397743225e-02
-8.622302055358886719e+00 -4.463233470916748047e+00 1.186177879571914673e-02
-8.217450141906738281e+00 -4.189936161041259766e+00 1.126923877745866776e-02
-8.686253547668457031e+00 -4.362024784088134766e+00 1.187521778047084808e-02
-8.715544700622558594e+00 -4.309974670410156250e+00 1.187888346612453461e-02
-8.793073654174804688e+00 -4.281368732452392578e+00 1.194852218031883240e-02
-8.562177658081054688e+00 -4.104146003723144531e+00 1.160032860934734344e-02
-8.860325813293457031e+00 -4.180396080017089844e+00 1.196929160505533218e-02
-8.842273712158203125e+00 -4.105736255645751953e+00 1.191064808517694473e-02
-8.867299079895019531e+00 -4.051403999328613281e+00 1.191064808517694473e-02
-8.651199340820312500e+00 -3.888683557510375977e+00 1.158811151981353760e-02
-8.650201797485351562e+00 -3.824609279632568359e+00 1.155512407422065735e-02
-8.672590255737304688e+00 -3.771062135696411133e+00 1.155390311032533646e-02
-8.676256179809570312e+00 -3.709521532058715820e+00 1.152824703603982925e-02
-8.860182762145996094e+00 -3.724022865295410156e+00 1.174204889684915543e-02
-8.766412734985351562e+00 -3.621479749679565430e+00 1.158811151981353760e-02
-8.944131851196289062e+00 -3.630812406539916992e+00 1.179336197674274445e-02
-8.796259880065917969e+00 -3.508073091506958008e+00 1.156978495419025421e-02
-8.805516242980957031e+00 -3.449292659759521484e+00 1.155390311032533646e-02
-8.841447830200195312e+00 -3.400942325592041016e+00 1.157345063984394073e-02
-8.780758857727050781e+00 -3.315892934799194336e+00 1.146715972572565079e-02
-8.378990173339843750e+00 -3.105562448501586914e+00 1.091738138347864151e-02
-8.827367782592773438e+00 -3.210282087326049805e+00 1.147571206092834473e-02
-9.170899391174316406e+00 -3.271642208099365234e+00 1.189598720520734787e-02
-9.158707618713378906e+00 -3.204081773757934570e+00 1.185444835573434830e-02
-9.326704025268554688e+00 -3.198758363723754883e+00 1.204625982791185379e-02
-9.218191146850585938e+00 -3.098458528518676758e+00 1.188132632523775101e-02
-9.059412002563476562e+00 -2.983347415924072266e+00 1.165286265313625336e-02
-9.192706108093261719e+00 -2.964844942092895508e+00 1.180069241672754288e-02
-5.807299613952636719e+00 -1.161895275115966797e+00 1.757725030183792114e-01
-9.079130172729492188e+00 -2.866831302642822266e+00 1.163209415972232819e-02
-5.792730808258056641e+00 -1.122058749198913574e+00 1.751198470592498779e-01
-9.105148315429687500e+00 -2.813725948333740234e+00 1.164308935403823853e-02
-5.787716865539550781e+00 -1.084285378456115723e+00 1.747638583183288574e-01
-9.146171569824218750e+00 -2.765039205551147461e+00 1.167363207787275314e-02
-9.205160140991210938e+00 -2.721341609954833984e+00 1.172738894820213318e-02
-9.203432083129882812e+00 -2.659533977508544922e+00 1.170417573302984238e-02
-9.249410629272460938e+00 -2.611435651779174805e+00 1.174204889684915543e-02
-5.787892818450927734e+00 -1.153876185417175293e+00 1.195029169321060181e-01
-9.243086814880371094e+00 -2.548519849777221680e+00 1.171394903212785721e-02
-5.763450145721435547e+00 -1.112278103828430176e+00 1.188550889492034912e-01
-9.627425193786621094e+00 -2.591032505035400391e+00 1.218065060675144196e-02
-5.727904796600341797e+00 -1.069005966186523438e+00 1.179845780134201050e-01
-9.637338638305664062e+00 -2.530387401580810547e+00 1.217332016676664352e-02
-9.525775909423828125e+00 -2.438716173171997070e+00 1.201327331364154816e-02
-9.587133407592773438e+00 -2.391840457916259766e+00 1.207191683351993561e-02
-5.765724182128906250e+00 -1.182156801223754883e+00 6.266416609287261963e-02
-9.899949073791503906e+00 -2.405454635620117188e+00 1.244698744267225266e-02
-5.769927024841308594e+00 -1.146172285079956055e+00 6.263223290443420410e-02
-9.712105751037597656e+00 -2.296795368194580078e+00 1.219286769628524780e-02
-5.771941661834716797e+00 -1.109803080558776855e+00 6.257899850606918335e-02
-9.903384208679199219e+00 -2.277957677841186523e+00 1.241522282361984253e-02
-5.769794940948486328e+00 -1.072721242904663086e+00 6.248318403959274292e-02
-9.804945945739746094e+00 -2.192058086395263672e+00 1.227472443133592606e-02
-9.898344039916992188e+00 -2.149254083633422852e+00 1.237490586936473846e-02
-9.509176254272460938e+00 -2.003735303878784180e+00 1.187277399003505707e-02
-5.804088592529296875e+00 -1.185866951942443848e+00 7.237529847770929337e-03
-5.804807186126708984e+00 -1.151060938835144043e+00 2.221684306859970093e-01
-5.778883934020996094e+00 -1.143823981285095215e+00 7.197212893515825272e-03
-5.757784366607666016e+00 -1.105062127113342285e+00 2.201050519943237305e-01
-5.766150474548339844e+00 -1.104581117630004883e+00 7.172778248786926270e-03
-5.770853519439697266e+00 -1.068815708160400391e+00 7.170334924012422562e-03
-9.965822219848632812e+00 -1.782586812973022461e+00 1.236879732459783554e-02
-9.621815681457519531e+00 -1.660192728042602539e+00 1.192897465080022812e-02
-1.022271251678466797e+01 -1.699348449707031250e+00 1.266079116612672806e-02
-1.022998428344726562e+01 -1.636117219924926758e+00 1.265712548047304153e-02
-1.093665313720703125e+01 -1.680380940437316895e+00 1.351844519376754761e-02
-1.093191719055175781e+01 -1.611056208610534668e+00 1.350011862814426422e-02
-1.099506664276123047e+01 -1.551494002342224121e+00 1.356609165668487549e-02
-1.101230812072753906e+01 -1.485069632530212402e+00 1.357586588710546494e-02
-1.083177375793457031e+01 -1.393106937408447266e+00 1.334251556545495987e-02
-1.082423686981201172e+01 -1.324674725532531738e+00 1.332296803593635559e-02
-1.117684364318847656e+01 -1.298270821571350098e+00 1.374690886586904526e-02
-9.812865257263183594e+00 -1.078854322433471680e+00 1.206092070788145065e-02
-1.132820224761962891e+01 -1.175152063369750977e+00 1.391428615897893906e-02
-1.134515190124511719e+01 -1.106592178344726562e+00 1.392650231719017029e-02
-1.174907302856445312e+01 -1.073255538940429688e+00 1.441397331655025482e-02
-1.150036144256591797e+01 -9.794209599494934082e-01 1.410121098160743713e-02
-1.182316684722900391e+01 -9.338775277137756348e-01 1.448972057551145554e-02
-1.275422382354736328e+01 -9.287089705467224121e-01 1.562348660081624985e-02
-1.002680206298828125e+01 4.196996688842773438e-01 2.978491187095642090e-01
-1.152941226959228516e+01 -7.684354782104492188e-01 1.411709282547235489e-02
-1.201602840423583984e+01 -7.268408536911010742e-01 1.470718812197446823e-02
-1.225291919708251953e+01 -6.657392382621765137e-01 1.499185245484113693e-02
-1.248650646209716797e+01 -6.016129255294799805e-01 1.527284923940896988e-02
-1.226116466522216797e+01 -5.153688788414001465e-01 1.499307341873645782e-02
-9.935381889343261719e+00 3.616551160812377930e-01 2.013106793165206909e-01
-1.254491519927978516e+01 -4.502039551734924316e-01 1.533637940883636475e-02
-9.959946632385253906e+00 4.237581491470336914e-01 2.018572837114334106e-01
-1.208564662933349609e+01 -3.594852983951568604e-01 1.477194018661975861e-02
-1.301436614990234375e+01 -3.071976900100708008e-01 1.590448431670665741e-02
-1.342194366455078125e+01 -2.344273477792739868e-01 1.640050671994686127e-02
-1.283516693115234375e+01 -1.454065591096878052e-01 1.568212918937206268e-02
-1.225682640075683594e+01 -6.364236027002334595e-02 1.497474778443574905e-02
-9.951594352722167969e+00 3.690934479236602783e-01 1.060265824198722839e-01
-9.967988967895507812e+00 9.405484423041343689e-03 1.217820681631565094e-02
-9.927163124084472656e+00 4.291980862617492676e-01 1.057923585176467896e-01
-1.210368824005126953e+01 8.568939566612243652e-02 1.478782296180725098e-02
-9.915354728698730469e+00 4.896580576896667480e-01 1.056965440511703491e-01
-1.224792194366455078e+01 1.618707925081253052e-01 1.496497355401515961e-02
-1.302255249023437500e+01 2.520352602005004883e-01 1.591303572058677673e-02
-1.306774520874023438e+01 3.331331610679626465e-01 1.597045734524726868e-02
-1.317839813232421875e+01 4.168818891048431396e-01 1.610851287841796875e-02
-9.915920257568359375e+00 3.745943307876586914e-01 1.212322898209095001e-02
-9.943405151367187500e+00 4.367466270923614502e-01 1.215988025069236755e-02
-1.449296188354492188e+01 1.781197071075439453e+00 2.956700026988983154e-01
-9.942537307739257812e+00 4.978500604629516602e-01 1.216232497245073318e-02
-1.399888038635253906e+01 7.871012687683105469e-01 1.712987944483757019e-02
-1.365943717956542969e+01 8.521240353584289551e-01 1.672060042619705200e-02
-1.363399791717529297e+01 9.345529675483703613e-01 1.669616438448429108e-02
-1.462223625183105469e+01 1.092473983764648438e+00 1.791423000395298004e-02
-1.451552772521972656e+01 1.703737974166870117e+00 1.556064337491989136e-01
-1.445378398895263672e+01 1.169112801551818848e+00 1.771630905568599701e-02
-1.450480079650878906e+01 1.792771458625793457e+00 1.556064337491989136e-01
-1.461071681976318359e+01 1.272089242935180664e+00 1.791789568960666656e-02
-1.367068004608154297e+01 1.274808883666992188e+00 1.677435636520385742e-02
-1.445369815826416016e+01 1.437336683273315430e+00 1.774563081562519073e-02
-1.481255912780761719e+01 1.564867973327636719e+00 1.819767057895660400e-02
-1.455720901489257812e+01 1.628270268440246582e+00 1.789590530097484589e-02
-1.391533279418945312e+01 1.642986416816711426e+00 1.711888425052165985e-02
-1.441903305053710938e+01 1.792232036590576172e+00 1.775174029171466827e-02
-1.453567886352539062e+01 1.897368669509887695e+00 1.790934242308139801e-02
-1.498249244689941406e+01 2.049265861511230469e+00 1.847500540316104889e-02
-1.491518974304199219e+01 2.133370637893676758e+00 1.840780861675739288e-02
-1.197496986389160156e+01 5.757694721221923828e+00 1.414681375026702881e-01
-1.203123188018798828e+01 5.704246997833251953e+00 1.626733876764774323e-02
-1.199600505828857422e+01 5.777961730957031250e+00 1.626733876764774323e-02
-7.533356666564941406e+00 4.573939323425292969e+00 1.784547120332717896e-01
-3.437499284744262695e+00 2.415214776992797852e+00 1.246872246265411377e-01
-3.431572675704956055e+00 2.442637681961059570e+00 1.250135600566864014e-01
-7.479211807250976562e+00 4.548102378845214844e+00 9.319777786731719971e-02
-3.367875099182128906e+00 2.428569316864013672e+00 1.232335865497589111e-01
-7.482657432556152344e+00 4.613325119018554688e+00 9.359169006347656250e-02
-3.385196447372436523e+00 2.472772359848022461e+00 1.244202330708503723e-01
-3.423564672470092773e+00 2.408940076828002930e+00 8.476345986127853394e-02
-7.535161495208740234e+00 4.526071548461914062e+00 1.073900796473026276e-02
-3.384295463562011719e+00 2.412490844726562500e+00 8.415612578392028809e-02
-7.506394386291503906e+00 4.571701526641845703e+00 1.073778700083494186e-02
-7.460333824157714844e+00 4.606640815734863281e+00 1.071213092654943466e-02
-3.414241552352905273e+00 2.405889749526977539e+00 4.446962475776672363e-02
-3.385580062866210938e+00 2.416917324066162109e+00 4.428864270448684692e-02
-3.426671028137207031e+00 2.386813163757324219e+00 5.101945251226425171e-03
-3.437351703643798828e+00 2.423914670944213867e+00 1.579038947820663452e-01
-3.408693313598632812e+00 2.405487537384033203e+00 5.097058601677417755e-03
-3.445181369781494141e+00 2.461225032806396484e+00 1.589543372392654419e-01
-3.388174772262573242e+00 2.422286272048950195e+00 5.088506266474723816e-03
-3.425157785415649414e+00 2.478802919387817383e+00 1.587292551994323730e-01
-3.387016534805297852e+00 2.453001976013183594e+00 5.109275691211223602e-03
-3.367063760757446289e+00 2.470188856124877930e+00 5.101945251226425171e-03
-5.522285774350166321e-02 7.407625317573547363e-01 4.192014411091804504e-02
-4.569440335035324097e-02 7.344090938568115234e-01 4.152573645114898682e-02
-4.135494679212570190e-02 7.376661300659179688e-01 4.169476777315139771e-02
-5.678099021315574646e-02 7.079431414604187012e-01 3.336873278021812439e-02
-2.685635164380073547e-02 7.074392437934875488e-01 6.579905003309249878e-02
-4.410956799983978271e-02 7.148503661155700684e-01 3.365032374858856201e-02
-1.335177198052406311e-02 6.957646608352661133e-01 3.927196562290191650e-02
-3.317504748702049255e-02 7.149103879928588867e-01 1.881556361913681030e-01
-6.566492374986410141e-03 8.058344721794128418e-01 1.569354981184005737e-01
-5.466951057314872742e-03 6.855848431587219238e-01 1.076083406805992126e-01
