-8.369361162185668945e-01 -5.429388999938964844e+00 6.074603796005249023e-01
-1.482689142227172852e+00 -5.524551391601562500e+00 5.860656499862670898e-01
-1.262530565261840820e+00 -5.493494033813476562e+00 5.238937139511108398e-01
-1.052303314208984375e+00 -5.483537673950195312e+00 4.659234583377838135e-01
-1.477505803108215332e+00 -5.497571945190429688e+00 3.751120269298553467e-01
-1.264296889305114746e+00 -5.492396354675292969e+00 3.180634975433349609e-01
-1.493739843368530273e+00 -5.554108619689941406e+00 1.706995666027069092e-01
-1.283692002296447754e+00 -5.567762374877929688e+00 1.156969591975212097e-01
-1.079448580741882324e+00 -6.781135082244873047e+00 1.270153880119323730e+00
-1.094141364097595215e+00 -5.553952217102050781e+00 8.884665966033935547e-01
-8.772436976432800293e-01 -5.486203670501708984e+00 8.194326162338256836e-01
-1.525050401687622070e+00 -5.553812503814697266e+00 8.022557497024536133e-01
-1.297762751579284668e+00 -5.500776767730712891e+00 7.320333719253540039e-01
-1.079827904701232910e+00 -5.456184387207031250e+00 6.681531071662902832e-01
-8.708642125129699707e-01 -5.428076744079589844e+00 6.078999638557434082e-01
-1.516031622886657715e+00 -5.513431072235107422e+00 5.858618021011352539e-01
-1.296443104743957520e+00 -5.486612796783447266e+00 5.239862799644470215e-01
-1.088449478149414062e+00 -5.489685058593750000e+00 4.670045077800750732e-01
-1.514124155044555664e+00 -5.498984813690185547e+00 3.758352696895599365e-01
-1.300043225288391113e+00 -5.493279457092285156e+00 3.185705840587615967e-01
-1.093922615051269531e+00 -5.507212162017822266e+00 2.638054192066192627e-01
-1.536553144454956055e+00 -5.576639175415039062e+00 1.716785579919815063e-01
-1.322673439979553223e+00 -5.580210208892822266e+00 1.161220893263816833e-01
-1.174719810485839844e+00 -5.781033039093017578e+00 1.148821353912353516e+00
-1.136769175529479980e+00 -6.869456291198730469e+00 1.287979364395141602e+00
-1.126820802688598633e+00 -5.540357112884521484e+00 8.873811364173889160e-01
-9.120252728462219238e-01 -5.487549304962158203e+00 8.204540014266967773e-01
-1.562048554420471191e+00 -5.554838657379150391e+00 8.037734031677246094e-01
-1.332191348075866699e+00 -5.495601177215576172e+00 7.324186563491821289e-01
-1.120440483093261719e+00 -5.484476089477539062e+00 6.724468469619750977e-01
-9.072598218917846680e-01 -5.441258907318115234e+00 6.099882721900939941e-01
-1.553607702255249023e+00 -5.517430782318115234e+00 5.872887372970581055e-01
-1.334312438964843750e+00 -5.495971679687500000e+00 5.256520509719848633e-01
-1.122712492942810059e+00 -5.485832214355468750e+00 4.672539830207824707e-01
-1.550815582275390625e+00 -5.500154972076416016e+00 3.765585422515869141e-01
-1.334668517112731934e+00 -5.489079952239990234e+00 3.187959492206573486e-01
-1.131505489349365234e+00 -5.518988609313964844e+00 2.646971344947814941e-01
-1.572370409965515137e+00 -5.572877883911132812e+00 1.718565523624420166e-01
-1.365640640258789062e+00 -5.607931613922119141e+00 1.168711334466934204e-01
-1.170074105262756348e+00 -6.810988426208496094e+00 1.278339147567749023e+00
-1.168096542358398438e+00 -5.568146228790283203e+00 8.929631710052490234e-01
-9.470245242118835449e-01 -5.489648818969726562e+00 8.216212987899780273e-01
-1.599116563796997070e+00 -5.555619239807128906e+00 8.052909970283508301e-01
-1.373312592506408691e+00 -5.517156600952148438e+00 7.364006042480468750e-01
-1.158370018005371094e+00 -5.497900009155273438e+00 6.749514937400817871e-01
-9.435109496116638184e-01 -5.452239036560058594e+00 6.118566989898681641e-01
-1.589636802673339844e+00 -5.515441417694091797e+00 5.881041288375854492e-01
-1.372345209121704102e+00 -5.505071640014648438e+00 5.273178815841674805e-01
-1.159232854843139648e+00 -5.492490768432617188e+00 4.684181809425354004e-01
-1.593388438224792480e+00 -5.521214962005615234e+00 3.786625862121582031e-01
-1.373644113540649414e+00 -5.502098083496093750e+00 3.200355172157287598e-01
-1.162868499755859375e+00 -5.500214099884033203e+00 2.641339302062988281e-01
-1.605980753898620605e+00 -5.561204433441162109e+00 1.717972308397293091e-01
-1.408997654914855957e+00 -5.635334491729736328e+00 1.176201850175857544e-01
-1.211843609809875488e+00 -6.803680896759033203e+00 1.278339147567749023e+00
-1.204118847846984863e+00 -5.569564342498779297e+00 8.943586349487304688e-01
-9.845221042633056641e-01 -5.505159854888916016e+00 8.248313665390014648e-01
-1.636252760887145996e+00 -5.556153297424316406e+00 8.068085312843322754e-01
-1.408857464790344238e+00 -5.515352249145507812e+00 7.372997403144836426e-01
-1.196717023849487305e+00 -5.512034416198730469e+00 6.775754690170288086e-01
-9.774739146232604980e-01 -5.449282169342041016e+00 6.121863722801208496e-01
-1.630482912063598633e+00 -5.529437541961669922e+00 5.906522274017333984e-01
-1.404617309570312500e+00 -5.490759372711181641e+00 5.267626047134399414e-01
-1.193335890769958496e+00 -5.487222194671630859e+00 4.685844779014587402e-01
-1.629778861999511719e+00 -5.519946575164794922e+00 3.792543411254882812e-01
-1.410351872444152832e+00 -5.505172252655029297e+00 3.207116723060607910e-01
-1.201272845268249512e+00 -5.514447689056396484e+00 2.651664316654205322e-01
-1.642339110374450684e+00 -5.558914661407470703e+00 1.720345616340637207e-01
-1.439076542854309082e+00 -5.609151363372802734e+00 1.172557771205902100e-01
-1.263734340667724609e+00 -6.851236343383789062e+00 1.288707017898559570e+00
-1.241919994354248047e+00 -5.578464508056640625e+00 8.969945907592773438e-01
-1.020263910293579102e+00 -5.509715080261230469e+00 8.264363408088684082e-01
-1.673455834388732910e+00 -5.556441307067871094e+00 8.083261847496032715e-01
-1.446693897247314453e+00 -5.521953105926513672e+00 7.393549084663391113e-01
-1.234847784042358398e+00 -5.523966789245605469e+00 6.799608469009399414e-01
-1.012525081634521484e+00 -5.451977252960205078e+00 6.131756305694580078e-01
-1.669837236404418945e+00 -5.537425518035888672e+00 5.925887823104858398e-01
-1.443082571029663086e+00 -5.500336647033691406e+00 5.285209417343139648e-01
-1.231119513511657715e+00 -5.498273372650146484e+00 4.701644480228424072e-01
-1.667079091072082520e+00 -5.521305561065673828e+00 3.800433576107025146e-01
-1.445880293846130371e+00 -5.503174304962158203e+00 3.211060762405395508e-01
-1.237709403038024902e+00 -5.518669128417968750e+00 2.657296061515808105e-01
-1.681620597839355469e+00 -5.565956115722656250e+00 1.725685596466064453e-01
-1.478300094604492188e+00 -5.618586540222167969e+00 1.176404282450675964e-01
-1.548042893409729004e+00 -5.780401229858398438e+00 1.224006652832031250e+00
-1.294690966606140137e+00 -6.785399436950683594e+00 1.277793407440185547e+00
-1.279434204101562500e+00 -5.585183143615722656e+00 8.993204236030578613e-01
-1.057029366493225098e+00 -5.518897533416748047e+00 8.287709355354309082e-01
-1.711015224456787109e+00 -5.557427406311035156e+00 8.099817037582397461e-01
-1.485178709030151367e+00 -5.530212879180908203e+00 7.416670322418212891e-01
-1.266493558883666992e+00 -5.506609916687011719e+00 6.787681579589843750e-01
-1.045958757400512695e+00 -5.445661544799804688e+00 6.131756305694580078e-01
-1.705248117446899414e+00 -5.531828403472900391e+00 5.930984616279602051e-01
-1.480942130088806152e+00 -5.506762981414794922e+00 5.300016403198242188e-01
-1.266622662544250488e+00 -5.498384475708007812e+00 4.708296656608581543e-01
-1.053082704544067383e+00 -5.467296123504638672e+00 4.118041992187500000e-01
-1.707694172859191895e+00 -5.532902717590332031e+00 3.815556466579437256e-01
-1.484033584594726562e+00 -5.510587692260742188e+00 3.220638930797576904e-01
-1.274692058563232422e+00 -5.524597167968750000e+00 2.663866579532623291e-01
-1.720755100250244141e+00 -5.571768760681152344e+00 1.730728745460510254e-01
-1.513528227806091309e+00 -5.612305641174316406e+00 1.177011579275131226e-01
-1.614591240882873535e+00 -5.884168624877929688e+00 1.248053908348083496e+00
-1.322513580322265625e+00 -5.614729881286621094e+00 9.053675532341003418e-01
-1.092025041580200195e+00 -5.518130779266357422e+00 8.296464085578918457e-01
-1.755783200263977051e+00 -5.580836296081542969e+00 8.149483799934387207e-01
-1.524608373641967773e+00 -5.541075229644775391e+00 7.443644404411315918e-01
-1.298429727554321289e+00 -5.491005420684814453e+00 6.778139472007751465e-01
-1.080320239067077637e+00 -5.444015502929687500e+00 6.137251257896423340e-01
-1.739158630371093750e+00 -5.521261215209960938e+00 5.930984616279602051e-01
-1.517348051071166992e+00 -5.507172107696533203e+00 5.309271216392517090e-01
-1.302173614501953125e+00 -5.498266696929931641e+00 4.714949131011962891e-01
-1.091475248336791992e+00 -5.485184192657470703e+00 4.136482179164886475e-01
-1.744912624359130859e+00 -5.532787799835205078e+00 3.822788894176483154e-01
-1.522066712379455566e+00 -5.516777515411376953e+00 3.229654431343078613e-01
-1.311332941055297852e+00 -5.528335094451904297e+00 2.669498622417449951e-01
-1.105754017829895020e+00 -5.541779994964599609e+00 2.121517062187194824e-01
-1.762129902839660645e+00 -5.583982944488525391e+00 1.737848669290542603e-01
-1.589203834533691406e+00 -5.752285957336425781e+00 1.208390444517135620e-01
-1.640593886375427246e+00 -5.838310241699218750e+00 1.240438818931579590e+00
-1.154853343963623047e+00 -5.673434734344482422e+00 1.070981860160827637e+00
-1.848905205726623535e+00 -5.756723403930664062e+00 1.068310499191284180e+00
-1.357404708862304688e+00 -5.608429431915283203e+00 9.056776762008666992e-01
-1.127843141555786133e+00 -5.521018981933593750e+00 8.311054706573486328e-01
-1.796963334083557129e+00 -5.591645717620849609e+00 8.181215524673461914e-01
-1.560192704200744629e+00 -5.537343502044677734e+00 7.451351881027221680e-01
-1.335847973823547363e+00 -5.498372077941894531e+00 6.797223091125488281e-01
-1.119886636734008789e+00 -5.467470169067382812e+00 6.171322464942932129e-01
-1.779097557067871094e+00 -5.529425621032714844e+00 5.951369404792785645e-01
-1.554084897041320801e+00 -5.508299350738525391e+00 5.319450497627258301e-01
-1.343425154685974121e+00 -5.521158218383789062e+00 4.741559326648712158e-01
-1.125311732292175293e+00 -5.479360580444335938e+00 4.137219786643981934e-01
-1.790148735046386719e+00 -5.557118892669677734e+00 3.847117125988006592e-01
-1.562402725219726562e+00 -5.530393600463867188e+00 3.243176639080047607e-01
-1.352797627449035645e+00 -5.551240921020507812e+00 2.684516906738281250e-01
-1.138729095458984375e+00 -5.529997348785400391e+00 2.119641155004501343e-01
-1.805559039115905762e+00 -5.601606369018554688e+00 1.746748536825180054e-01
-1.595349192619323730e+00 -5.639488220214843750e+00 1.186728924512863159e-01
-1.673136472702026367e+00 -5.816835403442382812e+00 1.238034248352050781e+00
-1.392506837844848633e+00 -5.602871417999267578e+00 9.061428904533386230e-01
-1.164553523063659668e+00 -5.527547359466552734e+00 8.331481814384460449e-01
-1.831856727600097656e+00 -5.582396507263183594e+00 8.183974623680114746e-01
-1.597712397575378418e+00 -5.540053844451904297e+00 7.468050122261047363e-01
-1.370761752128601074e+00 -5.494888305664062500e+00 6.803187131881713867e-01
-1.156494498252868652e+00 -5.475082874298095703e+00 6.187808513641357422e-01
-1.824790954589843750e+00 -5.554318904876708984e+00 5.990100502967834473e-01
-1.594483852386474609e+00 -5.521618843078613281e+00 5.341661572456359863e-01
-1.377277135848999023e+00 -5.512811183929443359e+00 4.741559326648712158e-01
-1.158911347389221191e+00 -5.472352504730224609e+00 4.137219786643981934e-01
-1.822030425071716309e+00 -5.539394855499267578e+00 3.842514455318450928e-01
-1.604072570800781250e+00 -5.547558307647705078e+00 3.258953392505645752e-01
-1.389743328094482422e+00 -5.554464340209960938e+00 2.690148651599884033e-01
-1.169110894203186035e+00 -5.506288528442382812e+00 2.113263607025146484e-01
-1.841145634651184082e+00 -5.594219684600830078e+00 1.747935116291046143e-01
-1.624639511108398438e+00 -5.611346244812011719e+00 1.182882487773895264e-01
-1.710732579231262207e+00 -5.813038825988769531e+00 1.239436984062194824e+00
-1.427835702896118164e+00 -5.598050594329833984e+00 9.067630767822265625e-01
-1.200966715812683105e+00 -5.531898975372314453e+00 8.348991274833679199e-01
-1.871737599372863770e+00 -5.587956428527832031e+00 8.208808302879333496e-01
-1.633359313011169434e+00 -5.535852909088134766e+00 7.475757002830505371e-01
-1.407406568527221680e+00 -5.497916221618652344e+00 6.817498803138732910e-01
-1.195140361785888672e+00 -5.491192817687988281e+00 6.214186549186706543e-01
-1.866744518280029297e+00 -5.566596984863281250e+00 6.015582084655761719e-01
-1.635386586189270020e+00 -5.535604000091552734e+00 5.364797711372375488e-01
-1.411819577217102051e+00 -5.507153034210205078e+00 4.744054079055786133e-01
-1.193955421447753906e+00 -5.471959114074707031e+00 4.142383038997650146e-01
-1.865195155143737793e+00 -5.555542945861816406e+00 3.861582279205322266e-01
-1.636099100112915039e+00 -5.530910015106201172e+00 3.255009353160858154e-01
-1.422308325767517090e+00 -5.540027141571044922e+00 2.687332928180694580e-01
-1.206504940986633301e+00 -5.515606880187988281e+00 2.119641155004501343e-01
-1.883075833320617676e+00 -5.605558395385742188e+00 1.755055040121078491e-01
-1.759639143943786621e+00 -5.846525192260742188e+00 1.248855471611022949e+00
-1.271275877952575684e+00 -5.705924034118652344e+00 1.081349730491638184e+00
-1.468658566474914551e+00 -5.614033699035644531e+00 9.107944965362548828e-01
-1.236397862434387207e+00 -5.531184196472167969e+00 8.359205126762390137e-01
-1.916560530662536621e+00 -5.607294082641601562e+00 8.254336118698120117e-01
-1.669301271438598633e+00 -5.532372951507568359e+00 7.484748363494873047e-01
-1.448426127433776855e+00 -5.517026424407958984e+00 6.852087974548339844e-01
-1.231201887130737305e+00 -5.494424819946289062e+00 6.226276755332946777e-01
-1.906984686851501465e+00 -5.572921276092529297e+00 6.034947633743286133e-01
-1.671913266181945801e+00 -5.534043788909912109e+00 5.373126268386840820e-01
-1.450398683547973633e+00 -5.516698360443115234e+00 4.759853780269622803e-01
-1.232753992080688477e+00 -5.487883090972900391e+00 4.160085618495941162e-01
-1.907979726791381836e+00 -5.569481372833251953e+00 3.879335224628448486e-01
-1.673474192619323730e+00 -5.532234668731689453e+00 3.261770606040954590e-01
-1.456020236015319824e+00 -5.530230045318603516e+00 2.686863541603088379e-01
-1.245594024658203125e+00 -5.531497478485107422e+00 2.128645032644271851e-01
-1.913546085357666016e+00 -5.582551479339599609e+00 1.751495152711868286e-01
-1.796343922615051270e+00 -5.838427066802978516e+00 1.249456644058227539e+00
-2.032399177551269531e+00 -5.832362651824951172e+00 1.091277480125427246e+00
-1.505125164985656738e+00 -5.612550258636474609e+00 9.120349884033203125e-01
-1.276743650436401367e+00 -5.551453590393066406e+00 8.401519656181335449e-01
-1.954843044281005859e+00 -5.606651306152343750e+00 8.270891904830932617e-01
-1.710815548896789551e+00 -5.546665191650390625e+00 7.518145442008972168e-01
-1.488958954811096191e+00 -5.532962799072265625e+00 6.883097887039184570e-01
-1.265115141868591309e+00 -5.487735748291015625e+00 6.227375864982604980e-01
-1.945405602455139160e+00 -5.573325157165527344e+00 6.048197746276855469e-01
-1.712595582008361816e+00 -5.545562744140625000e+00 5.394411683082580566e-01
-1.486295580863952637e+00 -5.515392780303955078e+00 4.766506254673004150e-01
-1.270894646644592285e+00 -5.499649047851562500e+00 4.174837768077850342e-01
-1.947055101394653320e+00 -5.571799278259277344e+00 3.889198303222656250e-01
-1.712696671485900879e+00 -5.539031028747558594e+00 3.271912336349487305e-01
-1.498253703117370605e+00 -5.552052497863769531e+00 2.701881825923919678e-01
-1.282668232917785645e+00 -5.537379741668701172e+00 2.133897244930267334e-01
-1.958650827407836914e+00 -5.601842403411865234e+00 1.761285066604614258e-01
-1.831546306610107422e+00 -5.825426101684570312e+00 1.249055862426757812e+00
-2.067158460617065430e+00 -5.816998958587646484e+00 1.090755462646484375e+00
-1.547910332679748535e+00 -5.633692741394042969e+00 9.169967770576477051e-01
-1.316929101943969727e+00 -5.569509506225585938e+00 8.440915346145629883e-01
-1.993853449821472168e+00 -5.607615947723388672e+00 8.290206789970397949e-01
-1.753462195396423340e+00 -5.563493251800537109e+00 7.555395960807800293e-01
-1.525783181190490723e+00 -5.534250736236572266e+00 6.896217465400695801e-01
-1.300826430320739746e+00 -5.488574028015136719e+00 6.237267255783081055e-01
-1.981567621231079102e+00 -5.566905975341796875e+00 6.054312586784362793e-01
-1.751384496688842773e+00 -5.550142765045166016e+00 5.409218668937683105e-01
-1.526474118232727051e+00 -5.529223442077636719e+00 4.786463379859924316e-01
-1.308764934539794922e+00 -5.509212493896484375e+00 4.188114702701568604e-01
-1.983886003494262695e+00 -5.567266941070556641e+00 3.894458115100860596e-01
-1.754772424697875977e+00 -5.554122924804687500e+00 3.287125229835510254e-01
-1.538413882255554199e+00 -5.564898967742919922e+00 2.712676227092742920e-01
-1.322407722473144531e+00 -5.553708076477050781e+00 2.143276184797286987e-01
-2.003057003021240234e+00 -5.617964267730712891e+00 1.770184934139251709e-01
-2.107843399047851562e+00 -5.818093299865722656e+00 1.093365311622619629e+00
-1.587265133857727051e+00 -5.641206264495849609e+00 9.197877049446105957e-01
-1.352479457855224609e+00 -5.567092418670654297e+00 8.449670076370239258e-01
-2.033623933792114258e+00 -5.610174655914306641e+00 8.312280178070068359e-01
-1.790605068206787109e+00 -5.562069416046142578e+00 7.568240761756896973e-01
-1.562949061393737793e+00 -5.536251068115234375e+00 6.910529732704162598e-01
-1.341063380241394043e+00 -5.507528781890869141e+00 6.268041133880615234e-01
-2.014330863952636719e+00 -5.550902366638183594e+00 6.050236225128173828e-01
-1.785406470298767090e+00 -5.539291858673095703e+00 5.409218668937683105e-01
-1.566336035728454590e+00 -5.540850162506103516e+00 4.804758131504058838e-01
-1.341834783554077148e+00 -5.498171329498291016e+00 4.185901582241058350e-01
-2.015283107757568359e+00 -5.547486305236816406e+00 3.889198303222656250e-01
-1.795257925987243652e+00 -5.563204765319824219e+00 3.298957943916320801e-01
-1.575251221656799316e+00 -5.564966201782226562e+00 2.717369496822357178e-01
-1.357884287834167480e+00 -5.551313400268554688e+00 2.145527154207229614e-01
-2.032709836959838867e+00 -5.592415332794189453e+00 1.766031533479690552e-01
-1.925100088119506836e+00 -5.958446979522705078e+00 1.267909109592437744e-01
-2.153394699096679688e+00 -5.831840038299560547e+00 1.098411083221435547e+00
-1.627043843269348145e+00 -5.649397850036621094e+00 9.227337837219238281e-01
-1.386852502822875977e+00 -5.559648513793945312e+00 8.451128602027893066e-01
-2.070755004882812500e+00 -5.605023860931396484e+00 8.323317766189575195e-01
-1.828725576400756836e+00 -5.563225269317626953e+00 7.584939002990722656e-01
-1.601850390434265137e+00 -5.543725967407226562e+00 6.931998729705810547e-01
-1.376037120819091797e+00 -5.504018306732177734e+00 6.273536682128906250e-01
-2.058704853057861328e+00 -5.566428661346435547e+00 6.080813407897949219e-01
-1.822162747383117676e+00 -5.536744594573974609e+00 5.417547821998596191e-01
-1.599750638008117676e+00 -5.529220581054687500e+00 4.803094863891601562e-01
-1.381363034248352051e+00 -5.513051509857177734e+00 4.203604161739349365e-01
-2.063488483428955078e+00 -5.573382377624511719e+00 3.916156291961669922e-01
-1.839669942855834961e+00 -5.583377361297607422e+00 3.317551314830780029e-01
-1.613258957862854004e+00 -5.568627834320068359e+00 2.723940014839172363e-01
-1.394841670989990234e+00 -5.554507732391357422e+00 2.150029093027114868e-01
-2.064555406570434570e+00 -5.573276519775390625e+00 1.763954907655715942e-01
-2.201621294021606445e+00 -5.851697444915771484e+00 1.104674816131591797e+00
-1.664748787879943848e+00 -5.649732112884521484e+00 9.244393706321716309e-01
-1.427072882652282715e+00 -5.574994087219238281e+00 8.487606644630432129e-01
-2.121158838272094727e+00 -5.634851455688476562e+00 8.386781215667724609e-01
-1.871344089508056641e+00 -5.577285289764404297e+00 7.619620561599731445e-01
-1.638931989669799805e+00 -5.544266223907470703e+00 6.945118904113769531e-01
-1.414228916168212891e+00 -5.512801170349121094e+00 6.293320059776306152e-01
-2.100187778472900391e+00 -5.573240756988525391e+00 6.102217435836791992e-01
-1.862442493438720703e+00 -5.544337272644042969e+00 5.436056256294250488e-01
-1.637889623641967773e+00 -5.533634185791015625e+00 4.815568327903747559e-01
-1.419137477874755859e+00 -5.519925594329833984e+00 4.215405881404876709e-01
-2.165972232818603516e+00 -5.741737365722656250e+00 4.043713808059692383e-01
-1.875803709030151367e+00 -5.577661991119384766e+00 3.320931792259216309e-01
-1.654209017753601074e+00 -5.581609249114990234e+00 2.735203504562377930e-01
-1.425905227661132812e+00 -5.534232139587402344e+00 2.145527154207229614e-01
-2.126244783401489258e+00 -5.633447170257568359e+00 1.787094622850418091e-01
-2.247352838516235352e+00 -5.863825321197509766e+00 1.109546542167663574e+00
-1.706224322319030762e+00 -5.662112236022949219e+00 9.281606674194335938e-01
-1.460751056671142578e+00 -5.564218997955322266e+00 8.484687805175781250e-01
-2.160658121109008789e+00 -5.634676933288574219e+00 8.406095504760742188e-01
-1.905530452728271484e+00 -5.565698146820068359e+00 7.619620561599731445e-01
-1.674931168556213379e+00 -5.540758132934570312e+00 6.953467726707458496e-01
-1.454097509384155273e+00 -5.527089595794677734e+00 6.319698095321655273e-01
-2.141831398010253906e+00 -5.579752445220947266e+00 6.123621463775634766e-01
-1.903206944465637207e+00 -5.552586078643798828e+00 5.455490946769714355e-01
-1.673833370208740234e+00 -5.530156612396240234e+00 4.821389317512512207e-01
-1.457810997962951660e+00 -5.529436111450195312e+00 4.229420423507690430e-01
-2.270597219467163086e+00 -5.909038066864013672e+00 4.171271920204162598e-01
-1.911936640739440918e+00 -5.571713447570800781e+00 3.324312567710876465e-01
-1.691033482551574707e+00 -5.579958438873291016e+00 2.739427387714385986e-01
-1.460346341133117676e+00 -5.527310848236083984e+00 2.146277427673339844e-01
-2.129205942153930664e+00 -5.538192272186279297e+00 1.760988384485244751e-01
-1.837763309478759766e+00 -6.945990085601806641e+00 8.778131566941738129e-03
-1.794908046722412109e+00 -5.830366134643554688e+00 1.188007473945617676e+00
-2.283290386199951172e+00 -5.849925041198730469e+00 1.109546542167663574e+00
-1.745878458023071289e+00 -5.667586803436279297e+00 9.307966232299804688e-01
-1.491266012191772461e+00 -5.541776657104492188e+00 8.464260697364807129e-01
-2.199874877929687500e+00 -5.633306980133056641e+00 8.424031138420104980e-01
-1.949127554893493652e+00 -5.581052780151367188e+00 7.656871080398559570e-01
-1.713000774383544922e+00 -5.543657302856445312e+00 6.970165371894836426e-01
-1.488759994506835938e+00 -5.520942211151123047e+00 6.322995424270629883e-01
-2.273818731307983398e+00 -5.816664695739746094e+00 6.398817896842956543e-01
-1.941513180732727051e+00 -5.553022384643554688e+00 5.467522144317626953e-01
-1.718337535858154297e+00 -5.554054260253906250e+00 4.851325154304504395e-01
-1.495093464851379395e+00 -5.532902717590332031e+00 4.239009320735931396e-01
-2.212633848190307617e+00 -5.654325962066650391e+00 4.000975787639617920e-01
-1.954004406929016113e+00 -5.582493782043457031e+00 3.337835371494293213e-01
-1.729673147201538086e+00 -5.583789825439453125e+00 2.746467292308807373e-01
-1.497629165649414062e+00 -5.530785560607910156e+00 2.151154577732086182e-01
-2.184283494949340820e+00 -5.579007625579833984e+00 1.778194755315780640e-01
-1.975525856018066406e+00 -5.637667655944824219e+00 1.209605112671852112e-01
-1.884012341499328613e+00 -6.948095321655273438e+00 8.795236237347126007e-03
-1.833005309104919434e+00 -5.826734066009521484e+00 1.189536690711975098e+00
-1.784180760383605957e+00 -5.668075561523437500e+00 9.326573014259338379e-01
-1.527082204818725586e+00 -5.539198398590087891e+00 8.474473953247070312e-01
-2.243547201156616211e+00 -5.642711639404296875e+00 8.458521962165832520e-01
-1.990988016128540039e+00 -5.590475559234619141e+00 7.686414122581481934e-01
-1.753560304641723633e+00 -5.553871154785156250e+00 6.996404528617858887e-01
-1.528165817260742188e+00 -5.531822681427001953e+00 6.346076130867004395e-01
-2.332273960113525391e+00 -5.859908103942871094e+00 6.462010741233825684e-01
-1.977555751800537109e+00 -5.546632289886474609e+00 5.473074913024902344e-01
-1.754186511039733887e+00 -5.549107551574707031e+00 4.856314659118652344e-01
-1.533271551132202148e+00 -5.539003372192382812e+00 4.250811040401458740e-01
-2.247655868530273438e+00 -5.641570091247558594e+00 4.001633226871490479e-01
-1.992584228515625000e+00 -5.582623004913330078e+00 3.345160186290740967e-01
-1.772341728210449219e+00 -5.599736690521240234e+00 2.759608030319213867e-01
-1.544625043869018555e+00 -5.568676471710205078e+00 2.169537395238876343e-01
-2.217734098434448242e+00 -5.563642978668212891e+00 1.777601391077041626e-01
-1.998642683029174805e+00 -5.593429088592529297e+00 1.202722042798995972e-01
-1.927947759628295898e+00 -6.941222190856933594e+00 8.801344782114028931e-03
-1.869323492050170898e+00 -5.817245960235595703e+00 1.189918994903564453e+00
-2.081403970718383789e+00 -5.739054679870605469e+00 1.017217874526977539e+00
-1.829812169075012207e+00 -5.690878391265869141e+00 9.382392764091491699e-01
-1.577436566352844238e+00 -5.587801933288574219e+00 8.563479781150817871e-01
-2.301908731460571289e+00 -5.687597274780273438e+00 8.546817898750305176e-01
-2.033375740051269531e+00 -5.600526332855224609e+00 7.717242240905761719e-01
-1.789129018783569336e+00 -5.547731876373291016e+00 7.002368569374084473e-01
-1.566678881645202637e+00 -5.538600921630859375e+00 6.364760398864746094e-01
-2.393212556838989258e+00 -5.907261848449707031e+00 6.530300378799438477e-01
-2.011892080307006836e+00 -5.535329818725585938e+00 5.473999977111816406e-01
-1.785446405410766602e+00 -5.529704570770263672e+00 4.848830699920654297e-01
-1.575115799903869629e+00 -5.557315826416015625e+00 4.272201359272003174e-01
-2.271729469299316406e+00 -5.601780891418457031e+00 3.983222544193267822e-01
-2.033287286758422852e+00 -5.588118076324462891e+00 3.355865478515625000e-01
-1.808204054832458496e+00 -5.593508720397949219e+00 2.761954963207244873e-01
-1.581767678260803223e+00 -5.569667816162109375e+00 2.173663973808288574e-01
-2.267614126205444336e+00 -5.588831901550292969e+00 1.790061295032501221e-01
-2.035320997238159180e+00 -5.587635993957519531e+00 1.204139143228530884e-01
-1.904676198959350586e+00 -5.804734230041503906e+00 1.189727902412414551e+00
-2.124102830886840820e+00 -5.746530532836914062e+00 1.020833849906921387e+00
-1.865929007530212402e+00 -5.683298587799072266e+00 9.388595223426818848e-01
-1.615812182426452637e+00 -5.592273712158203125e+00 8.585366606712341309e-01
-2.351474761962890625e+00 -5.709082126617431641e+00 8.600623607635498047e-01
-2.076649665832519531e+00 -5.612126350402832031e+00 7.750639319419860840e-01
-1.825619816780090332e+00 -5.544193744659423828e+00 7.011910080909729004e-01
-1.601739048957824707e+00 -5.532702445983886719e+00 6.369156241416931152e-01
-2.429413557052612305e+00 -5.892466068267822266e+00 6.530300378799438477e-01
-2.110150098800659180e+00 -5.696550369262695312e+00 5.646132230758666992e-01
-1.834007024765014648e+00 -5.563127517700195312e+00 4.887914061546325684e-01
-1.615019559860229492e+00 -5.567660331726074219e+00 4.287691116333007812e-01
-2.395514488220214844e+00 -5.804494380950927734e+00 4.137738645076751709e-01
-2.075868368148803711e+00 -5.598003864288330078e+00 3.369388282299041748e-01
-1.852822899818420410e+00 -5.613611221313476562e+00 2.777442336082458496e-01
-1.619259476661682129e+00 -5.571372509002685547e+00 2.178165912628173828e-01
-2.320937871932983398e+00 -5.621007919311523438e+00 1.804894357919692993e-01
-2.072351217269897461e+00 -5.582540988922119141e+00 1.205758675932884216e-01
-1.949609637260437012e+00 -5.820859909057617188e+00 1.195462346076965332e+00
-2.175315380096435547e+00 -5.775851726531982422e+00 1.028394341468811035e+00
-1.913636445999145508e+00 -5.710146903991699219e+00 9.452167749404907227e-01
-1.650375723838806152e+00 -5.583202838897705078e+00 8.586825132369995117e-01
-2.387609243392944336e+00 -5.697287082672119141e+00 8.604762554168701172e-01
-2.116293907165527344e+00 -5.613197803497314453e+00 7.769906520843505859e-01
-1.870674967765808105e+00 -5.565827369689941406e+00 7.053654789924621582e-01
-1.640737533569335938e+00 -5.539924621582031250e+00 6.388940215110778809e-01
-2.445513010025024414e+00 -5.829746246337890625e+00 6.477299928665161133e-01
-2.091973304748535156e+00 -5.542828559875488281e+00 5.506390333175659180e-01
-1.872874379158020020e+00 -5.565937042236328125e+00 4.900387227535247803e-01
-1.651421189308166504e+00 -5.565294265747070312e+00 4.293591678142547607e-01
-2.391680955886840820e+00 -5.695844650268554688e+00 4.070672094821929932e-01
-2.107002019882202148e+00 -5.576755046844482422e+00 3.364317119121551514e-01
-1.889145851135253906e+00 -5.607816696166992188e+00 2.780258357524871826e-01
-1.660248994827270508e+00 -5.584321022033691406e+00 2.187169790267944336e-01
-2.362352609634399414e+00 -5.623248577117919922e+00 1.810234338045120239e-01
-2.096662759780883789e+00 -5.543536186218261719e+00 1.200090274214744568e-01
-1.996399641036987305e+00 -5.841296672821044922e+00 1.202152729034423828e+00
-2.231206893920898438e+00 -5.815810680389404297e+00 1.037927269935607910e+00
-1.945121049880981445e+00 -5.688015460968017578e+00 9.435111880302429199e-01
-1.691186428070068359e+00 -5.594751834869384766e+00 8.620384931564331055e-01
-2.426794528961181641e+00 -5.692551136016845703e+00 8.619938492774963379e-01
-2.157806873321533203e+00 -5.618622779846191406e+00 7.795596122741699219e-01
-1.913809299468994141e+00 -5.580541133880615234e+00 7.087050676345825195e-01
-1.680172801017761230e+00 -5.547827243804931641e+00 6.409822702407836914e-01
-2.464058160781860352e+00 -5.774372577667236328e+00 6.432452797889709473e-01
-2.150597810745239258e+00 -5.594016075134277344e+00 5.570245981216430664e-01
-1.912815928459167480e+00 -5.571306228637695312e+00 4.915355443954467773e-01
-1.684959053993225098e+00 -5.553148269653320312e+00 4.292116761207580566e-01
-2.409338951110839844e+00 -5.640686035156250000e+00 4.041741490364074707e-01
-2.160903692245483398e+00 -5.614970684051513672e+00 3.395306468009948730e-01
-1.926441431045532227e+00 -5.604621410369873047e+00 2.784482240676879883e-01
-1.698260903358459473e+00 -5.586458206176757812e+00 2.192046791315078735e-01
-2.420772075653076172e+00 -5.664715766906738281e+00 1.828330606222152710e-01
-2.120214700698852539e+00 -5.503510951995849609e+00 1.194219291210174561e-01
-2.272593259811401367e+00 -5.816710948944091797e+00 1.040556907653808594e+00
-1.983890056610107422e+00 -5.687166690826416016e+00 9.453718066215515137e-01
-1.730740308761596680e+00 -5.601283073425292969e+00 8.646648526191711426e-01
-2.475073575973510742e+00 -5.708449363708496094e+00 8.666845560073852539e-01
-2.199465751647949219e+00 -5.623748779296875000e+00 7.821286320686340332e-01
-1.953588008880615234e+00 -5.584624767303466797e+00 7.107326388359069824e-01
-1.716533422470092773e+00 -5.545009136199951172e+00 6.418614983558654785e-01
-2.469343185424804688e+00 -5.689790248870849609e+00 6.354990005493164062e-01
-2.218640327453613281e+00 -5.666943073272705078e+00 5.656312704086303711e-01
-1.950258731842041016e+00 -5.568870067596435547e+00 4.923671185970306396e-01
-1.725795388221740723e+00 -5.564612865447998047e+00 4.309081733226776123e-01
-2.444699287414550781e+00 -5.627626895904541016e+00 4.043056368827819824e-01
-2.203330516815185547e+00 -5.622056484222412109e+00 3.407702147960662842e-01
-1.962777376174926758e+00 -5.598351478576660156e+00 2.787298262119293213e-01
-1.739030003547668457e+00 -5.596926689147949219e+00 2.200300246477127075e-01
-2.466640472412109375e+00 -5.675424098968505859e+00 1.836637258529663086e-01
-2.198125362396240234e+00 -5.603016853332519531e+00 1.218715161085128784e-01
-2.316262245178222656e+00 -5.822821140289306641e+00 1.044172763824462891e+00
-2.040932655334472656e+00 -5.737248420715332031e+00 9.557605981826782227e-01
-1.770140051841735840e+00 -5.606595516204833984e+00 8.671453595161437988e-01
-2.527234554290771484e+00 -5.732124805450439453e+00 8.726170063018798828e-01
-2.240168094635009766e+00 -5.625810146331787109e+00 7.843122482299804688e-01
-1.988485097885131836e+00 -5.574403285980224609e+00 7.109711766242980957e-01
-1.750524640083312988e+00 -5.534372329711914062e+00 6.418614983558654785e-01
-2.500593900680541992e+00 -5.666340827941894531e+00 6.345816850662231445e-01
-2.259637832641601562e+00 -5.668946743011474609e+00 5.672044754028320312e-01
-1.978359341621398926e+00 -5.539905548095703125e+00 4.908702969551086426e-01
-1.765329122543334961e+00 -5.571031093597412109e+00 4.322358369827270508e-01
-2.479183912277221680e+00 -5.612520694732666016e+00 4.043056368827819824e-01
-2.249995470046997070e+00 -5.639032840728759766e+00 3.426295816898345947e-01
-2.003144264221191406e+00 -5.603133201599121094e+00 2.795746028423309326e-01
-1.776967644691467285e+00 -5.597580432891845703e+00 2.204802185297012329e-01
-2.499801635742187500e+00 -5.656525135040283203e+00 1.835450530052185059e-01
-2.014581918716430664e+00 -5.625832557678222656e+00 6.362233310937881470e-02
-2.357129812240600586e+00 -5.821299076080322266e+00 1.046473860740661621e+00
-2.070034742355346680e+00 -5.707900524139404297e+00 9.529695510864257812e-01
-1.806633591651916504e+00 -5.602219581604003906e+00 8.681667447090148926e-01
-2.574512243270874023e+00 -5.743624210357666016e+00 8.767559528350830078e-01
-2.284703493118286133e+00 -5.636774539947509766e+00 7.877804040908813477e-01
-2.031134366989135742e+00 -5.585423946380615234e+00 7.139528989791870117e-01
-1.801561236381530762e+00 -5.576492786407470703e+00 6.480163335800170898e-01
-2.543051958084106445e+00 -5.668135643005371094e+00 6.365182399749755859e-01
-2.295502424240112305e+00 -5.657743453979492188e+00 5.674821138381958008e-01
-2.026290893554687500e+00 -5.566055297851562500e+00 4.942796826362609863e-01
-1.801014542579650879e+00 -5.564838409423828125e+00 4.326046407222747803e-01
-2.513983726501464844e+00 -5.598113059997558594e+00 4.043713808059692383e-01
-2.285305023193359375e+00 -5.626970767974853516e+00 3.427422642707824707e-01
-2.035434484481811523e+00 -5.585105895996093750e+00 2.792930006980895996e-01
-1.815595149993896484e+00 -5.599879741668701172e+00 2.210054248571395874e-01
-2.540197372436523438e+00 -5.653844833374023438e+00 1.839603930711746216e-01
-2.046320438385009766e+00 -5.605850696563720703e+00 6.353716552257537842e-02
-1.911895036697387695e+00 -5.820089817047119141e+00 1.133189082145690918e+00
-2.418735265731811523e+00 -5.869654655456542969e+00 1.057814598083496094e+00
-2.120088815689086914e+00 -5.735862731933593750e+00 9.597919583320617676e-01
-1.855825662612915039e+00 -5.636132717132568359e+00 8.751704096794128418e-01
-2.625310659408569336e+00 -5.761967658996582031e+00 8.819984793663024902e-01
-2.335129737854003906e+00 -5.661154270172119141e+00 7.931752800941467285e-01
-2.068818092346191406e+00 -5.582166194915771484e+00 7.151456475257873535e-01
-1.845084547996520996e+00 -5.593650817871093750e+00 6.513135433197021484e-01
-2.589753389358520508e+00 -5.678673267364501953e+00 6.394740343093872070e-01
-2.340434551239013672e+00 -5.668401241302490234e+00 5.699808001518249512e-01
-2.078083992004394531e+00 -5.601167201995849609e+00 4.985206723213195801e-01
-1.842322468757629395e+00 -5.575462341308593750e+00 4.343011379241943359e-01
-2.609610319137573242e+00 -5.716927528381347656e+00 4.141026139259338379e-01
-2.320551156997680664e+00 -5.614688396453857422e+00 3.428549766540527344e-01
-2.078360319137573242e+00 -5.595921516418457031e+00 2.804663181304931641e-01
-1.855259656906127930e+00 -5.604762077331542969e+00 2.216432094573974609e-01
-2.080678939819335938e+00 -5.593189239501953125e+00 6.353716552257537842e-02
-1.952884793281555176e+00 -5.824098110198974609e+00 1.136281251907348633e+00
-2.175786018371582031e+00 -5.777292728424072266e+00 9.689401984214782715e-01
-1.893525242805480957e+00 -5.634017467498779297e+00 8.766295313835144043e-01
-2.690996885299682617e+00 -5.811359882354736328e+00 8.920697569847106934e-01
-2.377113580703735352e+00 -5.664094448089599609e+00 7.956157922744750977e-01
-2.107590198516845703e+00 -5.581441879272460938e+00 7.166961431503295898e-01
-1.880006194114685059e+00 -5.584108829498291016e+00 6.515334248542785645e-01
-2.636261463165283203e+00 -5.687947750091552734e+00 6.423279643058776855e-01
-2.343162775039672852e+00 -5.577740192413330078e+00 5.622996091842651367e-01
-2.108536958694458008e+00 -5.578056812286376953e+00 4.976059496402740479e-01
-1.881597280502319336e+00 -5.579172611236572266e+00 4.354813098907470703e-01
-2.653457880020141602e+00 -5.719816207885742188e+00 4.154833853244781494e-01
-2.362311601638793945e+00 -5.617830276489257812e+00 3.439254760742187500e-01
-2.112657070159912109e+00 -5.583063602447509766e+00 2.804663181304931641e-01
-1.884817123413085938e+00 -5.579071521759033203e+00 2.210804522037506104e-01
-2.379185199737548828e+00 -5.652434825897216797e+00 1.241793781518936157e-01
-2.119211435317993164e+00 -5.591537952423095703e+00 6.366492062807083130e-02
-2.344335794448852539e+00 -6.931270122528076172e+00 8.939400315284729004e-03
-1.989857435226440430e+00 -5.815727233886718750e+00 1.137008786201477051e+00
-2.217563390731811523e+00 -5.780436038970947266e+00 9.717312455177307129e-01
-1.931268334388732910e+00 -5.631650447845458984e+00 8.780885934829711914e-01
-2.737989664077758789e+00 -5.818936347961425781e+00 8.957948684692382812e-01
-2.414548873901367188e+00 -5.655786514282226562e+00 7.965149283409118652e-01
-2.157124280929565430e+00 -5.608252525329589844e+00 7.218248248100280762e-01
-1.913911223411560059e+00 -5.571527481079101562e+00 6.514234542846679688e-01
-2.691033601760864258e+00 -5.713963985443115234e+00 6.471183896064758301e-01
-2.477898836135864258e+00 -5.798570156097412109e+00 5.860835313796997070e-01
-2.148094654083251953e+00 -5.578963756561279297e+00 4.988532662391662598e-01
-1.918390870094299316e+00 -5.575066089630126953e+00 4.360713660717010498e-01
-2.693184375762939453e+00 -5.713356018066406250e+00 4.162066578865051270e-01
-2.410480499267578125e+00 -5.635358333587646484e+00 3.458975553512573242e-01
-2.147592782974243164e+00 -5.571859359741210938e+00 2.805601656436920166e-01
-1.988376259803771973e+00 -5.768632888793945312e+00 2.290713340044021606e-01
-2.422086954116821289e+00 -5.657030582427978516e+00 1.246045082807540894e-01
-2.128632545471191406e+00 -5.514062404632568359e+00 6.293032318353652954e-02
-2.380623340606689453e+00 -6.898794174194335938e+00 8.916187100112438202e-03
-2.029716968536376953e+00 -5.815477371215820312e+00 1.139373421669006348e+00
-2.267369747161865234e+00 -5.803527355194091797e+00 9.779334068298339844e-01
-1.980813026428222656e+00 -5.662650108337402344e+00 8.848004937171936035e-01
-2.786030530929565430e+00 -5.827940464019775391e+00 8.997957706451416016e-01
-2.466190338134765625e+00 -5.679980754852294922e+00 8.020383119583129883e-01
-2.193667650222778320e+00 -5.600457191467285156e+00 7.225403785705566406e-01
-1.951348185539245605e+00 -5.569059848785400391e+00 6.525225639343261719e-01
-2.735059738159179688e+00 -5.716188907623291016e+00 6.492587924003601074e-01
-2.503509521484375000e+00 -5.760426998138427734e+00 5.837699174880981445e-01
-2.203021287918090820e+00 -5.618561267852783203e+00 5.035931468009948730e-01
-1.950250864028930664e+00 -5.556603431701660156e+00 4.355550706386566162e-01
-2.740257740020751953e+00 -5.721921920776367188e+00 4.180476963520050049e-01
-2.452580213546752930e+00 -5.637856960296630859e+00 3.469681143760681152e-01
-2.180280923843383789e+00 -5.554858207702636719e+00 2.803724408149719238e-01
-1.979985237121582031e+00 -5.631883144378662109e+00 2.241192460060119629e-01
-2.457550287246704102e+00 -5.643895626068115234e+00 1.246449947357177734e-01
-2.170474529266357422e+00 -5.521371364593505859e+00 6.316453963518142700e-02
-2.452124357223510742e+00 -6.967065811157226562e+00 9.023698978126049042e-03
-2.077891111373901367e+00 -5.838116645812988281e+00 1.146285295486450195e+00
-2.316081762313842773e+00 -5.822552204132080078e+00 9.835154414176940918e-01
-2.025824785232543945e+00 -5.679275035858154297e+00 8.893237113952636719e-01
-2.863271951675415039e+00 -5.896266937255859375e+00 9.130402207374572754e-01
-2.513813018798828125e+00 -5.693772792816162109e+00 8.061487078666687012e-01
-2.240494728088378906e+00 -5.618247985839843750e+00 7.265956401824951172e-01
-1.989161372184753418e+00 -5.567277908325195312e+00 6.537315845489501953e-01
-2.790955543518066406e+00 -5.742245197296142578e+00 6.541512012481689453e-01
-2.531160831451416016e+00 -5.727653503417968750e+00 5.820115804672241211e-01
-2.245952367782592773e+00 -5.626224994659423828e+00 5.055058002471923828e-01
-1.994390010833740234e+00 -5.572700977325439453e+00 4.377678930759429932e-01
-2.786227941513061523e+00 -5.727432727813720703e+00 4.196915030479431152e-01
-2.483896017074584961e+00 -5.615397453308105469e+00 3.465173244476318359e-01
-2.244717836380004883e+00 -5.617436885833740234e+00 2.842208743095397949e-01
-2.017539501190185547e+00 -5.628094196319580078e+00 2.244568765163421631e-01
-2.499825000762939453e+00 -5.646080017089843750e+00 1.250296384096145630e-01
-2.126419067382812500e+00 -5.860382080078125000e+00 1.153197169303894043e+00
-2.353989362716674805e+00 -5.813725948333740234e+00 9.844458103179931641e-01
-2.060972213745117188e+00 -5.667667388916015625e+00 8.894696235656738281e-01
-2.909473419189453125e+00 -5.899017333984375000e+00 9.162133336067199707e-01
-2.563727855682373047e+00 -5.711717128753662109e+00 8.109012842178344727e-01
-2.280153512954711914e+00 -5.617274284362792969e+00 7.282654047012329102e-01
-2.020222425460815430e+00 -5.546562194824218750e+00 6.527423858642578125e-01
-2.839787483215332031e+00 -5.752665042877197266e+00 6.573108434677124023e-01
-2.560136556625366211e+00 -5.698390483856201172e+00 5.806233882904052734e-01
-2.279681682586669922e+00 -5.610491275787353516e+00 5.053394436836242676e-01
-2.031963825225830078e+00 -5.569727420806884766e+00 4.385054707527160645e-01
-2.856678724288940430e+00 -5.781796932220458984e+00 4.249516129493713379e-01
-2.528951168060302734e+00 -5.623725891113281250e+00 3.479822874069213867e-01
-2.288176059722900391e+00 -5.625764846801757812e+00 2.853472530841827393e-01
-2.044489383697509766e+00 -5.594960212707519531e+00 2.236315459012985229e-01
-2.308607578277587891e+00 -5.667494297027587891e+00 6.515540182590484619e-02
-2.066090345382690430e+00 -5.647956848144531250e+00 7.347485981881618500e-03
-2.153129100799560547e+00 -5.822322845458984375e+00 1.148286104202270508e+00
-2.397897720336914062e+00 -5.819267272949218750e+00 9.878569841384887695e-01
-2.088833808898925781e+00 -5.636362075805664062e+00 8.865514397621154785e-01
-2.621778249740600586e+00 -5.746404647827148438e+00 8.180944919586181641e-01
-2.327086687088012695e+00 -5.633460521697998047e+00 7.322013378143310547e-01
-2.054563522338867188e+00 -5.534993648529052734e+00 6.528522968292236328e-01
-2.897322177886962891e+00 -5.779597282409667969e+00 6.624070405960083008e-01
-2.594225883483886719e+00 -5.680763244628906250e+00 5.804383158683776855e-01
-2.304925203323364258e+00 -5.574296474456787109e+00 5.033437013626098633e-01
-2.089038133621215820e+00 -5.618848800659179688e+00 4.433736503124237061e-01
-2.908658504486083984e+00 -5.797159194946289062e+00 4.273844063282012939e-01
-2.584163188934326172e+00 -5.653505325317382812e+00 3.507995009422302246e-01
-2.341370582580566406e+00 -5.656844139099121094e+00 2.876469194889068604e-01
-2.075293540954589844e+00 -5.572945117950439453e+00 2.232563793659210205e-01
-2.093371391296386719e+00 -5.615496158599853516e+00 7.321829441934823990e-03
-2.452657699584960938e+00 -5.849997997283935547e+00 9.956097602844238281e-01
-2.146443605422973633e+00 -5.684523105621337891e+00 8.961815237998962402e-01
-2.664914608001708984e+00 -5.747303962707519531e+00 8.205350041389465332e-01
-2.362763166427612305e+00 -5.621821403503417969e+00 7.325591444969177246e-01
-2.114856719970703125e+00 -5.592009067535400391e+00 6.610953807830810547e-01
-2.948976039886474609e+00 -5.793626785278320312e+00 6.660763621330261230e-01
-2.632386684417724609e+00 -5.671963691711425781e+00 5.811786651611328125e-01
-2.352610111236572266e+00 -5.592197895050048828e+00 5.062541961669921875e-01
-2.129481077194213867e+00 -5.621779441833496094e+00 4.446275830268859863e-01
-2.966368913650512695e+00 -5.822769165039062500e+00 4.306062161922454834e-01
-2.659183740615844727e+00 -5.724469184875488281e+00 3.562085628509521484e-01
-2.387278795242309570e+00 -5.669069290161132812e+00 2.890079617500305176e-01
-2.246629238128662109e+00 -5.921686172485351562e+00 2.377749830484390259e-01
-2.390027999877929688e+00 -5.667299747467041016e+00 6.548544019460678101e-02
-2.134533643722534180e+00 -5.620307445526123047e+00 7.345041725784540176e-03
-2.498970508575439453e+00 -5.859374046325683594e+00 9.997962713241577148e-01
-2.187320232391357422e+00 -5.686943054199218750e+00 8.986619710922241211e-01
-2.712809801101684570e+00 -5.757757663726806641e+00 8.243884444236755371e-01
-2.408922433853149414e+00 -5.634605884552001953e+00 7.361372709274291992e-01
-2.155202627182006836e+00 -5.594694137573242188e+00 6.629638075828552246e-01
-3.014154434204101562e+00 -5.832868099212646484e+00 6.727014183998107910e-01
-2.693046569824218750e+00 -5.710640907287597656e+00 5.868238806724548340e-01
-2.370804309844970703e+00 -5.540094375610351562e+00 5.028448104858398438e-01
-2.299989223480224609e+00 -5.961238861083984375e+00 4.725827872753143311e-01
-3.013042449951171875e+00 -5.825729846954345703e+00 4.321842789649963379e-01
-2.701076984405517578e+00 -5.722490787506103516e+00 3.571100533008575439e-01
-2.475115776062011719e+00 -5.778271675109863281e+00 2.953437864780426025e-01
-2.211242675781250000e+00 -5.722297668457031250e+00 2.303093522787094116e-01
-2.403469800949096680e+00 -5.602903842926025391e+00 6.491053849458694458e-02
-2.165010690689086914e+00 -5.596845626831054688e+00 7.331603206694126129e-03
-2.542345285415649414e+00 -5.861150264739990234e+00 1.002742290496826172e+00
-2.240213394165039062e+00 -5.719472885131835938e+00 9.059574604034423828e-01
-2.764786720275878906e+00 -5.775889873504638672e+00 8.293979763984680176e-01
-2.452951669692993164e+00 -5.641571044921875000e+00 7.389997243881225586e-01
-2.194935321807861328e+00 -5.595244884490966797e+00 6.646124124526977539e-01
-3.058205366134643555e+00 -5.830121040344238281e+00 6.745361089706420898e-01
-2.739221572875976562e+00 -5.717356204986572266e+00 5.892300605773925781e-01
-2.464802503585815430e+00 -5.663419246673583984e+00 5.154013633728027344e-01
-2.337252616882324219e+00 -5.948870658874511719e+00 4.727303087711334229e-01
-3.066821098327636719e+00 -5.841588020324707031e+00 4.347485899925231934e-01
-2.752111911773681641e+00 -5.739119529724121094e+00 3.591948151588439941e-01
-2.494167566299438477e+00 -5.725429534912109375e+00 2.934195697307586670e-01
-2.210087537765502930e+00 -5.616562366485595703e+00 2.265952825546264648e-01
-2.445000410079956055e+00 -5.604548454284667969e+00 6.510217487812042236e-02
-2.205541610717773438e+00 -5.599272727966308594e+00 7.352372165769338608e-03
-2.289190292358398438e+00 -5.740538597106933594e+00 9.115020632743835449e-01
-2.838337421417236328e+00 -5.837301254272460938e+00 8.407015204429626465e-01
-2.504785060882568359e+00 -5.665461063385009766e+00 7.441283464431762695e-01
-2.235124111175537109e+00 -5.596439838409423828e+00 6.663709282875061035e-01
-2.796473026275634766e+00 -5.746102333068847656e+00 5.939497947692871094e-01
-2.542656660079956055e+00 -5.745697021484375000e+00 5.242990255355834961e-01
-2.247783899307250977e+00 -5.619594097137451172e+00 4.476517736911773682e-01
-2.800828218460083008e+00 -5.749949455261230469e+00 3.609414696693420410e-01
-2.529655694961547852e+00 -5.710930824279785156e+00 2.934665083885192871e-01
-2.241907358169555664e+00 -5.596402168273925781e+00 2.263326793909072876e-01
-2.241717576980590820e+00 -5.590275287628173828e+00 7.358481176197528839e-03
-2.335160732269287109e+00 -5.752967834472656250e+00 9.157335162162780762e-01
