-9.525919705629348755e-02 -7.027911543846130371e-01 3.332180157303810120e-02
-9.539264440536499023e-02 -7.307999134063720703e-01 9.004151797853410244e-04
-1.049198731780052185e-01 -7.335339784622192383e-01 9.053021203726530075e-04
-7.297755479812622070e-01 -1.767420768737792969e+00 5.675152689218521118e-02
-7.386357188224792480e-01 -1.759078383445739746e+00 1.257167607545852661e-01
-7.375093102455139160e-01 -1.755537390708923340e+00 5.651419609785079956e-02
-7.474555969238281250e-01 -1.749924898147583008e+00 1.253880113363265991e-01
-7.364835143089294434e-01 -1.723404645919799805e+00 5.562420934438705444e-02
-7.585764527320861816e-01 -1.746220946311950684e+00 1.254537552595138550e-01
-7.554111480712890625e-01 -1.738104343414306641e+00 5.624720454216003418e-02
-7.579876184463500977e-01 -1.715976476669311523e+00 1.236127242445945740e-01
-7.624253630638122559e-01 -1.725208163261413574e+00 5.598020553588867188e-02
-7.746340036392211914e-01 -1.724947094917297363e+00 1.245989948511123657e-01
-7.758641839027404785e-01 -1.726879835128784180e+00 5.618786811828613281e-02
-7.029836177825927734e-01 -1.729183316230773926e+00 3.779636323451995850e-02
-7.211441397666931152e-01 -1.744843840599060059e+00 1.065470352768898010e-01
-7.814627289772033691e-01 -1.711175918579101562e+00 5.583187565207481384e-02
-7.131982445716857910e-01 -1.723913431167602539e+00 3.777612000703811646e-02
-7.372548580169677734e-01 -1.753271102905273438e+00 1.073358580470085144e-01
-7.961556315422058105e-01 -1.715415477752685547e+00 5.612853541970252991e-02
-7.427681088447570801e-01 -1.764657974243164062e+00 3.876809775829315186e-02
-7.370046377182006836e-01 -1.723011493682861328e+00 1.057582199573516846e-01
-7.421699166297912598e-01 -1.733413457870483398e+00 3.818100690841674805e-02
-7.559267878532409668e-01 -1.737683176994323730e+00 1.069414466619491577e-01
-7.404184341430664062e-01 -1.700410485267639160e+00 3.755343332886695862e-02
-7.653630971908569336e-01 -1.730272889137268066e+00 1.067724153399467468e-01
-7.641952037811279297e-01 -1.726003885269165039e+00 3.822149708867073059e-02
-6.962550282478332520e-01 -1.739743471145629883e+00 1.995118148624897003e-02
-7.579482793807983398e-01 -1.685478687286376953e+00 1.042932644486427307e-01
-7.120442390441894531e-01 -1.750649213790893555e+00 8.879555761814117432e-02
-7.706677317619323730e-01 -1.712165355682373047e+00 3.801905363798141479e-02
-6.971089243888854980e-01 -1.711360931396484375e+00 1.967437565326690674e-02
-7.158963084220886230e-01 -1.729633927345275879e+00 8.795078098773956299e-02
-7.819907665252685547e-01 -1.709222674369812012e+00 3.805954381823539734e-02
-7.095110416412353516e-01 -1.711669921875000000e+00 1.972760818898677826e-02
-7.261080145835876465e-01 -1.724288105964660645e+00 8.790384978055953979e-02
-7.831901311874389648e-01 -1.684447288513183594e+00 3.761416301131248474e-02
-7.227202057838439941e-01 -1.713733911514282227e+00 1.980213262140750885e-02
-7.347077727317810059e-01 -1.715209245681762695e+00 8.766918629407882690e-02
-7.371639609336853027e-01 -1.718456745147705078e+00 1.990859583020210266e-02
-7.547928690910339355e-01 -1.732647538185119629e+00 8.879555761814117432e-02
-7.428962588310241699e-01 -1.702902793884277344e+00 1.978083886206150055e-02
-7.565098404884338379e-01 -1.707890748977661133e+00 8.776305615901947021e-02
-7.577911019325256348e-01 -1.708367109298706055e+00 1.989794895052909851e-02
-6.956284642219543457e-01 -1.734721064567565918e+00 2.283413894474506378e-03
-7.624633908271789551e-01 -1.693197846412658691e+00 8.724679797887802124e-02
-7.225145697593688965e-01 -1.772014856338500977e+00 7.184270769357681274e-02
-7.596270442008972168e-01 -1.684542655944824219e+00 1.967437565326690674e-02
-7.111718654632568359e-01 -1.742456197738647461e+00 2.299296204000711441e-03
-7.244786620140075684e-01 -1.748695492744445801e+00 1.399972140789031982e-01
-7.184382677078247070e-01 -1.731551170349121094e+00 7.037959247827529907e-02
-7.716154456138610840e-01 -1.683485984802246094e+00 1.971696317195892334e-02
-7.141789197921752930e-01 -1.719589352607727051e+00 2.274861792102456093e-03
-7.456533312797546387e-01 -1.769029617309570312e+00 1.419887393712997437e-01
-7.333241701126098633e-01 -1.737237334251403809e+00 7.079226523637771606e-02
-7.848860621452331543e-01 -1.685064792633056641e+00 1.979148574173450470e-02
-7.340577840805053711e-01 -1.737282395362854004e+00 2.304183086380362511e-03
-7.553148865699768066e-01 -1.761671304702758789e+00 1.417674571275711060e-01
-7.463354468345642090e-01 -1.738214373588562012e+00 7.101736217737197876e-02
-7.372014522552490234e-01 -1.715289592742919922e+00 2.280970336869359016e-03
-7.657114863395690918e-01 -1.756089448928833008e+00 1.416936963796615601e-01
-7.513884305953979492e-01 -1.720781087875366211e+00 7.049214094877243042e-02
-7.445085048675537109e-01 -1.703403472900390625e+00 2.271196572110056877e-03
-7.728344202041625977e-01 -1.743152856826782227e+00 1.410298496484756470e-01
-7.594998478889465332e-01 -1.710658431053161621e+00 7.026705145835876465e-02
-7.581951618194580078e-01 -1.706113815307617188e+00 2.280970336869359016e-03
-7.736817598342895508e-01 -1.714163303375244141e+00 7.060468941926956177e-02
-7.678260207176208496e-01 -1.699606895446777344e+00 2.278527012094855309e-03
-7.774055600166320801e-01 -1.693045973777770996e+00 2.276083454489707947e-03
-7.856649756431579590e-01 -1.683713078498840332e+00 2.269974676892161369e-03
-7.441341400146484375e+00 -6.424539566040039062e+00 1.990635395050048828e-01
-7.374932289123535156e+00 -6.437672615051269531e+00 1.042273566126823425e-01
-7.418079853057861328e+00 -6.395564079284667969e+00 1.042805835604667664e-01
-7.442717552185058594e+00 -6.337609767913818359e+00 1.040783002972602844e-01
-7.354137420654296875e+00 -6.410621166229248047e+00 1.191920042037963867e-02
-7.393333911895751953e+00 -6.365376472473144531e+00 1.191920042037963867e-02
-7.431489944458007812e+00 -6.319243907928466797e+00 1.191797759383916855e-02
-4.748598098754882812e+00 -2.933330774307250977e+00 1.656563133001327515e-01
-4.757971763610839844e+00 -2.898937940597534180e+00 1.653596609830856323e-01
-4.758533954620361328e+00 -2.859392404556274414e+00 1.647663265466690063e-01
-4.719394683837890625e+00 -2.910812139511108398e+00 1.122756525874137878e-01
-4.691041469573974609e+00 -2.853740215301513672e+00 1.111824437975883484e-01
-4.749615669250488281e+00 -2.849592447280883789e+00 1.121541857719421387e-01
-4.714431285858154297e+00 -2.903280019760131836e+00 5.894860625267028809e-02
-4.733011245727539062e+00 -2.874817371368408203e+00 5.895924940705299377e-02
-4.748846054077148438e+00 -2.844694375991821289e+00 5.893795937299728394e-02
-1.059997463226318359e+01 -6.881813526153564453e+00 1.544022653251886368e-02
-1.061421298980712891e+01 -6.798844337463378906e+00 1.539990957826375961e-02
-1.056950378417968750e+01 -6.679100513458251953e+00 1.527529302984476089e-02
-4.705593585968017578e+00 -2.933320283889770508e+00 6.774493958801031113e-03
-4.754062652587890625e+00 -2.925469636917114258e+00 2.095631211996078491e-01
-4.729466438293457031e+00 -2.908058404922485352e+00 6.783045828342437744e-03
-4.775340557098388672e+00 -2.898317813873291016e+00 2.097131758928298950e-01
-4.742091178894042969e+00 -2.875873327255249023e+00 6.775716319680213928e-03
-4.757072925567626953e+00 -2.845182180404663086e+00 6.772050634026527405e-03
-1.065398979187011719e+01 -6.283665657043457031e+00 1.511158142238855362e-02
-1.063615608215332031e+01 -6.185498714447021484e+00 1.503216940909624100e-02
-1.067477607727050781e+01 -6.120617389678955078e+00 1.503339037299156189e-02
-1.073302459716796875e+01 -6.066812992095947266e+00 1.506271213293075562e-02
-1.077965641021728516e+01 -6.006196022033691406e+00 1.507615018635988235e-02
-1.077511024475097656e+01 -5.917316436767578125e+00 1.501872949302196503e-02
-1.073206424713134766e+01 -5.808253288269042969e+00 1.490877475589513779e-02
-1.090426731109619141e+01 -5.815230369567871094e+00 1.509814243763685226e-02
-1.066443538665771484e+01 -5.603554725646972656e+00 1.471818424761295319e-02
-1.069062423706054688e+01 -5.533875942230224609e+00 1.470718812197446823e-02
-1.062103748321533203e+01 -5.415483474731445312e+00 1.456546783447265625e-02
-1.080777359008789062e+01 -5.427400112152099609e+00 1.477560587227344513e-02
-1.074764728546142578e+01 -5.314882278442382812e+00 1.464854553341865540e-02
-1.082321262359619141e+01 -5.269848346710205078e+00 1.470718812197446823e-02
-1.084722805023193359e+01 -5.199449062347412109e+00 1.469619292765855789e-02
-1.078306198120117188e+01 -5.087563514709472656e+00 1.456668879836797714e-02
-1.064628219604492188e+01 -4.943392753601074219e+00 1.434066984802484512e-02
-1.066095161437988281e+01 -4.870910167694091797e+00 1.431990042328834534e-02
-1.076350402832031250e+01 -3.495976448059082031e+00 3.358812332153320312e-01
-1.066053867340087891e+01 -4.791874885559082031e+00 1.427958346903324127e-02
-1.063395118713378906e+01 -4.701705932617187500e+00 1.420505810528993607e-02
-1.062591743469238281e+01 -4.620418071746826172e+00 1.415618881583213806e-02
-1.063659763336181641e+01 -4.547662734985351562e+00 1.413297560065984726e-02
-1.063111305236816406e+01 -4.468362808227539062e+00 1.408899296075105667e-02
-1.033577060699462891e+01 -4.269795417785644531e+00 1.366260927170515060e-02
-1.076463317871093750e+01 -3.488167047500610352e+00 2.291265428066253662e-01
-1.057951831817626953e+01 -4.294686794281005859e+00 1.394971553236246109e-02
-1.046448516845703125e+01 -4.173384666442871094e+00 1.376401260495185852e-02
-1.054110622406005859e+01 -4.129157066345214844e+00 1.383120752871036530e-02
-1.061104393005371094e+01 -4.081633567810058594e+00 1.388985104858875275e-02
-1.051988506317138672e+01 -3.972641706466674805e+00 1.373835653066635132e-02
-1.078504371643066406e+01 -3.559830904006958008e+00 1.209207698702812195e-01
-1.053374767303466797e+01 -3.904195070266723633e+00 1.372491661459207535e-02
-1.079812049865722656e+01 -3.490819931030273438e+00 1.208249479532241821e-01
-1.053025150299072266e+01 -3.829576492309570312e+00 1.368948724120855331e-02
-1.082600975036621094e+01 -3.426610469818115234e+00 1.208994761109352112e-01
-1.055826091766357422e+01 -3.766571998596191406e+00 1.369559671729803085e-02
-1.055851936340332031e+01 -3.693791627883911133e+00 1.366627495735883713e-02
-1.055449962615966797e+01 -3.619852542877197266e+00 1.363206654787063599e-02
-1.058219909667968750e+01 -3.556934833526611328e+00 1.363939605653285980e-02
-1.060192489624023438e+01 -3.491311073303222656e+00 1.363695319741964340e-02
-1.065836143493652344e+01 -3.437550306320190430e+00 1.368215680122375488e-02
-1.068211460113525391e+01 -3.372990608215332031e+00 1.368582248687744141e-02
-1.064719486236572266e+01 -3.290258169174194336e+00 1.361496094614267349e-02
-1.064133834838867188e+01 -3.217053174972534180e+00 1.358197536319494247e-02
-1.063786220550537109e+01 -3.144894361495971680e+00 1.355265360325574875e-02
-1.064543056488037109e+01 -3.076231241226196289e+00 1.353799272328615189e-02
-1.047644233703613281e+01 -2.957870006561279297e+00 1.329975575208663940e-02
-1.044040870666503906e+01 -2.878647327423095703e+00 1.323133893311023712e-02
-1.059789276123046875e+01 -2.852214813232421875e+00 1.340848952531814575e-02
-1.051750469207763672e+01 -2.761484384536743164e+00 1.328509487211704254e-02
-1.039087581634521484e+01 -2.660192489624023438e+00 1.310427859425544739e-02
-1.042834758758544922e+01 -2.601710319519042969e+00 1.313115563243627548e-02
-1.038969898223876953e+01 -2.524452209472656250e+00 1.306273974478244781e-02
-1.040402030944824219e+01 -2.460424900054931641e+00 1.306151878088712692e-02
-1.039065933227539062e+01 -2.390039682388305664e+00 1.302608754485845566e-02
-1.024898338317871094e+01 -2.291330099105834961e+00 1.283061131834983826e-02
-1.019151210784912109e+01 -2.212910652160644531e+00 1.274142507463693619e-02
-1.023229694366455078e+01 -2.156108379364013672e+00 1.277563348412513733e-02
-1.026590824127197266e+01 -2.097487211227416992e+00 1.280128955841064453e-02
-1.160935974121093750e+01 -1.018941521644592285e+00 1.194045066833496094e+00
-1.029624271392822266e+01 -2.037952184677124023e+00 1.282327994704246521e-02
-1.189688014984130859e+01 -9.748353362083435059e-01 1.662732124328613281e+00
-1.166496849060058594e+01 -9.517334103584289551e-01 1.199141263961791992e+00
-1.026141071319580078e+01 -1.965706586837768555e+00 1.276463828980922699e-02
-1.172585487365722656e+01 -8.884249329566955566e-01 1.638036608695983887e+00
-1.168844509124755859e+01 -8.814871907234191895e-01 1.200976014137268066e+00
-1.181208038330078125e+01 -8.866646289825439453e-01 7.805353999137878418e-01
-1.017200088500976562e+01 -1.883949160575866699e+00 1.263879891484975815e-02
-1.175381088256835938e+01 -8.180413842201232910e-01 1.641209840774536133e+00
-1.168470096588134766e+01 -8.091331124305725098e-01 1.200058579444885254e+00
-1.176852035522460938e+01 -8.108097314834594727e-01 7.773135900497436523e-01
-1.198045730590820312e+01 -8.233105540275573730e-01 3.564102947711944580e-01
-1.031330680847167969e+01 -1.844741344451904297e+00 1.280006766319274902e-02
-1.178134346008300781e+01 -7.473481297492980957e-01 1.644382953643798828e+00
-1.168646812438964844e+01 -7.372340559959411621e-01 1.199752807617187500e+00
-1.179617881774902344e+01 -7.400211095809936523e-01 7.788258790969848633e-01
-1.187355041503906250e+01 -7.427945137023925781e-01 3.530876636505126953e-01
-1.016873264312744141e+01 -1.754560351371765137e+00 1.260703429579734802e-02
-1.177285194396972656e+01 -6.743087768554687500e-01 1.642589330673217773e+00
-1.172255325317382812e+01 -6.673225164413452148e-01 1.203014373779296875e+00
-1.181145668029785156e+01 -6.682472229003906250e-01 7.795491814613342285e-01
-1.014379501342773438e+01 -1.686229944229125977e+00 1.256305258721113205e-02
-1.170008373260498047e+01 -1.024975061416625977e+00 1.521226644515991211e+00
-1.176616764068603516e+01 -5.973994731903076172e-01 1.207091331481933594e+00
-1.163843154907226562e+01 -1.015480518341064453e+00 1.085823178291320801e+00
-1.183526515960693359e+01 -5.967658758163452148e-01 7.808641791343688965e-01
-1.029713058471679688e+01 -1.646856188774108887e+00 1.274020317941904068e-02
-1.171010589599609375e+01 -9.534872770309448242e-01 1.521740436553955078e+00
-1.183321571350097656e+01 -5.280305743217468262e-01 1.213614583015441895e+00
-1.167223167419433594e+01 -9.463021755218505859e-01 1.088414430618286133e+00
-1.188356304168701172e+01 -5.261208415031433105e-01 7.838230133056640625e-01
-1.160760307312011719e+01 -5.118734240531921387e-01 3.448404371738433838e-01
-1.024773693084716797e+01 -1.574531316757202148e+00 1.266689877957105637e-02
-1.171573638916015625e+01 -8.816174864768981934e-01 1.521740436553955078e+00
-1.186804199218750000e+01 -4.566372632980346680e-01 1.216876149177551270e+00
-1.169569110870361328e+01 -8.760035037994384766e-01 1.090080142021179199e+00
-1.187559986114501953e+01 -4.527766108512878418e-01 7.830997705459594727e-01
-1.183029747009277344e+01 -8.819328546524047852e-01 6.694827675819396973e-01
-1.148267364501953125e+01 -4.357886612415313721e-01 3.410431444644927979e-01
-1.034525489807128906e+01 -1.524598717689514160e+00 1.277563348412513733e-02
-1.173477649688720703e+01 -8.106713891029357910e-01 1.523538827896118164e+00
-1.168296623229980469e+01 -8.029946684837341309e-01 1.088414430618286133e+00
-1.186020183563232422e+01 -3.793266117572784424e-01 7.819162011146545410e-01
-1.182154083251953125e+01 -8.083733320236206055e-01 6.686939597129821777e-01
-1.148413276672363281e+01 -3.652923405170440674e-01 3.410134911537170410e-01
-1.199680614471435547e+01 -8.161510229110717773e-01 2.434798479080200195e-01
-1.024747467041015625e+01 -1.446002602577209473e+00 1.264368649572134018e-02
-1.179495620727539062e+01 -7.421403527259826660e-01 1.530731916427612305e+00
-1.168171024322509766e+01 -7.309210896492004395e-01 1.087859153747558594e+00
-1.195867824554443359e+01 -7.398698925971984863e-01 2.426093220710754395e-01
-1.017290687561035156e+01 -1.371871709823608398e+00 1.254106033593416214e-02
-1.180324840545654297e+01 -6.699786782264709473e-01 1.531245708465576172e+00
-1.168597507476806641e+01 -6.592297554016113281e-01 1.087859153747558594e+00
-1.188739013671875000e+01 -6.664294004440307617e-01 6.719055175781250000e-01
-9.968882560729980469e+00 -1.282127857208251953e+00 1.227961108088493347e-02
-1.183586025238037109e+01 -5.989963412284851074e-01 1.534970760345458984e+00
-1.170522308349609375e+01 -1.019378423690795898e+00 1.411446571350097656e+00
-1.173753356933593750e+01 -5.899125933647155762e-01 1.092301249504089355e+00
-1.164267158508300781e+01 -1.009836196899414062e+00 9.751712679862976074e-01
-1.183541393280029297e+01 -5.906901955604553223e-01 6.687502861022949219e-01
-1.006688690185546875e+01 -1.231989860534667969e+00 1.239078771322965622e-02
-1.182526493072509766e+01 -9.671491384506225586e-01 1.862213492393493652e+00
-1.170828914642333984e+01 -9.472970366477966309e-01 1.411088705062866211e+00
-1.181255435943603516e+01 -5.210404992103576660e-01 1.098964571952819824e+00
-1.168043518066406250e+01 -9.409396648406982422e-01 9.778322577476501465e-01
-1.190065860748291016e+01 -5.207645297050476074e-01 6.722436547279357910e-01
-1.000770473480224609e+01 -1.162467002868652344e+00 1.230893284082412720e-02
-1.183097648620605469e+01 -8.945724964141845703e-01 1.862213492393493652e+00
-1.171982192993164062e+01 -8.758825063705444336e-01 1.411804437637329102e+00
-1.190308761596679688e+01 -4.518741667270660400e-01 1.107108354568481445e+00
-1.169692039489746094e+01 -8.700652718544006348e-01 9.787469506263732910e-01
-1.191560268402099609e+01 -4.481840133666992188e-01 6.729197502136230469e-01
-1.179467487335205078e+01 -8.731968402862548828e-01 5.556762218475341797e-01
-1.150865268707275391e+01 -4.288544058799743652e-01 2.331956773996353149e-01
-1.009317588806152344e+01 -1.109672427177429199e+00 1.240544859319925308e-02
-1.174360275268554688e+01 -8.155288100242614746e-01 1.847638249397277832e+00
-1.173488044738769531e+01 -8.046336770057678223e-01 1.412997007369995117e+00
-1.170005035400390625e+01 -7.981423139572143555e-01 9.785806536674499512e-01
-1.191513442993164062e+01 -3.749685883522033691e-01 6.727507114410400391e-01
-1.189847469329833984e+01 -8.075056076049804688e-01 5.603224635124206543e-01
-1.156303119659423828e+01 -3.598476946353912354e-01 2.342483699321746826e-01
-1.205401611328125000e+01 -8.117213249206542969e-01 1.286286860704421997e-01
-1.011173057556152344e+01 -1.048959136009216309e+00 1.242010947316884995e-02
-1.175049781799316406e+01 -7.332949638366699219e-01 1.414309024810791016e+00
-1.167588329315185547e+01 -7.245472073554992676e-01 9.761691093444824219e-01
-1.201185989379882812e+01 -7.348741292953491211e-01 1.281283199787139893e-01
-1.011200523376464844e+01 -9.863125681877136230e-01 1.241277996450662613e-02
-1.179541778564453125e+01 -6.634675264358520508e-01 1.419199109077453613e+00
-1.169403934478759766e+01 -6.536703109741210938e-01 9.773333072662353516e-01
-1.183966732025146484e+01 -6.576649546623229980e-01 5.571311116218566895e-01
-1.007604026794433594e+01 -9.204270839691162109e-01 1.236146595329046249e-02
-1.185182285308837891e+01 -5.937125086784362793e-01 1.425520539283752441e+00
-1.161648368835449219e+01 -1.005649685859680176e+00 1.289328336715698242e+00
-1.178442096710205078e+01 -5.862122178077697754e-01 9.845678806304931641e-01
-1.180955982208251953e+01 -5.833302736282348633e-01 5.555354356765747070e-01
-9.905138015747070312e+00 -8.435647487640380859e-01 1.214522123336791992e-02
-1.185459041595458984e+01 -9.592642188072204590e-01 1.754134416580200195e+00
-1.188301658630371094e+01 -5.222004055976867676e-01 1.428860068321228027e+00
-1.166800880432128906e+01 -9.380171298980712891e-01 1.294384121894836426e+00
-1.188337421417236328e+01 -5.180600285530090332e-01 9.925509095191955566e-01
-1.165694141387939453e+01 -9.309846162796020508e-01 8.649142980575561523e-01
-1.190872097015380859e+01 -5.150002837181091309e-01 5.600408911705017090e-01
-9.895173072814941406e+00 -7.815909385681152344e-01 1.212689466774463654e-02
-1.178823566436767578e+01 -8.811247348785400391e-01 1.743483066558837891e+00
-1.169436073303222656e+01 -8.679507970809936523e-01 1.296692132949829102e+00
-1.194109916687011719e+01 -4.471864104270935059e-01 9.971244335174560547e-01
-1.167735290527343750e+01 -8.605408072471618652e-01 8.660206198692321777e-01
-1.192962360382080078e+01 -4.425866603851318359e-01 5.608856678009033203e-01
-1.153363418579101562e+01 -4.218483269214630127e-01 1.228796839714050293e-01
-9.975582122802734375e+00 -7.263799309730529785e-01 1.221974659711122513e-02
-1.176183700561523438e+01 -8.066109418869018555e-01 1.738813996315002441e+00
-1.170541667938232422e+01 -7.965841293334960938e-01 1.297351598739624023e+00
-1.171226406097412109e+01 -7.908894419670104980e-01 8.682335019111633301e-01
-1.192113304138183594e+01 -3.690395653247833252e-01 5.603694319725036621e-01
-1.195874500274658203e+01 -8.012436032295227051e-01 4.499641954898834229e-01
-1.155699443817138672e+01 -3.517101109027862549e-01 1.231032609939575195e-01
-9.839162826538085938e+00 -6.557803750038146973e-01 1.204748172312974930e-02
-1.178730010986328125e+01 -7.357206940650939941e-01 1.741878032684326172e+00
-1.171901226043701172e+01 -7.252986431121826172e-01 1.298340797424316406e+00
-1.171391010284423828e+01 -7.188261747360229492e-01 8.680121898651123047e-01
-1.183676052093505859e+01 -7.201440930366516113e-01 4.451996982097625732e-01
-9.904889106750488281e+00 -5.991395711898803711e-01 1.212322898209095001e-02
-1.174011230468750000e+01 -6.543187499046325684e-01 1.300209283828735352e+00
-1.172407436370849609e+01 -6.472672820091247559e-01 8.684546947479248047e-01
-9.871433258056640625e+00 -5.363456606864929199e-01 1.207802537828683853e-02
-1.177865123748779297e+01 -5.839931964874267578e-01 1.304055929183959961e+00
-1.176966094970703125e+01 -5.773698091506958008e-01 8.715527057647705078e-01
-1.175587368011474609e+01 -5.705235004425048828e-01 4.418607950210571289e-01
-9.718719482421875000e+00 -4.682580828666687012e-01 1.188743487000465393e-02
-1.182868385314941406e+01 -5.137367248535156250e-01 1.309221625328063965e+00
-1.192542457580566406e+01 -5.116825103759765625e-01 8.828380703926086426e-01
-1.167329025268554688e+01 -4.947409927845001221e-01 4.386344254016876221e-01
-9.870278358459472656e+00 -4.148736596107482910e-01 1.206947304308414459e-02
-1.183658027648925781e+01 -4.413327872753143311e-01 1.309771180152893066e+00
-1.189246177673339844e+01 -4.371809363365173340e-01 8.801826238632202148e-01
-1.199467277526855469e+01 -4.346495866775512695e-01 4.506019651889801025e-01
-9.892624855041503906e+00 -3.550202250480651855e-01 1.209390722215175629e-02
-1.190422058105468750e+01 -3.582479357719421387e-01 4.471130073070526123e-01
-9.982578277587890625e+00 -2.969299256801605225e-01 1.220142003148794174e-02
-1.001720237731933594e+01 -2.364511191844940186e-01 1.224173698574304581e-02
-1.180680847167968750e+01 -2.103400677442550659e-01 4.433239102363586426e-01
-1.003446197509765625e+01 -1.752616763114929199e-01 1.226128451526165009e-02
-1.005434799194335938e+01 -1.139033138751983643e-01 1.228449679911136627e-02
-1.000785827636718750e+01 -5.196481198072433472e-02 1.222707610577344894e-02
-9.997988700866699219e+00 9.433791041374206543e-03 1.221485808491706848e-02
-7.643376827239990234e+00 8.864812254905700684e-01 2.283707559108734131e-01
-9.983742713928222656e+00 7.068100571632385254e-02 1.219775434583425522e-02
-7.536591053009033203e+00 9.209961891174316406e-01 2.253447920083999634e-01
-1.492196941375732422e+01 7.369038462638854980e-01 1.590664833784103394e-01
-9.936124801635742188e+00 1.313176602125167847e-01 1.214033272117376328e-02
-9.914135932922363281e+00 1.918757557868957520e-01 1.211467664688825607e-02
-1.005572509765625000e+01 2.563484013080596924e-01 1.228938344866037369e-02
-1.007695293426513672e+01 3.187716007232666016e-01 1.231748424470424652e-02
-1.466903400421142578e+01 1.085833907127380371e+00 1.566071957349777222e-01
-1.002983856201171875e+01 3.788978457450866699e-01 1.226250641047954559e-02
-7.582994461059570312e+00 8.847597837448120117e-01 1.545865237712860107e-01
-1.495912456512451172e+01 1.199640989303588867e+00 1.597797870635986328e-01
-9.961388587951660156e+00 4.375365078449249268e-01 1.218187250196933746e-02
-1.479806232452392578e+01 1.278154611587524414e+00 1.581402570009231567e-01
-1.006737995147705078e+01 5.041013360023498535e-01 1.231504138559103012e-02
-1.482877254486083984e+01 1.372523903846740723e+00 1.585554629564285278e-01
-9.971243858337402344e+00 5.606433153152465820e-01 1.220142003148794174e-02
-1.453945350646972656e+01 1.435774564743041992e+00 1.555532068014144897e-01
-9.959631919860839844e+00 6.213170289993286133e-01 1.219164580106735229e-02
-1.414351654052734375e+01 1.484359741210937500e+00 1.514117866754531860e-01
-9.954634666442871094e+00 6.823481321334838867e-01 1.219042483717203140e-02
-7.600753784179687500e+00 8.448801636695861816e-01 8.142296224832534790e-02
-9.918348312377929688e+00 7.410315871238708496e-01 1.215132884681224823e-02
-7.575563907623291016e+00 8.891702294349670410e-01 8.121003210544586182e-02
-9.626552581787109375e+00 7.786560654640197754e-01 1.179946959018707275e-02
-7.522330760955810547e+00 9.297487139701843262e-01 8.069901168346405029e-02
-9.780991554260253906e+00 8.515868782997131348e-01 1.199494767934083939e-02
-1.432495212554931641e+01 1.859850883483886719e+00 1.537965685129165649e-01
-9.829348564147949219e+00 9.165996909141540527e-01 1.206092070788145065e-02
-1.430138015747070312e+01 1.946094155311584473e+00 1.536688059568405151e-01
-9.804633140563964844e+00 9.750140309333801270e-01 1.203770842403173447e-02
-1.401296997070312500e+01 1.994496822357177734e+00 1.506984829902648926e-01
-9.761671066284179688e+00 1.031268596649169922e+00 1.199250482022762299e-02
-1.395299148559570312e+01 2.073386430740356445e+00 1.501874625682830811e-01
-7.583702087402343750e+00 8.482612371444702148e-01 9.323023259639739990e-03
-1.335402679443359375e+01 2.068207502365112305e+00 1.438742130994796753e-01
-7.574381828308105469e+00 8.943089246749877930e-01 9.318136610090732574e-03
-1.380704593658447266e+01 2.225203752517700195e+00 1.488992720842361450e-01
-7.558828353881835938e+00 9.395341873168945312e-01 9.305919520556926727e-03
-1.397853946685791016e+01 2.340929746627807617e+00 1.509007662534713745e-01
-9.625338554382324219e+00 1.256413102149963379e+00 1.185933593660593033e-02
-1.397770500183105469e+01 2.429053068161010742e+00 1.510498225688934326e-01
-9.613484382629394531e+00 1.314907193183898926e+00 1.185444835573434830e-02
-1.398123645782470703e+01 2.518140792846679688e+00 1.512520909309387207e-01
-9.613155364990234375e+00 1.375002503395080566e+00 1.186422258615493774e-02
-1.396748733520507812e+01 2.604247093200683594e+00 1.512733846902847290e-01
-9.607504844665527344e+00 1.434404850006103516e+00 1.186788734048604965e-02
-1.392179012298583984e+01 2.684221744537353516e+00 1.509539932012557983e-01
-9.496747016906738281e+00 1.477494120597839355e+00 1.174204889684915543e-02
-1.390701866149902344e+01 2.769984245300292969e+00 1.509752869606018066e-01
-9.422349929809570312e+00 1.525191187858581543e+00 1.166141498833894730e-02
-1.389269924163818359e+01 2.855868101119995117e+00 1.510072350502014160e-01
-9.298421859741210938e+00 1.563739180564880371e+00 1.151969470083713531e-02
-1.387295818328857422e+01 2.940643548965454102e+00 1.509859412908554077e-01
-9.274860382080078125e+00 1.618357300758361816e+00 1.150259096175432205e-02
-1.388396072387695312e+01 3.032111644744873047e+00 1.513053327798843384e-01
-9.268691062927246094e+00 1.675948023796081543e+00 1.150747761130332947e-02
-1.372461032867431641e+01 3.085659980773925781e+00 1.497722566127777100e-01
-9.140281677246093750e+00 1.710712075233459473e+00 1.136086974292993546e-02
-1.359435653686523438e+01 3.144127845764160156e+00 1.485585719347000122e-01
-9.200301170349121094e+00 1.780443072319030762e+00 1.144883409142494202e-02
-1.348044395446777344e+01 3.205046653747558594e+00 1.475258767604827881e-01
-9.112716674804687500e+00 1.821572303771972656e+00 1.135353837162256241e-02
-1.337698554992675781e+01 3.267296552658081055e+00 1.466103047132492065e-01
-9.039667129516601562e+00 1.864724874496459961e+00 1.127657014876604080e-02
-1.335862541198730469e+01 3.349801063537597656e+00 1.466315984725952148e-01
-9.066201210021972656e+00 1.928269386291503906e+00 1.132421661168336868e-02
-1.324775791168212891e+01 3.408532857894897461e+00 1.456414908170700073e-01
-9.062991142272949219e+00 1.985788702964782715e+00 1.133521366864442825e-02
-1.333488273620605469e+01 3.518326520919799805e+00 1.468338817358016968e-01
-9.009664535522460938e+00 2.032119750976562500e+00 1.128389965742826462e-02
-1.300994777679443359e+01 3.518119335174560547e+00 1.434909403324127197e-01
-8.884028434753417969e+00 2.061147451400756836e+00 1.114218030124902725e-02
-1.326275730133056641e+01 3.673959732055664062e+00 1.465251296758651733e-01
-8.778805732727050781e+00 2.093582391738891602e+00 1.102611515671014786e-02
-1.320437145233154297e+01 3.745173931121826172e+00 1.461312174797058105e-01
-8.860008239746093750e+00 2.170488834381103516e+00 1.114462316036224365e-02
-1.175605010986328125e+01 3.412458658218383789e+00 1.303320974111557007e-01
-9.020117759704589844e+00 2.268469333648681641e+00 1.136331260204315186e-02
-7.256896972656250000e+00 2.738987207412719727e+00 2.302100658416748047e-01
-1.274906349182128906e+01 3.785674095153808594e+00 1.415958851575851440e-01
-8.969234466552734375e+00 2.314278841018676758e+00 1.131688710302114487e-02
-7.180243968963623047e+00 2.760506868362426758e+00 2.283114343881607056e-01
-1.300020122528076172e+01 3.947207212448120117e+00 1.446513831615447998e-01
-8.922963142395019531e+00 2.360828876495361328e+00 1.127657014876604080e-02
-1.322690391540527344e+01 4.104848384857177734e+00 1.474513560533523560e-01
-8.857155799865722656e+00 2.401664257049560547e+00 1.121181808412075043e-02
-1.304610061645507812e+01 4.136665821075439453e+00 1.457160115242004395e-01
-8.821056365966796875e+00 2.450078010559082031e+00 1.118494011461734772e-02
-1.411008739471435547e+01 5.725030422210693359e+00 4.519355893135070801e-01
-1.306233119964599609e+01 4.230192661285400391e+00 1.461844593286514282e-01
-8.777000427246093750e+00 2.495950937271118164e+00 1.114828791469335556e-02
-1.406545448303222656e+01 5.807685852050781250e+00 4.516389369964599609e-01
-1.290606212615966797e+01 4.267256736755371094e+00 1.447259038686752319e-01
-8.793205261230468750e+00 2.558979511260986328e+00 1.118860486894845963e-02
-7.248304367065429688e+00 2.741436243057250977e+00 1.569146364927291870e-01
-1.288437271118164062e+01 4.347965240478515625e+00 1.447791457176208496e-01
-8.799383163452148438e+00 2.619447946548461914e+00 1.121670566499233246e-02
-7.227614402770996094e+00 2.784421682357788086e+00 1.568336486816406250e-01
-1.286028766632080078e+01 4.427916526794433594e+00 1.448110789060592651e-01
-8.261761665344238281e+00 2.514693498611450195e+00 1.055086217820644379e-02
-1.250361061096191406e+01 4.391108512878417969e+00 1.410955190658569336e-01
-8.605203628540039062e+00 2.677030563354492188e+00 1.101023238152265549e-02
-1.281627845764160156e+01 4.589444160461425781e+00 1.449388265609741211e-01
-8.773502349853515625e+00 2.788544416427612305e+00 1.124724838882684708e-02
-1.413968181610107422e+01 6.337946891784667969e+00 4.566353321075439453e+00
-1.411224746704101562e+01 5.737204551696777344e+00 3.084644973278045654e-01
-1.256056213378906250e+01 4.585019588470458984e+00 1.423624306917190552e-01
-8.739106178283691406e+00 2.836767911911010742e+00 1.122525800019502640e-02
-1.419305133819580078e+01 6.466743946075439453e+00 4.596316814422607422e+00
-1.409342765808105469e+01 6.418382167816162109e+00 2.736197233200073242e+00
-1.410818958282470703e+01 5.836682796478271484e+00 3.091528117656707764e-01
-7.279205799102783203e+00 2.707880735397338867e+00 8.268987387418746948e-02
-8.610475540161132812e+00 2.853530883789062500e+00 1.108231488615274429e-02
-1.474238204956054688e+01 6.826578617095947266e+00 4.787688732147216797e+00
-7.247493267059326172e+00 2.746824026107788086e+00 8.251953125000000000e-02
-8.566280364990234375e+00 2.897338867187500000e+00 1.104810647666454315e-02
-1.404405975341796875e+01 6.608165264129638672e+00 4.573985576629638672e+00
-7.218375205993652344e+00 2.786560535430908203e+00 8.238112926483154297e-02
-8.539834022521972656e+00 2.946910381317138672e+00 1.103711128234863281e-02
-1.425767898559570312e+01 6.815843105316162109e+00 4.657092094421386719e+00
-1.221811676025390625e+01 4.802993297576904297e+00 1.397753804922103882e-01
-8.548946380615234375e+00 3.008882284164428711e+00 1.107254158705472946e-02
-1.376258945465087891e+01 6.683218002319335938e+00 4.508687019348144531e+00
-1.376246070861816406e+01 6.680187702178955078e+00 2.702964782714843750e+00
-1.194889926910400391e+01 4.782016277313232422e+00 1.370286196470260620e-01
-8.540676116943359375e+00 3.064996480941772461e+00 1.108597964048385620e-02
-1.397646999359130859e+01 6.890347480773925781e+00 2.753248453140258789e+00
-1.223326778411865234e+01 4.983122348785400391e+00 1.406377255916595459e-01
-8.438126564025878906e+00 3.086767673492431641e+00 1.097724679857492447e-02
-1.370322322845458984e+01 6.860473632812500000e+00 2.707662343978881836e+00
-1.194843578338623047e+01 4.952793121337890625e+00 1.377099901437759399e-01
-7.252450942993164062e+00 2.703603029251098633e+00 9.456192143261432648e-03
-1.442977046966552734e+01 6.666343688964843750e+00 4.503890514373779297e+00
-1.364900016784667969e+01 6.935394763946533203e+00 3.287761449813842773e+00
-1.371705150604248047e+01 6.972985744476318359e+00 2.718797922134399414e+00
-1.206339645385742188e+01 5.087406158447265625e+00 1.393921077251434326e-01
-7.237595558166503906e+00 2.748762607574462891e+00 9.458635933697223663e-03
-1.430585670471191406e+01 6.715916633605957031e+00 4.477992534637451172e+00
-1.196211242675781250e+01 5.131370544433593750e+00 1.385829895734786987e-01
-7.231784343719482422e+00 2.797449111938476562e+00 9.473295882344245911e-03
-1.456658363342285156e+01 6.947708606719970703e+00 4.572862625122070312e+00
-1.435271072387695312e+01 6.851850509643554688e+00 3.868239879608154297e+00
-1.178834056854248047e+01 5.142697334289550781e+00 1.369328051805496216e-01
-7.286126136779785156e+00 2.869989633560180664e+00 9.567369706928730011e-03
-1.424920654296875000e+01 6.903970718383789062e+00 4.486443519592285156e+00
-1.405480194091796875e+01 6.827960968017578125e+00 2.603611230850219727e+00
-1.170720481872558594e+01 5.193037986755371094e+00 1.363579034805297852e-01
-8.188180923461914062e+00 3.283485651016235352e+00 1.077810395509004593e-02
-1.394851493835449219e+01 6.870325565338134766e+00 3.781743526458740234e+00
-1.355354404449462891e+01 6.687544822692871094e+00 2.518308877944946289e+00
-1.166235828399658203e+01 5.259019851684570312e+00 1.362088620662689209e-01
-8.201210021972656250e+00 3.347269296646118164e+00 1.082208659499883652e-02
-1.168259239196777344e+01 5.354644298553466797e+00 1.368263512849807739e-01
-8.275639533996582031e+00 3.437033891677856445e+00 1.094792503863573074e-02
-1.414034271240234375e+01 6.526456832885742188e+00 4.248831748962402344e+00
-1.485985279083251953e+01 6.867986679077148438e+00 3.815496444702148438e+00
-1.348110103607177734e+01 6.852856636047363281e+00 3.093281984329223633e+00
-1.162685680389404297e+01 5.415671825408935547e+00 1.365601867437362671e-01
-8.274660110473632812e+00 3.496310472488403320e+00 1.097480300813913345e-02
-1.411924648284912109e+01 6.622109889984130859e+00 4.254621505737304688e+00
-1.480332851409912109e+01 6.952411651611328125e+00 3.811864852905273438e+00
-1.351976585388183594e+01 6.977231025695800781e+00 3.111918449401855469e+00
-1.395270442962646484e+01 6.567782402038574219e+00 2.420412302017211914e+00
-1.159611988067626953e+01 5.488193988800048828e+00 1.365921348333358765e-01
-8.196088790893554688e+00 3.522535800933837891e+00 1.089905574917793274e-02
-1.415847110748291016e+01 6.746799468994140625e+00 4.278835773468017578e+00
-1.460569286346435547e+01 6.969296455383300781e+00 3.771914243698120117e+00
-1.152257347106933594e+01 5.540177822113037109e+00 1.361236870288848877e-01
-8.232047080993652344e+00 3.597990274429321289e+00 1.097602397203445435e-02
-1.420364284515380859e+01 6.875582218170166016e+00 4.305155754089355469e+00
-1.145421886444091797e+01 5.594099521636962891e+00 1.357191205024719238e-01
-8.176918029785156250e+00 3.633813619613647461e+00 1.093204133212566376e-02
-1.364761257171630859e+01 6.730813026428222656e+00 2.963423967361450195e+00
-1.139907550811767578e+01 5.654056549072265625e+00 1.354742646217346191e-01
-8.116191864013671875e+00 3.666626453399658203e+00 1.088072918355464935e-02
-1.358411407470703125e+01 6.803437232971191406e+00 2.958645105361938477e+00
-1.052558612823486328e+01 5.301517486572265625e+00 1.254773736000061035e-01
-8.083544731140136719e+00 3.711767435073852539e+00 1.086729019880294800e-02
-1.357698059082031250e+01 6.292146682739257812e+00 2.768037080764770508e+00
-1.139827537536621094e+01 5.829027175903320312e+00 1.363046765327453613e-01
-8.075117111206054688e+00 3.768062829971313477e+00 1.088683772832155228e-02
-1.355716705322265625e+01 6.999341964721679688e+00 2.971261262893676758e+00
-1.354345512390136719e+01 6.377848625183105469e+00 2.769128561019897461e+00
-1.122651195526123047e+01 5.828362941741943359e+00 1.346758008003234863e-01
-7.968714237213134766e+00 3.778126478195190430e+00 1.077443826943635941e-02
-1.350406646728515625e+01 6.460829734802246094e+00 2.769128561019897461e+00
-1.109588241577148438e+01 5.847256660461425781e+00 1.335366368293762207e-01
-7.867000579833984375e+00 3.789197206497192383e+00 1.066814828664064407e-02
-1.127318000793457031e+01 6.029356002807617188e+00 1.361130475997924805e-01
-7.885820865631103516e+00 3.858051776885986328e+00 1.072556991130113602e-02
-1.071921348571777344e+01 5.817938804626464844e+00 1.298530101776123047e-01
-7.800206661224365234e+00 3.875662803649902344e+00 1.064126938581466675e-02
-1.118695449829101562e+01 6.160970211029052734e+00 1.359746456146240234e-01
-7.724497318267822266e+00 3.897324800491333008e+00 1.057040970772504807e-02
-1.363589286804199219e+01 6.940154552459716797e+00 2.830244064331054688e+00
-1.088444614410400391e+01 6.081709384918212891e+00 1.327488124370574951e-01
-7.765409469604492188e+00 3.977930545806884766e+00 1.065959595143795013e-02
-1.081821727752685547e+01 6.132108211517333984e+00 1.323974877595901489e-01
-7.710690021514892578e+00 4.009816169738769531e+00 1.061805710196495056e-02
-1.331551551818847656e+01 6.969322681427001953e+00 3.359405994415283203e+00
-1.047698402404785156e+01 6.023924350738525391e+00 1.286712735891342163e-01
-7.731927871704101562e+00 4.081326961517333984e+00 1.068158727139234543e-02
-1.069982719421386719e+01 6.239719867706298828e+00 1.318758130073547363e-01
-7.665310382843017578e+00 4.106497764587402344e+00 1.062416564673185349e-02
-9.500064849853515625e+00 6.588127136230468750e+00 3.431198000907897949e-01
-1.063896179199218750e+01 6.292020797729492188e+00 1.315990090370178223e-01
-7.566170215606689453e+00 4.113333225250244141e+00 1.052154041826725006e-02
-9.993866920471191406e+00 5.993576049804687500e+00 1.240720674395561218e-01
-7.536410808563232422e+00 4.157265663146972656e+00 1.051543187350034714e-02
-1.042766475677490234e+01 6.341054439544677734e+00 1.299381852149963379e-01
-7.525595188140869141e+00 4.211732387542724609e+00 1.053620129823684692e-02
-1.034514999389648438e+01 6.378153800964355469e+00 1.293952167034149170e-01
-7.430910587310791016e+00 4.218825340270996094e+00 1.043968461453914642e-02
-1.032108306884765625e+01 6.451050758361816406e+00 1.295868605375289917e-01
-7.512340068817138672e+00 4.326222896575927734e+00 1.059118006378412247e-02
-9.530641555786132812e+00 6.532716751098632812e+00 2.339649498462677002e-01
-9.957798004150390625e+00 6.309282779693603516e+00 1.255093216896057129e-01
-7.490834236145019531e+00 4.375262260437011719e+00 1.059850957244634628e-02
-9.487915039062500000e+00 6.589362144470214844e+00 2.339042276144027710e-01
-1.010483932495117188e+01 6.489682197570800781e+00 1.278621554374694824e-01
-7.445778846740722656e+00 4.410440444946289062e+00 1.057285349816083908e-02
-9.840235710144042969e+00 6.405365943908691406e+00 1.250089406967163086e-01
-7.364570617675781250e+00 4.423604488372802734e+00 1.049588434398174286e-02
-1.002861404418945312e+01 6.615948677062988281e+00 1.279153823852539062e-01
-7.268109798431396484e+00 4.426576137542724609e+00 1.039692386984825134e-02
-1.001775646209716797e+01 6.697365760803222656e+00 1.282986551523208618e-01
-7.140410423278808594e+00 4.409092903137207031e+00 1.025275979191064835e-02
-9.921834945678710938e+00 6.721692085266113281e+00 1.275960057973861694e-01
-7.218327522277832031e+00 4.518617630004882812e+00 1.040425524115562439e-02
-9.502830505371093750e+00 6.523257255554199219e+00 1.227199882268905640e-01
-7.187088012695312500e+00 4.560679912567138672e+00 1.039936766028404236e-02
-9.378892898559570312e+00 6.523204803466796875e+00 1.216340661048889160e-01
-7.179995536804199219e+00 4.618217468261718750e+00 1.042991131544113159e-02
-9.355855941772460938e+00 6.592725753784179688e+00 1.218576356768608093e-01
-6.811413764953613281e+00 4.440463542938232422e+00 9.933888912200927734e-03
-2.648545503616333008e+00 2.195938110351562500e+00 1.021112129092216492e-01
-9.479623794555664062e+00 6.767368316650390625e+00 1.240081936120986938e-01
-6.544582843780517578e+00 4.323966503143310547e+00 9.583251550793647766e-03
-2.638849496841430664e+00 2.215361595153808594e+00 1.022595539689064026e-01
-9.376341819763183594e+00 6.780872821807861328e+00 1.231990754604339600e-01
-7.080478191375732422e+00 4.740694046020507812e+00 1.041036378592252731e-02
-2.606166839599609375e+00 2.215327024459838867e+00 1.015178933739662170e-01
-9.331332206726074219e+00 6.835913658142089844e+00 1.231564879417419434e-01
-7.011535167694091797e+00 4.757100105285644531e+00 1.035172026604413986e-02
-2.593282222747802734e+00 2.231928586959838867e+00 1.015475541353225708e-01
-6.959140777587890625e+00 4.784170627593994141e+00 1.031751185655593872e-02
-2.588581800460815430e+00 2.255678653717041016e+00 1.019035503268241882e-01
-6.951809406280517578e+00 4.842212677001953125e+00 1.035049837082624435e-02
-9.195172309875488281e+00 6.999852180480957031e+00 1.230393722653388977e-01
-6.644990921020507812e+00 4.689316749572753906e+00 9.936331771314144135e-03
-2.634582042694091797e+00 2.187417745590209961e+00 6.933719664812088013e-02
-6.865833282470703125e+00 4.908546924591064453e+00 1.031140331178903580e-02
-2.679407358169555664e+00 2.250955581665039062e+00 1.974867135286331177e-01
-2.627998352050781250e+00 2.209332466125488281e+00 6.951940059661865234e-02
-8.863468170166015625e+00 6.920774936676025391e+00 1.197283715009689331e-01
-6.882559776306152344e+00 4.984602928161621094e+00 1.038226298987865448e-02
-2.650335311889648438e+00 2.254415988922119141e+00 1.963598281145095825e-01
-2.616676568984985352e+00 2.227360010147094727e+00 6.958013027906417847e-02
-6.900223255157470703e+00 5.062231063842773438e+00 1.045556738972663879e-02
-2.619809150695800781e+00 2.256301641464233398e+00 1.951202452182769775e-01
-2.593872547149658203e+00 2.235541105270385742e+00 6.933719664812088013e-02
-6.777530193328857422e+00 5.036478519439697266e+00 1.031628996133804321e-02
-3.759799003601074219e+00 3.280820846557617188e+00 1.010399833321571350e-01
-6.751293659210205078e+00 5.081578254699707031e+00 1.032362133264541626e-02
-2.710223913192749023e+00 2.225386142730712891e+00 3.733660280704498291e-02
-6.719986438751220703e+00 5.122908115386962891e+00 1.032362133264541626e-02
-2.711008548736572266e+00 2.251621961593627930e+00 1.655764877796173096e-01
-2.681140184402465820e+00 2.229188203811645508e+00 3.712367638945579529e-02
-6.739083766937255859e+00 5.203156471252441406e+00 1.040181051939725876e-02
-2.695612907409667969e+00 2.266928434371948242e+00 1.654826402664184570e-01
-2.652877330780029297e+00 2.233361482620239258e+00 3.692139685153961182e-02
-6.689700603485107422e+00 5.230857849121093750e+00 1.037493348121643066e-02
-2.671005010604858398e+00 2.274359226226806641e+00 1.648255735635757446e-01
-2.648255825042724609e+00 2.257381439208984375e+00 3.704915195703506470e-02
-6.560266017913818359e+00 5.194827079772949219e+00 1.022343803197145462e-02
-2.647921085357666016e+00 2.282878398895263672e+00 1.642623990774154663e-01
-2.637382745742797852e+00 2.276201486587524414e+00 3.709173575043678284e-02
-6.669474601745605469e+00 5.348215579986572266e+00 1.044457219541072845e-02
-2.636167287826538086e+00 2.303526639938354492e+00 3.727272525429725647e-02
-6.518536090850830078e+00 5.293221473693847656e+00 1.025886833667755127e-02
-3.738629341125488281e+00 3.307550668716430664e+00 5.314636602997779846e-02
-2.715797185897827148e+00 2.233088731765747070e+00 4.295603837817907333e-03
-2.682831525802612305e+00 2.233714342117309570e+00 4.265060182660818100e-03
-2.633591651916503906e+00 2.218647718429565430e+00 1.292793601751327515e-01
-2.661429405212402344e+00 2.243688344955444336e+00 4.252843093127012253e-03
-2.667066335678100586e+00 2.274973154067993164e+00 1.316053420305252075e-01
-2.651415348052978516e+00 2.263222455978393555e+00 4.258951637893915176e-03
-3.797320365905761719e+00 3.279530525207519531e+00 1.883667111396789551e-01
-2.645801067352294922e+00 2.286641359329223633e+00 4.272390622645616531e-03
-3.782392024993896484e+00 3.307373285293579102e+00 1.886293143033981323e-01
-2.626452684402465820e+00 2.298223018646240234e+00 4.263838753104209900e-03
-3.735815763473510742e+00 3.309641361236572266e+00 6.097655277699232101e-03
-6.286691188812255859e+00 5.638744831085205078e+00 1.031751185655593872e-02
-6.200151443481445312e+00 5.630154609680175781e+00 1.023199036717414856e-02
-6.145612239837646484e+00 5.649819374084472656e+00 1.019900385290384293e-02
-6.251375675201416016e+00 5.818229198455810547e+00 1.043357606977224350e-02
-6.154421806335449219e+00 5.798872947692871094e+00 1.033095084130764008e-02
-6.101357936859130859e+00 5.819961071014404297e+00 1.030162908136844635e-02
-6.089271068572998047e+00 5.880212306976318359e+00 1.034194603562355042e-02
-6.010887145996093750e+00 5.876220703125000000e+00 1.026986446231603622e-02
-6.008123874664306641e+00 5.946053028106689453e+00 1.032728515565395355e-02
-6.062657833099365234e+00 6.074109554290771484e+00 1.048488914966583252e-02
-5.967702388763427734e+00 6.052802562713623047e+00 1.038470678031444550e-02
-5.156440734863281250e+00 6.592158317565917969e+00 2.483954727649688721e-01
-5.895565986633300781e+00 6.053487300872802734e+00 1.032362133264541626e-02
-5.126893520355224609e+00 6.637913227081298828e+00 2.489294707775115967e-01
-5.845831871032714844e+00 6.076575279235839844e+00 1.030162908136844635e-02
-5.824969291687011719e+00 6.129727840423583984e+00 1.033095084130764008e-02
-5.791355133056640625e+00 6.169728755950927734e+00 1.033828221261501312e-02
-5.603129386901855469e+00 6.043088912963867188e+00 1.006827875971794128e-02
-5.590934276580810547e+00 6.104641914367675781e+00 1.011348329484462738e-02
-5.158045291900634766e+00 6.603555679321289062e+00 1.696686297655105591e-01
-5.597648143768310547e+00 6.187776565551757812e+00 1.019411720335483551e-02
-5.124756813049316406e+00 6.644580841064453125e+00 1.699115633964538574e-01
-5.658186912536621094e+00 6.332367897033691406e+00 1.037493348121643066e-02
-5.072381019592285156e+00 6.660788059234619141e+00 1.695269197225570679e-01
-5.654295921325683594e+00 6.406703948974609375e+00 1.043968461453914642e-02
-5.571510314941406250e+00 6.391526222229003906e+00 1.035905070602893829e-02
-5.475424289703369141e+00 6.359661102294921875e+00 1.025275979191064835e-02
-5.431764602661132812e+00 6.387805461883544922e+00 1.024420745670795441e-02
-5.156115531921386719e+00 6.610444545745849609e+00 8.925864845514297485e-02
-5.443915843963623047e+00 6.482275962829589844e+00 1.034194603562355042e-02
-5.111186504364013672e+00 6.636411666870117188e+00 8.918412774801254272e-02
-5.310194969177246094e+00 6.402410984039306641e+00 1.016235258430242538e-02
-5.064921855926513672e+00 6.660484313964843750e+00 8.908829838037490845e-02
