-3.132127225399017334e-02 -6.548296213150024414e-01 4.319869726896286011e-02
-4.291381686925888062e-02 -7.116345763206481934e-01 6.626177579164505005e-02
-9.499073028564453125e-02 -7.053188085556030273e-01 2.112236618995666504e-02
-5.045188590884208679e-02 -6.897536516189575195e-01 5.771031230688095093e-02
-5.735452473163604736e-02 -7.199223041534423828e-01 3.393191844224929810e-02
-6.014750525355339050e-02 -7.006473541259765625e-01 3.304020687937736511e-02
-5.177146196365356445e-02 -7.011709213256835938e-01 5.200107023119926453e-02
-1.086817830801010132e-01 -7.348544597625732422e-01 1.504161674529314041e-02
-1.003113463521003723e-01 -7.371640801429748535e-01 7.920852862298488617e-03
-1.135867983102798462e-01 -7.071454524993896484e-01 3.365032374858856201e-02
-8.898980915546417236e-02 -7.179965972900390625e-01 2.716142125427722931e-02
-5.053915023803710938e+00 -6.714540481567382812e+00 1.026742067188024521e-02
-5.178077697753906250e+00 -6.792355537414550781e+00 1.043479796499013901e-02
-5.327826976776123047e+00 -6.900556087493896484e+00 1.065104454755783081e-02
-5.357132434844970703e+00 -6.851192474365234375e+00 1.062538754194974899e-02
-5.392861366271972656e+00 -6.810352802276611328e+00 1.061317045241594315e-02
-5.420784473419189453e+00 -6.759971141815185547e+00 1.058629155158996582e-02
-5.477920055389404297e+00 -6.745990276336669922e+00 1.061683613806962967e-02
-5.521115303039550781e+00 -6.714569091796875000e+00 1.062050182372331619e-02
-4.796311378479003906e+00 -5.760671615600585938e+00 9.158089756965637207e-03
-5.579893589019775391e+00 -6.618786334991455078e+00 1.057651918381452560e-02
-5.553530216217041016e+00 -6.506083965301513672e+00 1.045068074017763138e-02
-5.595961570739746094e+00 -6.474911689758300781e+00 1.045556738972663879e-02
-5.624390602111816406e+00 -6.427659988403320312e+00 1.043479796499013901e-02
-5.649798393249511719e+00 -6.377309322357177734e+00 1.040914189070463181e-02
-5.714195251464843750e+00 -6.370811462402343750e+00 1.045556738972663879e-02
-5.695363998413085938e+00 -6.271962165832519531e+00 1.035049837082624435e-02
-5.637636661529541016e+00 -6.132360458374023438e+00 1.017701253294944763e-02
-5.594766139984130859e+00 -6.011276721954345703e+00 1.003284938633441925e-02
-5.615772247314453125e+00 -5.960094451904296875e+00 1.000474859029054642e-02
-5.604612350463867188e+00 -5.875597000122070312e+00 9.920449927449226379e-03
-5.596795082092285156e+00 -5.795777797698974609e+00 9.843479841947555542e-03
-5.628756523132324219e+00 -5.757751941680908203e+00 9.837371297180652618e-03
-5.641470432281494141e+00 -5.700361728668212891e+00 9.798276238143444061e-03
-5.581499099731445312e+00 -5.570975780487060547e+00 9.634564630687236786e-03
-5.594926357269287109e+00 -5.516263484954833984e+00 9.599134325981140137e-03
-5.760483741760253906e+00 -5.610206604003906250e+00 9.823932312428951263e-03
-5.812094688415527344e+00 -5.591394424438476562e+00 9.853254072368144989e-03
-5.494718551635742188e+00 -5.221531391143798828e+00 9.260714985430240631e-03
-5.853295326232910156e+00 -5.494327545166015625e+00 9.808050468564033508e-03
-5.355991363525390625e+00 -4.966054916381835938e+00 8.923517540097236633e-03
-5.913640499114990234e+00 -5.416006088256835938e+00 9.797054342925548553e-03
-5.785838127136230469e+00 -5.234042167663574219e+00 9.531939402222633362e-03
-5.990843772888183594e+00 -5.353023052215576172e+00 9.815380908548831940e-03
-5.896866798400878906e+00 -5.204334735870361328e+00 9.608908556401729584e-03
-5.992008686065673828e+00 -5.223250389099121094e+00 9.711533784866333008e-03
-6.002726078033447266e+00 -5.168117046356201172e+00 9.677325375378131866e-03
-6.050322055816650391e+00 -5.144791126251220703e+00 9.702981449663639069e-03
-6.091731071472167969e+00 -5.115930557250976562e+00 9.718864224851131439e-03
-6.087600708007812500e+00 -5.049089908599853516e+00 9.662664495408535004e-03
-6.013256072998046875e+00 -4.925463676452636719e+00 9.496509097516536713e-03
-6.154544830322265625e+00 -4.978407859802246094e+00 9.671216830611228943e-03
-6.109968662261962891e+00 -4.880634784698486328e+00 9.553929790854454041e-03
-6.116246700286865234e+00 -4.824473381042480469e+00 9.517278522253036499e-03
-6.129166603088378906e+00 -4.773949623107910156e+00 9.491622447967529297e-03
-6.174989700317382812e+00 -4.749054431915283203e+00 9.517278522253036499e-03
-6.194456100463867188e+00 -4.703818798065185547e+00 9.502617642283439636e-03
-6.237603664398193359e+00 -4.676519393920898438e+00 9.524608962237834930e-03
-6.263769149780273438e+00 -4.636373043060302734e+00 9.520943276584148407e-03
-6.275144100189208984e+00 -4.585462093353271484e+00 9.495287202298641205e-03
-6.148259162902832031e+00 -4.435131072998046875e+00 9.261936880648136139e-03
-6.185946464538574219e+00 -4.404863357543945312e+00 9.277819655835628510e-03
-6.279944419860839844e+00 -4.413977146148681641e+00 9.378001093864440918e-03
-6.235426902770996094e+00 -4.325770378112792969e+00 9.271710179746150970e-03
-6.239573955535888672e+00 -4.272175312042236328e+00 9.238723665475845337e-03
-6.244126796722412109e+00 -4.219252586364746094e+00 9.206959046423435211e-03
-6.508680343627929688e+00 -4.340083599090576172e+00 9.557595476508140564e-03
-6.270372390747070312e+00 -4.125820159912109375e+00 9.170306846499443054e-03
-6.377766132354736328e+00 -4.140632629394531250e+00 9.290036745369434357e-03
-6.333161354064941406e+00 -4.056653022766113281e+00 9.188633412122726440e-03
-6.394283294677734375e+00 -4.040687561035156250e+00 9.241167455911636353e-03
-6.412167072296142578e+00 -3.997144699096679688e+00 9.231393225491046906e-03
-6.399091243743896484e+00 -3.934678792953491211e+00 9.177637286484241486e-03
-6.429954051971435547e+00 -3.899488925933837891e+00 9.187411516904830933e-03
-6.478647708892822266e+00 -3.874847650527954102e+00 9.222841821610927582e-03
-3.830103635787963867e+00 -1.731118798255920410e+00 1.247465685009956360e-01
-6.619444370269775391e+00 -3.904112815856933594e+00 9.388997219502925873e-03
-3.823299646377563477e+00 -1.699869513511657715e+00 1.241829097270965576e-01
-6.504098892211914062e+00 -3.782484769821166992e+00 9.192298166453838348e-03
-3.832742214202880859e+00 -1.675977826118469238e+00 1.241532415151596069e-01
-6.512437820434570312e+00 -3.734049320220947266e+00 9.171528741717338562e-03
-6.397679805755615234e+00 -3.616271257400512695e+00 8.978495374321937561e-03
-6.735975265502929688e+00 -3.753142595291137695e+00 9.420761838555335999e-03
-3.842415809631347656e+00 -1.761959195137023926e+00 8.559347689151763916e-02
-6.211049556732177734e+00 -3.410892724990844727e+00 8.657180704176425934e-03
-3.879973888397216797e+00 -1.752079129219055176e+00 2.402520328760147095e-01
-3.844041347503662109e+00 -1.734238028526306152e+00 8.539103716611862183e-02
-6.241535186767578125e+00 -3.377953767776489258e+00 8.670618757605552673e-03
-3.878789663314819336e+00 -1.722970128059387207e+00 2.395195513963699341e-01
-3.841815948486328125e+00 -1.704940795898437500e+00 8.510760962963104248e-02
-6.626561641693115234e+00 -3.533936023712158203e+00 9.175193496048450470e-03
-3.848539829254150391e+00 -1.679736137390136719e+00 8.502663671970367432e-02
-6.606514453887939453e+00 -3.471348047256469727e+00 9.117772802710533142e-03
-3.836723804473876953e+00 -1.646626949310302734e+00 8.454076945781707764e-02
-6.293774604797363281e+00 -3.257898330688476562e+00 8.658402599394321442e-03
-3.807034015655517578e+00 -1.770902991294860840e+00 4.470384865999221802e-02
-6.632579803466796875e+00 -3.381838083267211914e+00 9.095781482756137848e-03
-3.826920509338378906e+00 -1.751671791076660156e+00 4.481031000614166260e-02
-6.570096492767333984e+00 -3.299342155456542969e+00 8.982160128653049469e-03
-3.870925664901733398e+00 -1.745604515075683594e+00 1.995084285736083984e-01
-3.845802545547485352e+00 -1.731852650642395020e+00 4.490612819790840149e-02
-6.599181175231933594e+00 -3.263399600982666016e+00 8.994378149509429932e-03
-3.894346952438354492e+00 -1.727490663528442383e+00 2.001654654741287231e-01
-3.852699279785156250e+00 -1.706602692604064941e+00 4.486354067921638489e-02
-6.639759540557861328e+00 -3.232914924621582031e+00 9.022478014230728149e-03
-3.876849174499511719e+00 -1.688921213150024414e+00 4.502323642373085022e-02
-6.654962539672851562e+00 -3.189952135086059570e+00 9.016368538141250610e-03
-3.881624221801757812e+00 -1.662739157676696777e+00 4.495935514569282532e-02
-6.511620044708251953e+00 -3.072251796722412109e+00 8.796457201242446899e-03
-3.836579561233520508e+00 -1.781440496444702148e+00 5.167918745428323746e-03
-3.864112377166748047e+00 -1.767115235328674316e+00 1.595170795917510986e-01
-3.837433338165283203e+00 -1.753295063972473145e+00 5.154480226337909698e-03
-3.869414567947387695e+00 -1.740912079811096191e+00 1.592919826507568359e-01
-3.854503631591796875e+00 -1.732585906982421875e+00 5.163032095879316330e-03
-3.861747741699218750e+00 -1.709048867225646973e+00 1.585416644811630249e-01
-3.871464014053344727e+00 -1.711733102798461914e+00 5.171583965420722961e-03
-3.894732952117919922e+00 -1.693528652191162109e+00 5.188688170164823532e-03
-3.899533987045288086e+00 -1.667240381240844727e+00 5.181357730180025101e-03
-7.118752956390380859e+00 -2.992082834243774414e+00 9.434200823307037354e-03
-6.845842838287353516e+00 -2.828076124191284180e+00 9.049355983734130859e-03
-7.200335979461669922e+00 -2.922929763793945312e+00 9.494065307080745697e-03
-7.011000633239746094e+00 -2.796086072921752930e+00 9.221619926393032074e-03
-6.987987518310546875e+00 -2.737331390380859375e+00 9.169085882604122162e-03
-7.363050937652587891e+00 -2.832263708114624023e+00 9.638229385018348694e-03
-7.324159622192382812e+00 -2.765834808349609375e+00 9.564925916492938995e-03
-8.072372436523437500e+00 -2.991918802261352539e+00 1.051787566393613815e-02
-7.270149707794189453e+00 -2.643962860107421875e+00 9.451305493712425232e-03
-8.140503883361816406e+00 -2.904057264328002930e+00 1.055941451340913773e-02
-7.891044139862060547e+00 -2.760602235794067383e+00 1.021366473287343979e-02
-8.143366813659667969e+00 -2.792911767959594727e+00 1.051787566393613815e-02
-8.047552108764648438e+00 -2.704978227615356445e+00 1.037248969078063965e-02
-7.803746700286865234e+00 -2.569845199584960938e+00 1.003773603588342667e-02
-7.248332977294921875e+00 -2.337742805480957031e+00 9.304697625339031219e-03
-7.810854434967041016e+00 -2.466359853744506836e+00 1.000719144940376282e-02
-7.847815990447998047e+00 -2.425177812576293945e+00 1.003529224544763565e-02
-7.861591339111328125e+00 -2.376689434051513672e+00 1.003407035022974014e-02
-8.348798751831054688e+00 -2.468173742294311523e+00 1.063638366758823395e-02
-7.927632808685302734e+00 -2.290863752365112305e+00 1.008171867579221725e-02
-8.401556015014648438e+00 -2.372056484222412109e+00 1.066570542752742767e-02
-8.672383308410644531e+00 -2.391164302825927734e+00 1.099068485200405121e-02
-8.677235603332519531e+00 -2.335307598114013672e+00 1.097846776247024536e-02
-8.668189048767089844e+00 -2.275926589965820312e+00 1.094914693385362625e-02
-9.155711174011230469e+00 -2.343975067138671875e+00 1.154657173901796341e-02
-9.205821990966796875e+00 -2.296709060668945312e+00 1.159177720546722412e-02
-8.726103782653808594e+00 -2.120237827301025391e+00 1.097113732248544693e-02
-9.153512954711914062e+00 -2.164695024490356445e+00 1.149159390479326248e-02
-9.160776138305664062e+00 -2.107144355773925781e+00 1.148426439613103867e-02
-9.174508094787597656e+00 -2.051113367080688477e+00 1.148548536002635956e-02
-9.193761825561523438e+00 -1.996266365051269531e+00 1.149403769522905350e-02
-9.407411575317382812e+00 -1.982291698455810547e+00 1.174571458250284195e-02
-9.428215026855468750e+00 -1.926333189010620117e+00 1.175670977681875229e-02
-9.324102401733398438e+00 -1.845535039901733398e+00 1.161254569888114929e-02
-9.580786705017089844e+00 -1.835324168205261230e+00 1.191797759383916855e-02
-9.559419631958007812e+00 -1.770493268966674805e+00 1.187766063958406448e-02
-9.595696449279785156e+00 -1.716382503509521484e+00 1.190942618995904922e-02
-9.745980262756347656e+00 -1.681616663932800293e+00 1.208291202783584595e-02
-9.753154754638671875e+00 -1.621292829513549805e+00 1.207924634218215942e-02
-9.756995201110839844e+00 -1.560470581054687500e+00 1.207191683351993561e-02
-9.559811592102050781e+00 -1.468833684921264648e+00 1.181657519191503525e-02
-9.469712257385253906e+00 -1.395568370819091797e+00 1.169440150260925293e-02
-1.002369117736816406e+01 -1.414424896240234375e+00 1.236757449805736542e-02
-9.834966659545898438e+00 -1.326298713684082031e+00 1.212445087730884552e-02
-1.007699203491210938e+01 -1.296032190322875977e+00 1.241277996450662613e-02
-1.008475399017333984e+01 -1.234176516532897949e+00 1.241277996450662613e-02
-1.017557621002197266e+01 -1.181966423988342285e+00 1.251540426164865494e-02
-1.032577419281005859e+01 -1.135244965553283691e+00 1.269133388996124268e-02
-9.938659667968750000e+00 -1.031005263328552246e+00 1.220752857625484467e-02
-1.032598972320556641e+01 -1.007184386253356934e+00 1.267545204609632492e-02
-1.034292984008789062e+01 -9.448069334030151367e-01 1.268889009952545166e-02
-1.056674194335937500e+01 -8.999097943305969238e-01 1.295644883066415787e-02
-1.057904243469238281e+01 -8.356077671051025391e-01 1.296500116586685181e-02
-1.054307842254638672e+01 -7.677026391029357910e-01 1.291490998119115829e-02
-1.046677112579345703e+01 -6.976104378700256348e-01 1.281595043838024139e-02
-8.794919013977050781e+00 -5.319982767105102539e-01 1.076466590166091919e-02
-8.809000968933105469e+00 -4.786204397678375244e-01 1.077810395509004593e-02
-1.077149677276611328e+01 -5.189819931983947754e-01 1.317513827234506607e-02
-1.040280723571777344e+01 -4.372572600841522217e-01 1.272065564990043640e-02
-1.027437877655029297e+01 -3.687203526496887207e-01 1.256060786545276642e-02
-1.047835826873779297e+01 -3.116768300533294678e-01 1.280739810317754745e-02
-1.077799034118652344e+01 -2.544091343879699707e-01 1.317147351801395416e-02
-1.077034950256347656e+01 -1.881146728992462158e-01 1.316047739237546921e-02
-1.078630065917968750e+01 -1.221954375505447388e-01 1.317880395799875259e-02
-1.082384681701660156e+01 -5.620175227522850037e-02 1.322400756180286407e-02
-1.082098674774169922e+01 1.021034736186265945e-02 1.322034187614917755e-02
-1.102371597290039062e+01 7.804360985755920410e-02 1.346835400909185410e-02
-1.104402732849121094e+01 1.459598988294601440e-01 1.349401008337736130e-02
-1.097693634033203125e+01 2.124449312686920166e-01 1.341337524354457855e-02
-1.111937904357910156e+01 2.834638953208923340e-01 1.358930487185716629e-02
-1.493873500823974609e+01 2.105318784713745117e+00 4.477526247501373291e-01
-1.147025489807128906e+01 3.628469407558441162e-01 1.402057614177465439e-02
-1.490674686431884766e+01 2.194175720214843750e+00 4.471889734268188477e-01
-1.116302967071533203e+01 4.217064678668975830e-01 1.364794839173555374e-02
-7.027592658996582031e+00 1.078511238098144531e+00 2.110159993171691895e-01
-1.111527538299560547e+01 4.882189333438873291e-01 1.359297055751085281e-02
-1.477604579925537109e+01 2.360540151596069336e+00 4.441036880016326904e-01
-1.085738945007324219e+01 5.436592102050781250e-01 1.328142918646335602e-02
-1.471691226959228516e+01 2.443791627883911133e+00 4.427687227725982666e-01
-1.156073284149169922e+01 6.500139236450195312e-01 1.414641458541154861e-02
-1.466716289520263672e+01 2.528104305267333984e+00 4.417303800582885742e-01
-1.168827056884765625e+01 7.291556596755981445e-01 1.430768240243196487e-02
-1.475370788574218750e+01 2.636338710784912109e+00 4.448156654834747314e-01
-1.499524497985839844e+01 2.123793601989746094e+00 3.066627383232116699e-01
-1.175241470336914062e+01 8.055784106254577637e-01 1.439198199659585953e-02
-1.481686782836914062e+01 2.741546869277954102e+00 4.472186565399169922e-01
-7.015239238739013672e+00 1.037523388862609863e+00 1.435937881469726562e-01
-1.080188655853271484e+01 8.070434927940368652e-01 1.323378179222345352e-02
-1.494997310638427734e+01 2.861156702041625977e+00 4.517575800418853760e-01
-7.014669895172119141e+00 1.081462621688842773e+00 1.437152624130249023e-01
-1.090437889099121094e+01 8.820146918296813965e-01 1.336572878062725067e-02
-1.473939704895019531e+01 2.365074396133422852e+00 3.022696971893310547e-01
-1.191491699218750000e+01 1.037378191947937012e+00 1.461189426481723785e-02
-1.470488452911376953e+01 2.452179908752441406e+00 3.018648028373718262e-01
-1.153693962097167969e+01 1.075834751129150391e+00 1.415618881583213806e-02
-1.468759059906005859e+01 2.542020082473754883e+00 3.018243014812469482e-01
-1.160873222351074219e+01 1.154421329498291016e+00 1.425270456820726395e-02
-1.469927120208740234e+01 2.637036800384521484e+00 3.023911416530609131e-01
-1.497521686553955078e+01 2.131455659866333008e+00 1.610466986894607544e-01
-1.211059665679931641e+01 1.279420137405395508e+00 1.487823016941547394e-02
-1.475850391387939453e+01 2.741239070892333984e+00 3.039499819278717041e-01
-7.000728607177734375e+00 1.040294170379638672e+00 7.535456866025924683e-02
-1.239469623565673828e+01 1.386386275291442871e+00 1.523741893470287323e-02
-1.487100982666015625e+01 2.856639862060546875e+00 3.066222369670867920e-01
-7.003107070922851562e+00 1.084607601165771484e+00 7.545038312673568726e-02
-1.228863239288330078e+01 1.450921535491943359e+00 1.511768996715545654e-02
-1.493459796905517578e+01 2.963987112045288086e+00 3.083025515079498291e-01
-1.472909545898437500e+01 2.373805046081542969e+00 1.588429212570190430e-01
-1.179125595092773438e+01 1.465609192848205566e+00 1.451659947633743286e-02
-1.471228027343750000e+01 2.463806152343750000e+00 1.588216274976730347e-01
-1.183558750152587891e+01 1.544920802116394043e+00 1.458257250487804413e-02
-1.470476627349853516e+01 2.555402278900146484e+00 1.589067876338958740e-01
-1.191802597045898438e+01 1.630116343498229980e+00 1.469619292765855789e-02
-1.475769710540771484e+01 2.657988071441650391e+00 1.596520245075225830e-01
-7.014604091644287109e+00 1.003322839736938477e+00 8.657180704176425934e-03
-1.479321002960205078e+01 2.758203506469726562e+00 1.602162867784500122e-01
-7.015239238739013672e+00 1.047378420829772949e+00 8.665733039379119873e-03
-1.485553836822509766e+01 2.864255189895629883e+00 1.610786467790603638e-01
-7.006704330444335938e+00 1.090095877647399902e+00 8.663289248943328857e-03
-6.982114791870117188e+00 1.130191445350646973e+00 8.641297928988933563e-03
-1.213163471221923828e+01 2.040207862854003906e+00 1.502972561866044998e-02
-1.212972354888916016e+01 2.116498470306396484e+00 1.504316460341215134e-02
-1.270398139953613281e+01 2.297111034393310547e+00 1.577253825962543488e-02
-1.199176597595214844e+01 2.244401216506958008e+00 1.490510907024145126e-02
-1.271999740600585938e+01 2.461575031280517578e+00 1.582873612642288208e-02
-1.279781150817871094e+01 2.558198690414428711e+00 1.594480127096176147e-02
-1.325099658966064453e+01 2.733448266983032227e+00 1.653001084923744202e-02
-1.296107864379882812e+01 2.756661891937255859e+00 1.618914678692817688e-02
-1.272218036651611328e+01 2.787552356719970703e+00 1.591181382536888123e-02
-1.271459197998046875e+01 2.867761850357055664e+00 1.592403091490268707e-02
-1.319648361206054688e+01 3.061662912368774414e+00 1.655077934265136719e-02
-1.303154087066650391e+01 3.107780694961547852e+00 1.636751927435398102e-02
-1.244402790069580078e+01 3.048487424850463867e+00 1.565280742943286896e-02
-1.334445953369140625e+01 3.355997800827026367e+00 1.681100763380527496e-02
-1.381163311004638672e+01 3.563734769821166992e+00 1.742676086723804474e-02
-1.264295959472656250e+01 3.345061779022216797e+00 1.597778871655464172e-02
-1.289822769165039062e+01 3.497421979904174805e+00 1.632720232009887695e-02
-1.292181110382080078e+01 3.589076280593872070e+00 1.638462394475936890e-02
-1.344588375091552734e+01 3.823660135269165039e+00 1.707856729626655579e-02
-1.303714275360107422e+01 3.794040918350219727e+00 1.658865436911582947e-02
-1.346120643615722656e+01 4.007204532623291016e+00 1.715920120477676392e-02
-1.318667507171630859e+01 4.013725280761718750e+00 1.684032939374446869e-02
-1.291067123413085938e+01 4.016437530517578125e+00 1.651901379227638245e-02
-1.172976970672607422e+01 3.728156089782714844e+00 1.503705605864524841e-02
-1.332551956176757812e+01 4.325545787811279297e+00 1.711644046008586884e-02
-1.322183990478515625e+01 4.381747722625732422e+00 1.701747998595237732e-02
-1.379623031616210938e+01 4.666244029998779297e+00 1.779327914118766785e-02
-1.349509334564208984e+01 4.656862258911132812e+00 1.744142174720764160e-02
-1.388225173950195312e+01 4.885989189147949219e+00 1.798020489513874054e-02
-1.387083435058593750e+01 4.977832317352294922e+00 1.800463721156120300e-02
-1.374799442291259766e+01 5.029181003570556641e+00 1.788490824401378632e-02
-1.394925594329833984e+01 5.200069904327392578e+00 1.818789914250373840e-02
-1.399561309814453125e+01 5.315386772155761719e+00 1.829052343964576721e-02
-1.405133724212646484e+01 5.435435771942138672e+00 1.840658858418464661e-02
-1.435267257690429688e+01 5.653487205505371094e+00 1.884641125798225403e-02
-1.425367069244384766e+01 5.715765953063964844e+00 1.876210980117321014e-02
-1.361745262145996094e+01 5.557872772216796875e+00 1.796920783817768097e-02
-1.453339290618896484e+01 6.036000728607177734e+00 1.922636851668357849e-02
-1.449055671691894531e+01 6.122727394104003906e+00 1.921903900802135468e-02
-1.328132057189941406e+01 5.708079338073730469e+00 1.766133122146129608e-02
-1.465348434448242188e+01 6.404614925384521484e+00 1.953790895640850067e-02
-1.469889640808105469e+01 6.532174587249755859e+00 1.965153031051158905e-02
-1.443344306945800781e+01 6.520551204681396484e+00 1.934976316988468170e-02
-1.476121520996093750e+01 6.777991771697998047e+00 1.984456367790699005e-02
-1.430478382110595703e+01 6.998459339141845703e+00 1.945605501532554626e-02
-7.993495464324951172e+00 5.624503612518310547e+00 1.979096084833145142e-01
-7.967926025390625000e+00 5.614703178405761719e+00 1.037802025675773621e-01
-8.012797355651855469e+00 5.581233024597167969e+00 1.193019561469554901e-02
-7.970230579376220703e+00 5.624527931213378906e+00 1.191797759383916855e-02
-7.905470371246337891e+00 5.651807785034179688e+00 1.187277399003505707e-02
-2.423026800155639648e+00 4.665209293365478516e+00 1.064452528953552246e-01
-2.398909568786621094e+00 4.688889503479003906e+00 1.066476926207542419e-01
-2.408671855926513672e+00 4.645372867584228516e+00 5.571212992072105408e-02
-2.378758430480957031e+00 4.657392978668212891e+00 5.568018928170204163e-02
-2.346092224121093750e+00 4.663861751556396484e+00 5.558437108993530273e-02
-2.400556564331054688e+00 4.637517929077148438e+00 6.379874888807535172e-03
-2.362517118453979492e+00 4.633451938629150391e+00 6.354218814522027969e-03
-2.793808840215206146e-02 7.361456751823425293e-01 2.186402305960655212e-02
-2.621004544198513031e-02 7.033675909042358398e-01 1.425208430737257004e-02
-9.406778961420059204e-03 7.019115686416625977e-01 6.524378806352615356e-02
-5.135921761393547058e-03 7.069344520568847656e-01 6.570650637149810791e-02
-5.923843011260032654e-03 7.428815960884094238e-01 1.166015490889549255e-01
