-2.912197828292846680e+00 -4.303522586822509766e+00 2.441408485174179077e-01
-2.703725576400756836e+00 -4.322457313537597656e+00 1.914054900407791138e-01
-4.130216121673583984e+00 -6.597869873046875000e+00 9.509948082268238068e-03
-3.368346452713012695e+00 -4.219785213470458984e+00 3.557810783386230469e-01
-3.159569263458251953e+00 -4.267138004302978516e+00 2.996388971805572510e-01
-2.902961015701293945e+00 -4.233671188354492188e+00 2.411841303110122681e-01
-2.710932493209838867e+00 -4.275404453277587891e+00 1.900549232959747314e-01
-4.192589282989501953e+00 -6.607021331787109375e+00 9.560039266943931580e-03
-3.379120349884033203e+00 -4.180413246154785156e+00 3.542030453681945801e-01
-3.131179809570312500e+00 -4.174985885620117188e+00 2.945115566253662109e-01
-2.910645723342895508e+00 -4.189527988433837891e+00 2.396823018789291382e-01
-2.694431781768798828e+00 -4.192279338836669922e+00 1.870911717414855957e-01
-4.340702533721923828e+00 -6.748539447784423828e+00 9.803162887692451477e-03
-3.397123336791992188e+00 -4.150335311889648438e+00 3.534140288829803467e-01
-3.151302814483642578e+00 -4.148539543151855469e+00 2.940044701099395752e-01
-2.924798488616943359e+00 -4.155252933502197266e+00 2.387436628341674805e-01
-2.695014238357543945e+00 -4.137151718139648438e+00 1.853654533624649048e-01
-4.483060359954833984e+00 -6.876754760742187500e+00 1.002918370068073273e-02
-3.435897111892700195e+00 -4.145545959472656250e+00 3.547948300838470459e-01
-3.182786464691162109e+00 -4.137038230895996094e+00 2.945679128170013428e-01
-2.946759700775146484e+00 -4.132349014282226562e+00 2.384620755910873413e-01
-2.722550630569458008e+00 -4.123872756958007812e+00 1.855155080556869507e-01
-4.155285835266113281e+00 -6.289274215698242188e+00 9.209402836859226227e-03
-4.776951789855957031e+00 -5.696166515350341797e+00 7.616814970970153809e-01
-3.474739313125610352e+00 -4.140436649322509766e+00 3.561756014823913574e-01
-3.208110809326171875e+00 -4.117431163787841797e+00 2.945679128170013428e-01
-2.982588768005371094e+00 -4.128765106201171875e+00 2.393068522214889526e-01
-2.756138086318969727e+00 -4.119548320770263672e+00 1.860782355070114136e-01
-4.293941497802734375e+00 -6.413229465484619141e+00 9.429314173758029938e-03
-5.156128883361816406e+00 -6.078688621520996094e+00 2.024364709854125977e+00
-5.157801151275634766e+00 -6.082811832427978516e+00 1.712642669677734375e+00
-5.152678012847900391e+00 -6.074620246887207031e+00 1.407420873641967773e+00
-5.160449028015136719e+00 -6.081629753112792969e+00 1.111017346382141113e+00
-4.768671512603759766e+00 -5.615942001342773438e+00 7.548525333404541016e-01
-4.389579296112060547e+00 -5.567030429840087891e+00 6.589159965515136719e-01
-4.070468425750732422e+00 -5.566557407379150391e+00 5.754400491714477539e-01
-3.733171701431274414e+00 -5.512705802917480469e+00 4.924243092536926270e-01
-3.515586376190185547e+00 -4.137287616729736328e+00 3.577536344528198242e-01
-3.227748394012451172e+00 -4.090615272521972656e+00 2.940608263015747070e-01
-2.990759134292602539e+00 -4.087008953094482422e+00 2.379458099603652954e-01
-2.783045768737792969e+00 -4.105041027069091797e+00 1.861907988786697388e-01
-4.487046718597412109e+00 -6.613500595092773438e+00 9.764067828655242920e-03
-5.187646865844726562e+00 -6.040319442749023438e+00 2.022149324417114258e+00
-5.186747550964355469e+00 -6.041405677795410156e+00 1.709913134574890137e+00
-5.175096988677978516e+00 -6.025706768035888672e+00 1.403418898582458496e+00
-5.202831745147705078e+00 -6.055861949920654297e+00 1.112121105194091797e+00
-4.698626995086669922e+00 -5.465129375457763672e+00 7.384427189826965332e-01
-4.403773784637451172e+00 -5.515092849731445312e+00 6.559545397758483887e-01
-4.083194255828857422e+00 -5.512648105621337891e+00 5.724464058876037598e-01
-3.772569417953491211e+00 -5.497919082641601562e+00 4.931619167327880859e-01
-3.552619934082031250e+00 -4.129253864288330078e+00 3.589371442794799805e-01
-3.318229436874389648e+00 -4.152631282806396484e+00 2.999769747257232666e-01
-3.056228637695312500e+00 -4.123149871826171875e+00 2.411371916532516479e-01
-2.843827962875366211e+00 -4.139778614044189453e+00 1.885542720556259155e-01
-4.274312019348144531e+00 -6.217491626739501953e+00 9.217955172061920166e-03
-5.278053760528564453e+00 -6.067694664001464844e+00 2.369958400726318359e+00
-5.192812442779541016e+00 -5.971805572509765625e+00 2.009841680526733398e+00
-5.186517238616943359e+00 -5.966668605804443359e+00 1.697735548019409180e+00
-5.165449142456054688e+00 -5.940336704254150391e+00 1.390891551971435547e+00
-5.164488315582275391e+00 -5.937139034271240234e+00 1.096117258071899414e+00
-4.726846694946289062e+00 -5.430193424224853516e+00 7.376273274421691895e-01
-4.396836757659912109e+00 -5.437641143798828125e+00 6.499391794204711914e-01
-4.084648132324218750e+00 -5.444445133209228516e+00 5.679559707641601562e-01
-3.793708801269531250e+00 -5.456653118133544922e+00 4.915392100811004639e-01
-3.582477569580078125e+00 -4.112644672393798828e+00 3.593974113464355469e-01
-3.360603809356689453e+00 -4.153148651123046875e+00 3.014982640743255615e-01
-3.099462509155273438e+00 -4.128283977508544922e+00 2.425451576709747314e-01
-2.855475187301635742e+00 -4.102566719055175781e+00 1.876539140939712524e-01
-4.560436248779296875e+00 -6.547272205352783203e+00 9.748185984790325165e-03
-5.264467716217041016e+00 -5.977607250213623047e+00 2.347344160079956055e+00
-5.212065219879150391e+00 -5.920188903808593750e+00 2.003195524215698242e+00
-5.210111618041992188e+00 -5.920053005218505859e+00 1.693536281585693359e+00
-5.192040443420410156e+00 -5.897443771362304688e+00 1.388281702995300293e+00
-5.173327445983886719e+00 -5.874120712280273438e+00 1.090322852134704590e+00
-4.784412860870361328e+00 -5.428701400756835938e+00 7.413985133171081543e-01
-4.419394969940185547e+00 -5.397463321685791016e+00 6.483659148216247559e-01
-4.125815868377685547e+00 -5.429594516754150391e+00 5.690370202064514160e-01
-3.793235301971435547e+00 -5.385169029235839844e+00 4.871873557567596436e-01
-5.114460468292236328e+00 -5.799112319946289062e+00 5.095079541206359863e-01
-3.391718864440917969e+00 -4.139400482177734375e+00 3.020053505897521973e-01
-3.142874002456665039e+00 -4.133042335510253906e+00 2.439531385898590088e-01
-2.881746053695678711e+00 -4.086602210998535156e+00 1.877289414405822754e-01
-4.632235527038574219e+00 -6.564104080200195312e+00 9.815380908548831940e-03
-5.256359577178955078e+00 -5.895075798034667969e+00 2.327556848526000977e+00
-5.256031513214111328e+00 -5.896779537200927734e+00 2.006149530410766602e+00
-5.250241279602050781e+00 -5.892353057861328125e+00 1.694796085357666016e+00
-5.249751091003417969e+00 -5.889733314514160156e+00 1.394023299217224121e+00
-5.204658985137939453e+00 -5.837092399597167969e+00 1.089357137680053711e+00
-4.829554557800292969e+00 -5.412603378295898438e+00 7.432331442832946777e-01
-4.456878662109375000e+00 -5.375610351562500000e+00 6.490137577056884766e-01
-4.142035484313964844e+00 -5.382063865661621094e+00 5.667086839675903320e-01
-3.817517042160034180e+00 -5.349616050720214844e+00 4.860809147357940674e-01
-5.202449798583984375e+00 -5.826421737670898438e+00 5.147023200988769531e-01
-3.160251140594482422e+00 -4.103392124176025391e+00 2.433430105447769165e-01
-2.936972856521606445e+00 -4.111124992370605469e+00 1.896797567605972290e-01
-4.674170017242431641e+00 -6.537998199462890625e+00 9.819046594202518463e-03
-5.255795478820800781e+00 -5.822127819061279297e+00 2.311444044113159180e+00
-5.281075477600097656e+00 -5.852185249328613281e+00 2.001964807510375977e+00
-5.263375759124755859e+00 -5.834618568420410156e+00 1.687447547912597656e+00
-5.252804279327392578e+00 -5.820856571197509766e+00 1.385323762893676758e+00
-5.242367267608642578e+00 -5.807252883911132812e+00 1.089771032333374023e+00
-5.142348289489746094e+00 -6.129837989807128906e+00 1.036330103874206543e+00
-4.901351928710937500e+00 -5.425683021545410156e+00 7.491447925567626953e-01
-4.500662326812744141e+00 -5.361126422882080078e+00 6.505869626998901367e-01
-4.180494785308837891e+00 -5.363621711730957031e+00 5.674570202827453613e-01
-3.850269794464111328e+00 -5.326091289520263672e+00 4.860809147357940674e-01
-5.214012622833251953e+00 -5.767742156982421875e+00 5.123352408409118652e-01
-4.707159519195556641e+00 -6.499475955963134766e+00 9.804385714232921600e-03
-5.312775135040283203e+00 -5.813135147094726562e+00 2.320772409439086914e+00
-5.327998161315917969e+00 -5.831835746765136719e+00 2.006149530410766602e+00
-5.148078441619873047e+00 -6.073628425598144531e+00 1.936483263969421387e+00
-5.316220283508300781e+00 -5.820983886718750000e+00 1.692906498908996582e+00
-5.154801845550537109e+00 -6.077258586883544922e+00 1.630005002021789551e+00
-5.318310737609863281e+00 -5.821232318878173828e+00 1.393153429031372070e+00
-5.138492107391357422e+00 -6.053745269775390625e+00 1.323090076446533203e+00
-5.314651012420654297e+00 -5.815187931060791016e+00 1.097359061241149902e+00
-5.174084663391113281e+00 -6.091366291046142578e+00 1.035174012184143066e+00
-5.203769683837890625e+00 -5.689873695373535156e+00 7.900164723396301270e-01
-4.545725345611572266e+00 -5.347824573516845703e+00 6.523452997207641602e-01
-4.242963314056396484e+00 -5.375415802001953125e+00 5.714485049247741699e-01
-3.947101354598999023e+00 -5.390068531036376953e+00 4.941208064556121826e-01
-5.249978542327880859e+00 -5.736377239227294922e+00 5.124010443687438965e-01
-4.695488452911376953e+00 -6.400323390960693359e+00 9.698094800114631653e-03
-5.353555202484130859e+00 -5.786059856414794922e+00 2.323034048080444336e+00
-5.213620185852050781e+00 -6.079277992248535156e+00 2.269256591796875000e+00
-5.453185558319091797e+00 -5.895802974700927734e+00 2.039626359939575195e+00
-5.197905063629150391e+00 -6.056673526763916016e+00 1.941209912300109863e+00
-5.481932640075683594e+00 -5.928958415985107422e+00 1.734058618545532227e+00
-5.185610771179199219e+00 -6.038082122802734375e+00 1.628000974655151367e+00
-5.464257240295410156e+00 -5.907773017883300781e+00 1.421862006187438965e+00
-5.176183700561523438e+00 -6.022850513458251953e+00 1.323254466056823730e+00
-5.490142822265625000e+00 -5.933681964874267578e+00 1.126055359840393066e+00
-5.212010383605957031e+00 -6.060256004333496094e+00 1.035302519798278809e+00
-5.453506946563720703e+00 -5.889960765838623047e+00 8.224284648895263672e-01
-4.648601531982421875e+00 -5.401339054107666016e+00 6.623401045799255371e-01
-4.309465885162353516e+00 -5.391314983367919922e+00 5.759389400482177734e-01
-3.970593690872192383e+00 -5.352932453155517578e+00 4.929406344890594482e-01
-5.224719047546386719e+00 -5.638913154602050781e+00 5.065491795539855957e-01
-5.078144550323486328e+00 -5.896273136138916016e+00 4.391473233699798584e-01
-4.726917743682861328e+00 -6.360957622528076172e+00 9.682212024927139282e-03
-5.505024909973144531e+00 -5.877012729644775391e+00 2.373067617416381836e+00
-5.256501197814941406e+00 -6.053711414337158203e+00 2.271710157394409180e+00
-5.523707389831542969e+00 -5.899021148681640625e+00 2.052426338195800781e+00
-5.238156795501708984e+00 -6.028333187103271484e+00 1.942391633987426758e+00
-5.551615238189697266e+00 -5.930899620056152344e+00 1.744556546211242676e+00
-5.187848091125488281e+00 -5.966227531433105469e+00 1.617179751396179199e+00
-5.570404052734375000e+00 -5.948890686035156250e+00 1.439957261085510254e+00
-5.153471469879150391e+00 -5.922516822814941406e+00 1.308133482933044434e+00
-5.586031913757324219e+00 -5.963493824005126953e+00 1.138195991516113281e+00
-5.226303100585937500e+00 -6.001985073089599609e+00 1.030806779861450195e+00
-5.581388473510742188e+00 -5.954369544982910156e+00 8.361882567405700684e-01
-5.104228496551513672e+00 -5.857662200927734375e+00 7.221238017082214355e-01
-4.355631828308105469e+00 -5.381037712097167969e+00 5.776852369308471680e-01
-4.046494483947753906e+00 -5.385875225067138672e+00 4.982513785362243652e-01
-5.236692905426025391e+00 -5.582732200622558594e+00 5.043793320655822754e-01
-5.009240150451660156e+00 -5.744602680206298828e+00 4.301322400569915771e-01
-4.756237030029296875e+00 -6.319050788879394531e+00 9.662664495408535004e-03
-5.561443328857421875e+00 -5.864700794219970703e+00 2.381830692291259766e+00
-5.250349998474121094e+00 -5.972208023071289062e+00 2.253172159194946289e+00
-5.613810539245605469e+00 -5.921993732452392578e+00 2.072364807128906250e+00
-5.221135139465332031e+00 -5.934797286987304688e+00 1.922539830207824707e+00
-5.628253459930419922e+00 -5.939304828643798828e+00 1.757154226303100586e+00
-5.203641891479492188e+00 -5.910751819610595703e+00 1.610767006874084473e+00
-5.623738288879394531e+00 -5.932466030120849609e+00 1.444307088851928711e+00
-5.138202190399169922e+00 -5.832313060760498047e+00 1.295149087905883789e+00
-5.641601085662841797e+00 -5.949229717254638672e+00 1.142059087753295898e+00
-5.169248580932617188e+00 -5.863426208496093750e+00 1.012438416481018066e+00
-5.636307239532470703e+00 -5.939493179321289062e+00 8.389402031898498535e-01
-5.162471294403076172e+00 -5.851619243621826172e+00 7.252702713012695312e-01
-5.224812507629394531e+00 -5.502016067504882812e+00 4.999740123748779297e-01
-4.990210056304931641e+00 -5.652384757995605469e+00 4.255120158195495605e-01
-4.748238086700439453e+00 -6.228512763977050781e+00 9.568590670824050903e-03
-5.641830921173095703e+00 -5.876827239990234375e+00 2.400769948959350586e+00
-5.249795436859130859e+00 -5.898197174072265625e+00 2.237360715866088867e+00
-5.692992210388183594e+00 -5.932191848754882812e+00 2.088118553161621094e+00
-5.252282142639160156e+00 -5.896844863891601562e+00 1.920649290084838867e+00
-5.710616111755371094e+00 -5.952635288238525391e+00 1.771431446075439453e+00
-5.247634410858154297e+00 -5.887487888336181641e+00 1.613171696662902832e+00
-5.714581012725830078e+00 -5.954687595367431641e+00 1.458226442337036133e+00
-5.237580299377441406e+00 -5.872079849243164062e+00 1.311091899871826172e+00
-5.723268985748291016e+00 -5.961657524108886719e+00 1.151164650917053223e+00
-5.189279556274414062e+00 -5.813840866088867188e+00 1.009355664253234863e+00
-5.685050964355468750e+00 -5.917711257934570312e+00 8.407748937606811523e-01
-5.216187953948974609e+00 -5.839883327484130859e+00 7.277689576148986816e-01
-5.241185665130615234e+00 -5.451870441436767578e+00 4.983302354812622070e-01
-5.027460098266601562e+00 -5.624636173248291016e+00 4.257373809814453125e-01
-4.827311992645263672e+00 -6.252293109893798828e+00 9.650446474552154541e-03
-5.711879253387451172e+00 -5.877181053161621094e+00 2.415186405181884766e+00
-5.274293422698974609e+00 -5.853008270263671875e+00 2.232453346252441406e+00
-5.748195171356201172e+00 -5.916613578796386719e+00 2.095010757446289062e+00
-5.268193244934082031e+00 -5.842136859893798828e+00 1.913323044776916504e+00
-5.781773567199707031e+00 -5.953254222869873047e+00 1.782139539718627930e+00
-5.250186443328857422e+00 -5.818083286285400391e+00 1.602951765060424805e+00
-5.779144763946533203e+00 -5.948469638824462891e+00 1.465360045433044434e+00
-5.257646083831787109e+00 -5.822262287139892578e+00 1.307147264480590820e+00
-5.799087047576904297e+00 -5.966912269592285156e+00 1.159028530120849609e+00
-5.272728443145751953e+00 -5.834868431091308594e+00 1.018604040145874023e+00
-5.132279396057128906e+00 -6.111469268798828125e+00 9.586958885192871094e-01
-5.667849063873291016e+00 -5.827804565429687500e+00 8.329266309738159180e-01
-5.257933139801025391e+00 -5.814414024353027344e+00 7.286018729209899902e-01
-5.152774810791015625e+00 -6.131527423858642578e+00 6.683253645896911621e-01
-5.266883373260498047e+00 -5.411742210388183594e+00 4.976069331169128418e-01
-5.041779994964599609e+00 -5.571474075317382812e+00 4.240470826625823975e-01
-4.737462043762207031e+00 -6.058700561523437500e+00 9.396327659487724304e-03
-5.781470298767089844e+00 -5.876210689544677734e+00 2.429320335388183594e+00
-5.315295219421386719e+00 -5.826221942901611328e+00 2.234634399414062500e+00
-5.836043357849121094e+00 -5.933749198913574219e+00 2.113718509674072266e+00
-5.329490661621093750e+00 -5.837687969207763672e+00 1.922539830207824707e+00
-5.148658275604248047e+00 -6.076596736907958984e+00 1.856334805488586426e+00
-5.859320163726806641e+00 -5.959496021270751953e+00 1.794736981391906738e+00
-5.314862251281738281e+00 -5.817584991455078125e+00 1.611768960952758789e+00
-5.178842067718505859e+00 -6.103576183319091797e+00 1.558841705322265625e+00
-5.856966018676757812e+00 -5.955022335052490234e+00 1.475799560546875000e+00
-5.317232131958007812e+00 -5.816101074218750000e+00 1.313064217567443848e+00
-5.142431735992431641e+00 -6.058520793914794922e+00 1.247264504432678223e+00
-5.873100757598876953e+00 -5.969342708587646484e+00 1.166478633880615234e+00
-5.325166225433349609e+00 -5.820698261260986328e+00 1.021815299987792969e+00
-5.180615901947021484e+00 -6.092721939086914062e+00 9.607235193252563477e-01
-5.826337337493896484e+00 -5.917679786682128906e+00 8.508654236793518066e-01
-5.325784206390380859e+00 -5.817294597625732422e+00 7.330440282821655273e-01
-5.122490882873535156e+00 -6.020103931427001953e+00 6.595939397811889648e-01
-5.255870342254638672e+00 -5.334543228149414062e+00 4.934646189212799072e-01
-5.031357765197753906e+00 -5.491845607757568359e+00 4.203283488750457764e-01
-4.832902908325195312e+00 -6.103211402893066406e+00 9.511169977486133575e-03
-5.866155147552490234e+00 -5.889557838439941406e+00 2.449672937393188477e+00
-5.352902889251708984e+00 -5.795619010925292969e+00 2.235452175140380859e+00
-5.223731517791748047e+00 -6.095506668090820312e+00 2.190083980560302734e+00
-5.924315452575683594e+00 -5.950026988983154297e+00 2.132426023483276367e+00
-5.445012092590332031e+00 -5.891218662261962891e+00 1.951135754585266113e+00
-5.194089889526367188e+00 -6.054499626159667969e+00 1.859285473823547363e+00
-5.931642532348632812e+00 -5.959465980529785156e+00 1.805654883384704590e+00
-5.460886955261230469e+00 -5.904258251190185547e+00 1.645034432411193848e+00
-5.207880020141601562e+00 -6.062005043029785156e+00 1.556356668472290039e+00
-5.948980331420898438e+00 -5.974798679351806641e+00 1.489718914031982422e+00
-5.471413135528564453e+00 -5.911498546600341797e+00 1.342155694961547852e+00
-5.187880039215087891e+00 -6.036592960357666016e+00 1.249280095100402832e+00
-5.949457168579101562e+00 -5.973192214965820312e+00 1.174342393875122070e+00
-5.500949859619140625e+00 -5.939250946044921875e+00 1.048532724380493164e+00
-5.203003883361816406e+00 -6.043513774871826172e+00 9.579803347587585449e-01
-4.406032562255859375e+00 -4.420523166656494141e+00 6.394740343093872070e-01
-5.420264720916748047e+00 -5.848040580749511719e+00 7.410953640937805176e-01
-5.132665157318115234e+00 -5.957604885101318359e+00 6.561845541000366211e-01
-5.267363548278808594e+00 -5.280998706817626953e+00 4.914920628070831299e-01
-5.034407615661621094e+00 -5.427929878234863281e+00 4.177928566932678223e-01
-4.830222606658935547e+00 -6.023512840270996094e+00 9.432978928089141846e-03
-5.964159488677978516e+00 -5.914918422698974609e+00 2.475396394729614258e+00
-5.523072242736816406e+00 -5.906731605529785156e+00 2.291338682174682617e+00
-5.257873058319091797e+00 -6.059696197509765625e+00 2.188767910003662109e+00
-5.987547397613525391e+00 -5.940186500549316406e+00 2.142026185989379883e+00
-5.515579700469970703e+00 -5.894592285156250000e+00 1.963424921035766602e+00
-5.211982727050781250e+00 -6.000457763671875000e+00 1.852475881576538086e+00
-6.029860019683837891e+00 -5.984253406524658203e+00 1.824341297149658203e+00
-5.557948112487792969e+00 -5.935718059539794922e+00 1.663270235061645508e+00
-5.165098667144775391e+00 -5.938102245330810547e+00 1.532653927803039551e+00
-6.039357662200927734e+00 -5.991587162017822266e+00 1.503116250038146973e+00
-5.575027942657470703e+00 -5.949794769287109375e+00 1.358591675758361816e+00
-5.211852550506591797e+00 -5.989741802215576172e+00 1.246179103851318359e+00
-6.034519672393798828e+00 -5.984697818756103516e+00 1.183861851692199707e+00
-5.586807727813720703e+00 -5.958196163177490234e+00 1.057909488677978516e+00
-5.129081726074218750e+00 -5.884240150451660156e+00 9.377043247222900391e-01
-4.425301551818847656e+00 -4.385702610015869141e+00 6.383529305458068848e-01
-4.128825664520263672e+00 -4.400214195251464844e+00 5.608189105987548828e-01
-5.109512329101562500e+00 -5.857659816741943359e+00 6.486173868179321289e-01
-5.279816627502441406e+00 -5.228919029235839844e+00 4.896510243415832520e-01
-4.989706993103027344e+00 -5.313962936401367188e+00 4.113695919513702393e-01
-5.048128604888916016e+00 -5.783212184906005859e+00 3.606732785701751709e-01
-4.880329132080078125e+00 -6.010064125061035156e+00 9.458635933697223663e-03
-6.029119491577148438e+00 -5.906405448913574219e+00 2.487268924713134766e+00
-5.536723136901855469e+00 -5.848974704742431641e+00 2.282069444656372070e+00
-5.200721740722656250e+00 -5.920052528381347656e+00 2.149814367294311523e+00
-6.075800895690917969e+00 -5.954214572906494141e+00 2.160487651824951172e+00
-5.611784934997558594e+00 -5.924126625061035156e+00 1.984694600105285645e+00
-5.221047401428222656e+00 -5.936917304992675781e+00 1.842715144157409668e+00
-6.106261730194091797e+00 -5.986155509948730469e+00 1.836308956146240234e+00
-5.640770912170410156e+00 -5.950564384460449219e+00 1.677097439765930176e+00
-5.193003177642822266e+00 -5.896721839904785156e+00 1.530168890953063965e+00
-6.097107887268066406e+00 -5.975095748901367188e+00 1.508336186408996582e+00
-5.648766994476318359e+00 -5.954834938049316406e+00 1.367631316184997559e+00
-5.162958145141601562e+00 -5.860542297363281250e+00 1.225866794586181641e+00
-6.120653152465820312e+00 -5.996075630187988281e+00 1.193519234657287598e+00
-5.645110130310058594e+00 -5.946820735931396484e+00 1.062019944190979004e+00
-5.150636672973632812e+00 -5.836280345916748047e+00 9.350803494453430176e-01
-4.407343864440917969e+00 -4.314624786376953125e+00 6.319316625595092773e-01
-4.104314327239990234e+00 -4.320653915405273438e+00 5.538780689239501953e-01
-3.857699155807495117e+00 -4.368155002593994141e+00 4.862966835498809814e-01
-3.604605197906494141e+00 -4.391589164733886719e+00 4.202129244804382324e-01
-5.280416488647460938e+00 -5.165721893310546875e+00 4.867579638957977295e-01
-4.956182479858398438e+00 -5.213778018951416016e+00 4.059605598449707031e-01
-5.029938697814941406e+00 -5.691501140594482422e+00 3.568717837333679199e-01
-4.903776645660400391e+00 -5.963785171508789062e+00 9.432978928089141846e-03
-6.122459411621093750e+00 -5.924664020538330078e+00 2.510730981826782227e+00
-5.591812610626220703e+00 -5.835036754608154297e+00 2.289975404739379883e+00
-5.238230705261230469e+00 -5.889471530914306641e+00 2.150340795516967773e+00
-6.162360668182373047e+00 -5.965359210968017578e+00 2.178210496902465820e+00
-5.676948070526123047e+00 -5.919737339019775391e+00 1.994856595993041992e+00
-5.274215698242187500e+00 -5.923681735992431641e+00 1.848616957664489746e+00
-6.175186157226562500e+00 -5.979862689971923828e+00 1.845967292785644531e+00
-5.716521263122558594e+00 -5.956839561462402344e+00 1.688720226287841797e+00
-5.248031139373779297e+00 -5.885993480682373047e+00 1.535712361335754395e+00
-6.186013221740722656e+00 -5.988255500793457031e+00 1.521211504936218262e+00
-5.714578151702880859e+00 -5.950655460357666016e+00 1.374698758125305176e+00
-5.231041908264160156e+00 -5.864878177642822266e+00 1.233464479446411133e+00
-6.190069675445556641e+00 -5.990089893341064453e+00 1.199865698814392090e+00
-5.727532863616943359e+00 -5.959979534149169922e+00 1.070626020431518555e+00
-5.207519531250000000e+00 -5.828258991241455078e+00 9.388970136642456055e-01
-4.407990932464599609e+00 -4.262605667114257812e+00 6.282624006271362305e-01
-4.119015216827392578e+00 -4.283188343048095703e+00 5.523048639297485352e-01
-3.873137474060058594e+00 -4.331773281097412109e+00 4.848830699920654297e-01
-3.603436470031738281e+00 -4.335642814636230469e+00 4.169674515724182129e-01
-5.272548675537109375e+00 -5.095087528228759766e+00 4.831416308879852295e-01
-5.031003475189208984e+00 -5.227871894836425781e+00 4.094538986682891846e-01
-4.990832805633544922e+00 -5.577900886535644531e+00 3.516623377799987793e-01
-4.715050220489501953e+00 -5.663072109222412109e+00 9.002930484712123871e-03
-6.202381134033203125e+00 -5.928742408752441406e+00 2.528539657592773438e+00
-5.685124874114990234e+00 -5.860002994537353516e+00 2.313420295715332031e+00
-5.278142929077148438e+00 -5.861521244049072266e+00 2.151920080184936523e+00
-6.239477634429931641e+00 -5.966286659240722656e+00 2.192487478256225586e+00
-5.750390052795410156e+00 -5.923137187957763672e+00 2.007854700088500977e+00
-5.236779212951660156e+00 -5.809466361999511719e+00 1.822966933250427246e+00
-6.285240173339843750e+00 -6.012145996093750000e+00 1.867803096771240234e+00
-5.782319545745849609e+00 -5.951867580413818359e+00 1.697337269783020020e+00
-5.251162528991699219e+00 -5.817250728607177734e+00 1.526154756546020508e+00
-6.276731491088867188e+00 -6.001909255981445312e+00 1.534434914588928223e+00
-5.785362720489501953e+00 -5.950842380523681641e+00 1.382916808128356934e+00
-5.266267776489257812e+00 -5.831937789916992188e+00 1.233309507369995117e+00
-6.303315639495849609e+00 -6.025223731994628906e+00 1.214627742767333984e+00
-5.800646781921386719e+00 -5.962397575378417969e+00 1.077433824539184570e+00
-5.261832714080810547e+00 -5.816812992095947266e+00 9.422366023063659668e-01
-5.146114826202392578e+00 -6.121568679809570312e+00 8.843181133270263672e-01
-4.435501575469970703e+00 -4.236852645874023438e+00 6.284662485122680664e-01
-4.122297763824462891e+00 -4.234290122985839844e+00 5.492509007453918457e-01
-3.884930610656738281e+00 -4.291673183441162109e+00 4.830536544322967529e-01
-3.595938682556152344e+00 -4.273009777069091797e+00 4.130581617355346680e-01
-5.275562286376953125e+00 -5.035769462585449219e+00 4.805773198604583740e-01
-5.023970603942871094e+00 -5.156856060028076172e+00 4.062986373901367188e-01
-5.013563632965087891e+00 -5.534586906433105469e+00 3.508644700050354004e-01
-4.878620147705078125e+00 -5.786946296691894531e+00 9.247276000678539276e-03
-6.286766529083251953e+00 -5.936012744903564453e+00 2.548044443130493164e+00
-5.770188331604003906e+00 -5.875118732452392578e+00 2.333321332931518555e+00
-5.319858551025390625e+00 -5.835441589355468750e+00 2.154288768768310547e+00
-6.304857254028320312e+00 -5.955175876617431641e+00 2.202579736709594727e+00
-5.844519138336181641e+00 -5.946647167205810547e+00 2.027942657470703125e+00
-5.333381652832031250e+00 -5.844125747680664062e+00 1.844077229499816895e+00
-5.156547069549560547e+00 -6.083889007568359375e+00 1.782666563987731934e+00
-6.348305702209472656e+00 -5.998311519622802734e+00 1.875571608543395996e+00
-5.872315406799316406e+00 -5.970758914947509766e+00 1.712967991828918457e+00
-5.316555023193359375e+00 -5.817525863647460938e+00 1.534756541252136230e+00
-5.178728580474853516e+00 -6.099259853363037109e+00 1.480057597160339355e+00
-6.362120628356933594e+00 -6.009263515472412109e+00 1.546266317367553711e+00
-5.861898422241210938e+00 -5.956007003784179688e+00 1.392449498176574707e+00
-5.327282428741455078e+00 -5.827221870422363281e+00 1.239201545715332031e+00
-5.158108711242675781e+00 -6.066385746002197266e+00 1.174432635307312012e+00
-6.366812229156494141e+00 -6.011592388153076172e+00 1.219732403755187988e+00
-5.883050918579101562e+00 -5.973326683044433594e+00 1.085911512374877930e+00
-5.361798763275146484e+00 -5.854709148406982422e+00 9.536865353584289551e-01
-5.177136898040771484e+00 -6.082308769226074219e+00 8.832190036773681641e-01
-4.494698047637939453e+00 -4.240961551666259766e+00 6.331547498703002930e-01
-4.146104335784912109e+00 -4.206788539886474609e+00 5.489732623100280762e-01
-3.870792627334594727e+00 -4.223673820495605469e+00 4.780642390251159668e-01
-3.609800338745117188e+00 -4.236442565917968750e+00 4.116567075252532959e-01
-5.270787715911865234e+00 -4.969761848449707031e+00 4.773555099964141846e-01
-4.915300846099853516e+00 -4.983762741088867188e+00 3.950297534465789795e-01
-5.042702674865722656e+00 -5.498567104339599609e+00 3.505359590053558350e-01
-6.480207920074462891e+00 -6.107973575592041016e+00 2.642965912818908691e-01
-4.917931556701660156e+00 -5.761466026306152344e+00 9.254606440663337708e-03
-6.373576641082763672e+00 -5.944431304931640625e+00 2.568397045135498047e+00
-5.864468574523925781e+00 -5.898278713226318359e+00 2.356766462326049805e+00
-5.368649959564208984e+00 -5.816867828369140625e+00 2.159552574157714844e+00
-5.224861621856689453e+00 -6.099113941192626953e+00 2.111411571502685547e+00
-6.402934551239013672e+00 -5.973902702331542969e+00 2.223995208740234375e+00
-5.898030281066894531e+00 -5.927894115447998047e+00 2.033850908279418945e+00
-5.440516948699951172e+00 -5.888545513153076172e+00 1.868592262268066406e+00
-5.201406955718994141e+00 -6.061021327972412109e+00 1.785284280776977539e+00
-6.424303531646728516e+00 -5.995937347412109375e+00 1.887119412422180176e+00
-5.956537723541259766e+00 -5.982519626617431641e+00 1.726795196533203125e+00
-5.462140083312988281e+00 -5.903675079345703125e+00 1.566296577453613281e+00
-5.205158233642578125e+00 -6.054693698883056641e+00 1.476965546607971191e+00
-6.434874534606933594e+00 -6.003702640533447266e+00 1.554965972900390625e+00
-5.954726696014404297e+00 -5.976527214050292969e+00 1.405762672424316406e+00
-5.492447853088378906e+00 -5.934354782104492188e+00 1.269127249717712402e+00
-5.190070152282714844e+00 -6.028624057769775391e+00 1.173265337944030762e+00
-6.452106952667236328e+00 -6.017673969268798828e+00 1.228975772857666016e+00
-5.949700832366943359e+00 -5.967315196990966797e+00 1.091434955596923828e+00
-5.465800285339355469e+00 -5.895235061645507812e+00 9.657328128814697266e-01
-5.227337360382080078e+00 -6.065486431121826172e+00 8.854172229766845703e-01
-4.527184963226318359e+00 -4.219406604766845703e+00 6.340720653533935547e-01
-4.201376438140869141e+00 -4.210874080657958984e+00 5.528601408004760742e-01
-3.887146711349487305e+00 -4.189616203308105469e+00 4.769000709056854248e-01
-3.592731237411499023e+00 -4.164376735687255859e+00 4.067885279655456543e-01
-5.280006885528564453e+00 -4.917605400085449219e+00 4.754487276077270508e-01
-4.951432228088378906e+00 -4.959161758422851562e+00 3.954805433750152588e-01
-5.049839973449707031e+00 -5.438972949981689453e+00 3.487055897712707520e-01
-6.441480159759521484e+00 -5.997260570526123047e+00 2.612112760543823242e-01
-4.910687923431396484e+00 -5.682003498077392578e+00 9.175193496048450470e-03
-6.475540161132812500e+00 -5.965654850006103516e+00 2.594686031341552734e+00
-5.949009895324707031e+00 -5.910329341888427734e+00 2.376122236251831055e+00
-5.523457050323486328e+00 -5.911406993865966797e+00 2.207191944122314453e+00
-5.259017944335937500e+00 -6.063287258148193359e+00 2.110140085220336914e+00
-6.477243423461914062e+00 -5.969314575195312500e+00 2.237041234970092773e+00
-5.990835666656494141e+00 -5.947729587554931641e+00 2.053230047225952148e+00
-5.525110721588134766e+00 -5.906973838806152344e+00 1.885162591934204102e+00
-5.226336956024169922e+00 -6.014995098114013672e+00 1.781139612197875977e+00
-6.499071598052978516e+00 -5.991528511047363281e+00 1.898247122764587402e+00
-6.029994487762451172e+00 -5.982428550720214844e+00 1.737416028976440430e+00
-5.572743892669677734e+00 -5.949567794799804688e+00 1.587514400482177734e+00
-5.186044216156005859e+00 -5.958112239837646484e+00 1.461140751838684082e+00
-6.515763759613037109e+00 -6.004814147949218750e+00 1.565579414367675781e+00
-6.028411865234375000e+00 -5.976684093475341797e+00 1.414473652839660645e+00
-5.571311473846435547e+00 -5.945958137512207031e+00 1.278895616531372070e+00
-5.181460380554199219e+00 -5.944461345672607422e+00 1.163051605224609375e+00
-6.535529136657714844e+00 -6.020920276641845703e+00 1.237805485725402832e+00
-6.034110069274902344e+00 -5.978158473968505859e+00 1.100169420242309570e+00
-5.594281673431396484e+00 -5.960040092468261719e+00 9.819536805152893066e-01
-5.192573070526123047e+00 -5.950916767120361328e+00 8.733273744583129883e-01
-4.588119506835937500e+00 -4.223890304565429688e+00 6.389644742012023926e-01
-4.232795715332031250e+00 -4.190619945526123047e+00 5.536004900932312012e-01
-3.931201457977294922e+00 -4.185297966003417969e+00 4.791452884674072266e-01
-3.643146276473999023e+00 -4.170795440673828125e+00 4.095914363861083984e-01
-5.302737712860107422e+00 -4.878359317779541016e+00 4.747911989688873291e-01
-4.991703987121582031e+00 -4.938517570495605469e+00 3.962693512439727783e-01
-5.044806480407714844e+00 -5.367125988006591797e+00 3.460774123668670654e-01
-6.441370487213134766e+00 -5.923792362213134766e+00 2.597279846668243408e-01
-4.942167282104492188e+00 -5.648002624511718750e+00 9.169085882604122162e-03
-6.548204421997070312e+00 -5.958734035491943359e+00 2.609102487564086914e+00
-6.008509635925292969e+00 -5.896627902984619141e+00 2.385390996932983398e+00
-5.581502437591552734e+00 -5.900532722473144531e+00 2.215877532958984375e+00
-5.201673984527587891e+00 -5.923351764678955078e+00 2.072508811950683594e+00
-6.574671745300292969e+00 -5.984916687011718750e+00 2.257964134216308594e+00
-6.075779438018798828e+00 -5.958482742309570312e+00 2.069772958755493164e+00
-5.615491390228271484e+00 -5.930241584777832031e+00 1.903548955917358398e+00
-5.213511943817138672e+00 -5.926393032073974609e+00 1.764342546463012695e+00
-6.585592269897460938e+00 -5.996960163116455078e+00 1.912734508514404297e+00
-6.103674411773681641e+00 -5.981660842895507812e+00 1.748036980628967285e+00
-5.644940853118896484e+00 -5.953011512756347656e+00 1.597645521163940430e+00
-5.224455356597900391e+00 -5.928392410278320312e+00 1.461686491966247559e+00
-6.612200260162353516e+00 -6.019078731536865234e+00 1.579846858978271484e+00
-6.112188339233398438e+00 -5.985823154449462891e+00 1.425485730171203613e+00
-5.631486415863037109e+00 -5.936747074127197266e+00 1.284322500228881836e+00
-5.195580959320068359e+00 -5.887336730957031250e+00 1.158090591430664062e+00
-6.643406391143798828e+00 -6.045365810394287109e+00 1.251187920570373535e+00
-6.107534408569335938e+00 -5.977090358734130859e+00 1.106848835945129395e+00
-5.636901855468750000e+00 -5.932079792022705078e+00 9.830271005630493164e-01
-5.219118118286132812e+00 -5.907770156860351562e+00 8.716787099838256836e-01
-4.647069931030273438e+00 -4.225775718688964844e+00 6.435510516166687012e-01
-4.360939025878906250e+00 -4.264819622039794922e+00 5.669268369674682617e-01
-3.995263814926147461e+00 -4.201539039611816406e+00 4.838020503520965576e-01
-3.696417093276977539e+00 -4.179738998413085938e+00 4.126893579959869385e-01
-5.314108848571777344e+00 -4.828954219818115234e+00 4.731474220752716064e-01
-5.027624607086181641e+00 -4.913378715515136719e+00 3.967200815677642822e-01
-5.021179199218750000e+00 -5.276732444763183594e+00 3.422289788722991943e-01
-6.598936557769775391e+00 -5.994380474090576172e+00 2.645932435989379883e-01
-5.241315364837646484e+00 -5.916226863861083984e+00 9.656555950641632080e-03
-6.636007308959960938e+00 -5.964610099792480469e+00 2.629455089569091797e+00
-6.124711513519287109e+00 -5.937331676483154297e+00 2.417014360427856445e+00
-5.675653457641601562e+00 -5.926793575286865234e+00 2.238775968551635742e+00
-5.239849090576171875e+00 -5.893491744995117188e+00 2.073271751403808594e+00
-6.618477821350097656e+00 -5.950942993164062500e+00 2.260425806045532227e+00
-6.143630981445312500e+00 -5.951513767242431641e+00 2.080407857894897461e+00
-5.689514160156250000e+00 -5.935043811798095703e+00 1.916260480880737305e+00
-5.261460781097412109e+00 -5.907409667968750000e+00 1.768269062042236328e+00
-6.656430244445800781e+00 -5.987168788909912109e+00 1.922602534294128418e+00
-6.190240383148193359e+00 -5.992478370666503906e+00 1.762264966964721680e+00
-5.719427585601806641e+00 -5.957916259765625000e+00 1.608349919319152832e+00
-5.258768558502197266e+00 -5.894022941589355469e+00 1.461140751838684082e+00
-6.692943572998046875e+00 -6.017898082733154297e+00 1.590286254882812500e+00
-6.192757129669189453e+00 -5.990728855133056641e+00 1.435676097869873047e+00
-5.713653564453125000e+00 -5.949822425842285156e+00 1.294711351394653320e+00
-5.219083786010742188e+00 -5.841329574584960938e+00 1.155318260192871094e+00
-6.700263977050781250e+00 -6.022365570068359375e+00 1.254912972450256348e+00
-6.208978652954101562e+00 -6.002226829528808594e+00 1.118537664413452148e+00
-5.481838703155517578e+00 -5.698463916778564453e+00 9.498698711395263672e-01
-5.113468170166015625e+00 -5.717094421386718750e+00 8.481584787368774414e-01
-5.194673061370849609e+00 -4.665825843811035156e+00 7.154077887535095215e-01
-4.414954662322998047e+00 -4.264961242675781250e+00 5.705360770225524902e-01
-4.027879714965820312e+00 -4.184124469757080078e+00 4.846335649490356445e-01
-3.757251262664794922e+00 -4.196357250213623047e+00 4.165986478328704834e-01
-5.269380092620849609e+00 -4.729604721069335938e+00 4.665722548961639404e-01
-5.084974288940429688e+00 -4.908787727355957031e+00 3.988611698150634766e-01
-5.074945449829101562e+00 -5.268125057220458984e+00 3.436838686466217041e-01
-6.515067577362060547e+00 -5.845635414123535156e+00 2.597872912883758545e-01
-5.044489860534667969e+00 -5.624150276184082031e+00 9.230172261595726013e-03
-6.656700134277343750e+00 -5.909770488739013672e+00 2.623236179351806641e+00
-6.229822635650634766e+00 -5.965516090393066406e+00 2.444003343582153320e+00
-5.738101482391357422e+00 -5.918870925903320312e+00 2.249040603637695312e+00
-5.270736217498779297e+00 -5.855479717254638672e+00 2.071237802505493164e+00
-4.476436614990234375e+00 -3.975545644760131836e+00 1.520488977432250977e+00
-6.241110324859619141e+00 -5.972150325775146484e+00 2.100968599319458008e+00
-5.750241279602050781e+00 -5.925181865692138672e+00 1.924432158470153809e+00
-5.262317657470703125e+00 -5.835876941680908203e+00 1.756489396095275879e+00
-4.458616733551025391e+00 -3.961111783981323242e+00 1.280755281448364258e+00
-6.254507541656494141e+00 -5.980789184570312500e+00 1.770080208778381348e+00
-5.783924579620361328e+00 -5.951570987701416016e+00 1.616187214851379395e+00
-5.256605148315429688e+00 -5.819322586059570312e+00 1.450591087341308594e+00
-6.756249904632568359e+00 -6.000258445739746094e+00 1.596550107002258301e+00
-6.302140712738037109e+00 -6.022127628326416016e+00 1.452440738677978516e+00
-5.807898044586181641e+00 -5.974152565002441406e+00 1.307735919952392578e+00
-5.263454437255859375e+00 -5.818733692169189453e+00 1.157215118408203125e+00
-4.395847797393798828e+00 -3.902601718902587891e+00 8.188114166259765625e-01
-6.304503917694091797e+00 -6.020176887512207031e+00 1.129070520401000977e+00
-5.428727626800537109e+00 -5.574386596679687500e+00 9.347225427627563477e-01
-5.109755992889404297e+00 -5.642878532409667969e+00 8.417838215827941895e-01
-4.413566589355468750e+00 -3.915578603744506836e+00 6.045139431953430176e-01
-6.278687953948974609e+00 -5.991336822509765625e+00 8.066167831420898438e-01
-4.117465019226074219e+00 -4.224989891052246094e+00 4.922839403152465820e-01
-3.770872831344604492e+00 -4.159924030303955078e+00 4.152709543704986572e-01
-5.303527832031250000e+00 -4.701817035675048828e+00 4.670325219631195068e-01
-4.999388217926025391e+00 -4.767252922058105469e+00 3.898460865020751953e-01
-5.085554599761962891e+00 -5.214717864990234375e+00 3.422289788722991943e-01
-6.659282684326171875e+00 -5.901679515838623047e+00 2.640889286994934082e-01
-4.885966300964355469e+00 -5.380620956420898438e+00 8.879534900188446045e-03
-4.482325077056884766e+00 -3.930461168289184570e+00 1.756833314895629883e+00
-6.291472434997558594e+00 -5.950979709625244141e+00 2.453817605972290039e+00
-5.796610832214355469e+00 -5.906272888183593750e+00 2.257726192474365234e+00
-5.331971168518066406e+00 -5.850906848907470703e+00 2.081153869628906250e+00
-4.484715938568115234e+00 -3.933942317962646484e+00 1.515073537826538086e+00
-6.327773571014404297e+00 -5.981132984161376953e+00 2.117748022079467773e+00
-5.847917079925537109e+00 -5.952311992645263672e+00 1.944861412048339844e+00
-5.336847782135009766e+00 -5.846002578735351562e+00 1.769359827041625977e+00
-4.473284244537353516e+00 -3.925296306610107422e+00 1.278025746345520020e+00
-6.353051185607910156e+00 -6.000827789306640625e+00 1.787514448165893555e+00
-5.869208812713623047e+00 -5.965647220611572266e+00 1.629758834838867188e+00
-5.326720237731933594e+00 -5.824692726135253906e+00 1.460049510002136230e+00
-4.438063621520996094e+00 -3.893019437789916992e+00 1.043081641197204590e+00
-6.370534896850585938e+00 -6.013136386871337891e+00 1.459672451019287109e+00
-5.865234851837158203e+00 -5.959527492523193359e+00 1.312387704849243164e+00
-5.325784206390380859e+00 -5.815511703491210938e+00 1.163051605224609375e+00
-4.433115005493164062e+00 -3.887309789657592773e+00 8.212946653366088867e-01
-6.365852832794189453e+00 -6.004516601562500000e+00 1.133437871932983398e+00
-5.448190689086914062e+00 -5.526124000549316406e+00 9.322178959846496582e-01
-5.080475807189941406e+00 -5.541817188262939453e+00 8.313425183296203613e-01
-4.395610809326171875e+00 -3.851709842681884766e+00 5.988062024116516113e-01
-6.366051197052001953e+00 -6.000505447387695312e+00 8.130948543548583984e-01
-5.257526874542236328e+00 -5.329010486602783203e+00 6.246684193611145020e-01
-3.857013940811157227e+00 -4.202836990356445312e+00 4.219093918800354004e-01
-5.321767807006835938e+00 -4.659983634948730469e+00 4.661119878292083740e-01
-5.087414741516113281e+00 -4.791936874389648438e+00 3.944099843502044678e-01
-5.047978878021240234e+00 -5.113042354583740234e+00 3.375826776027679443e-01
-6.799913883209228516e+00 -5.952219486236572266e+00 2.682125270366668701e-01
-5.224120140075683594e+00 -5.682556152343750000e+00 9.430536068975925446e-03
-4.527385234832763672e+00 -3.921095609664916992e+00 1.765030980110168457e+00
-6.368643283843994141e+00 -5.950360774993896484e+00 2.469629287719726562e+00
-5.841581821441650391e+00 -5.879491806030273438e+00 2.261147975921630859e+00
-5.407775402069091797e+00 -5.861440658569335938e+00 2.096663951873779297e+00
-4.503642082214355469e+00 -3.901907920837402344e+00 1.513350486755371094e+00
-6.397024154663085938e+00 -5.972696781158447266e+00 2.128618955612182617e+00
-5.928282737731933594e+00 -5.960510253906250000e+00 1.959388732910156250e+00
-5.456740379333496094e+00 -5.904166698455810547e+00 1.797063946723937988e+00
-4.466253757476806641e+00 -3.870880365371704102e+00 1.269207358360290527e+00
-6.426285743713378906e+00 -5.995820045471191406e+00 1.797734737396240234e+00
-5.952805042266845703e+00 -5.976814270019531250e+00 1.642757296562194824e+00
-5.480602741241455078e+00 -5.919613361358642578e+00 1.492244482040405273e+00
-4.440283298492431641e+00 -3.847014665603637695e+00 1.038035869598388672e+00
-6.449155807495117188e+00 -6.012948513031005859e+00 1.469205141067504883e+00
-5.953289031982421875e+00 -5.975214481353759766e+00 1.323861598968505859e+00
-5.499252796173095703e+00 -5.931445598602294922e+00 1.192963242530822754e+00
-4.448648452758789062e+00 -3.852903127670288086e+00 8.197771310806274414e-01
-6.474409103393554688e+00 -6.032270908355712891e+00 1.146154284477233887e+00
-5.488308429718017578e+00 -5.498915195465087891e+00 9.332913160324096680e-01
-5.082604885101318359e+00 -5.476298809051513672e+00 8.261768817901611328e-01
-4.423674583435058594e+00 -3.828572034835815430e+00 5.994177460670471191e-01
-6.439187049865722656e+00 -5.995256423950195312e+00 8.177221417427062988e-01
-5.288012981414794922e+00 -5.294535160064697266e+00 6.244189739227294922e-01
-5.199599266052246094e+00 -5.596475601196289062e+00 5.650045275688171387e-01
-5.338185310363769531e+00 -4.616798877716064453e+00 4.650599956512451172e-01
-5.053858757019042969e+00 -4.702143192291259766e+00 3.895643651485443115e-01
-5.055953979492187500e+00 -5.058657169342041016e+00 3.360339403152465820e-01
-6.846138477325439453e+00 -5.918882846832275391e+00 2.685981988906860352e-01
-5.267065048217773438e+00 -5.659178733825683594e+00 9.445196017622947693e-03
-4.623521804809570312e+00 -3.954970598220825195e+00 1.793015956878662109e+00
-6.460183143615722656e+00 -5.962068080902099609e+00 2.490893363952636719e+00
-5.885073184967041016e+00 -5.851019382476806641e+00 2.264043092727661133e+00
-5.516255855560302734e+00 -5.905894756317138672e+00 2.124633073806762695e+00
-4.565056324005126953e+00 -3.906338691711425781e+00 1.525904297828674316e+00
-6.479980468750000000e+00 -5.976151943206787109e+00 2.143980503082275391e+00
-5.997221946716308594e+00 -5.956278800964355469e+00 1.970057487487792969e+00
-5.565543174743652344e+00 -5.948249816894531250e+00 1.820841670036315918e+00
-4.514431953430175781e+00 -3.864384412765502930e+00 1.276136040687561035e+00
-6.506179332733154297e+00 -5.996112823486328125e+00 1.809758186340332031e+00
-6.026302814483642578e+00 -5.976809501647949219e+00 1.652888298034667969e+00
-5.558514118194580078e+00 -5.930355072021484375e+00 1.503521800041198730e+00
-4.494481563568115234e+00 -3.845947504043579102e+00 1.045169591903686523e+00
-6.544701099395751953e+00 -6.027390480041503906e+00 1.482518315315246582e+00
-6.032634735107421875e+00 -5.981001377105712891e+00 1.333320021629333496e+00
-5.572781085968017578e+00 -5.937263488769531250e+00 1.200988173484802246e+00
-4.475215911865234375e+00 -3.828109264373779297e+00 8.203289508819580078e-01
-6.555813312530517578e+00 -6.033396720886230469e+00 1.153989672660827637e+00
-5.551584243774414062e+00 -5.494470119476318359e+00 9.383006691932678223e-01
-5.120194911956787109e+00 -5.449355602264404297e+00 8.268363475799560547e-01
-4.479598522186279297e+00 -3.829151153564453125e+00 6.038004755973815918e-01
-6.449467658996582031e+00 -5.931368827819824219e+00 8.143904805183410645e-01
-5.291350364685058594e+00 -5.233258247375488281e+00 6.210095882415771484e-01
-5.232474327087402344e+00 -5.563013553619384766e+00 5.648570060729980469e-01
-5.338340282440185547e+00 -4.559977531433105469e+00 4.626271724700927734e-01
-5.088496685028076172e+00 -4.676449775695800781e+00 3.900151252746582031e-01
-4.997380256652832031e+00 -4.939065933227539062e+00 3.301204741001129150e-01
-5.087748050689697266e+00 -5.403472900390625000e+00 2.786296606063842773e-01
-6.998628616333007812e+00 -5.976073265075683594e+00 2.731371223926544189e-01
-6.556676387786865234e+00 -6.021521568298339844e+00 1.802564710378646851e-01
-5.286602973937988281e+00 -5.610742568969726562e+00 9.418318979442119598e-03
-4.672615051269531250e+00 -3.947573900222778320e+00 1.802626848220825195e+00
-6.522241115570068359e+00 -5.945651054382324219e+00 2.500707626342773438e+00
-5.871305465698242188e+00 -5.766129016876220703e+00 2.245092630386352539e+00
-5.592923641204833984e+00 -5.914803028106689453e+00 2.140143394470214844e+00
-4.631134510040283203e+00 -3.913915395736694336e+00 1.539935111999511719e+00
-6.567527770996093750e+00 -5.982738018035888672e+00 2.160759925842285156e+00
-6.080234527587890625e+00 -5.965064048767089844e+00 1.985265731811523438e+00
-5.631466388702392578e+00 -5.945163249969482422e+00 1.830440044403076172e+00
-4.597789764404296875e+00 -3.887110233306884766e+00 1.292932868003845215e+00
-6.585593223571777344e+00 -5.994989871978759766e+00 1.821581482887268066e+00
-6.123161792755126953e+00 -5.998795032501220703e+00 1.669327378273010254e+00
-5.654359340667724609e+00 -5.958907127380371094e+00 1.519528269767761230e+00
-4.572147846221923828e+00 -3.864063739776611328e+00 1.057697057723999023e+00
-6.633367061614990234e+00 -6.034246444702148438e+00 1.494187831878662109e+00
-6.120038032531738281e+00 -5.993641853332519531e+00 1.344484090805053711e+00
-5.641816616058349609e+00 -5.937381744384765625e+00 1.207991957664489746e+00
-4.530396938323974609e+00 -3.827423572540283203e+00 8.261234164237976074e-01
-6.638207912445068359e+00 -6.034416675567626953e+00 1.161953568458557129e+00
-5.613591670989990234e+00 -5.488065719604492188e+00 9.430714845657348633e-01
-5.160385608673095703e+00 -5.425038337707519531e+00 8.279353976249694824e-01
-4.560019016265869141e+00 -3.849722385406494141e+00 6.114448308944702148e-01
-6.456997394561767578e+00 -5.865573406219482422e+00 8.107813000679016113e-01
-5.312669277191162109e+00 -5.190246582031250000e+00 6.197622418403625488e-01
-5.258257389068603516e+00 -5.522136211395263672e+00 5.639718770980834961e-01
