-1.337564736604690552e-02 -7.735437750816345215e-01 2.296167425811290741e-02
-4.069406073540449142e-03 -7.597802281379699707e-01 4.287799820303916931e-02
-3.919253125786781311e-02 -7.238155603408813477e-01 6.737230718135833740e-02
-5.103346332907676697e-02 -6.977047324180603027e-01 5.837556347250938416e-02
-8.300252258777618408e-02 -7.103783488273620605e-01 3.360339254140853882e-02
-1.280963867902755737e-01 -7.154668569564819336e-01 4.101863875985145569e-02
-1.123327165842056274e-01 -7.253112196922302246e-01 7.814389653503894806e-03
-1.244130969047546387e+00 -2.052283048629760742e+00 7.122865319252014160e-02
-1.252087235450744629e+00 -2.037902593612670898e+00 1.576062142848968506e-01
-1.240998029708862305e+00 -2.019063472747802734e+00 7.033866643905639648e-02
-1.257182121276855469e+00 -2.018324136734008789e+00 1.566856950521469116e-01
-1.254420638084411621e+00 -2.013107776641845703e+00 7.039800286293029785e-02
-1.254092931747436523e+00 -1.986104488372802734e+00 1.547788977622985840e-01
-1.273688912391662598e+00 -2.016358852386474609e+00 7.078365981578826904e-02
-1.261782288551330566e+00 -1.970625162124633789e+00 6.944867968559265137e-02
-1.311396241188049316e+00 -2.020699977874755859e+00 7.149565219879150391e-02
-1.220893383026123047e+00 -2.038929462432861328e+00 4.812102764844894409e-02
-1.242876887321472168e+00 -2.048651218414306641e+00 1.352262794971466064e-01
-1.228192210197448730e+00 -2.022853612899780273e+00 4.791858419775962830e-02
-1.260131597518920898e+00 -2.048640251159667969e+00 1.357333809137344360e-01
-1.254208087921142578e+00 -2.037416219711303711e+00 4.844493791460990906e-02
-1.271093249320983887e+00 -2.038327932357788086e+00 1.355643421411514282e-01
-1.266685843467712402e+00 -2.029682159423828125e+00 4.844493791460990906e-02
-1.271839380264282227e+00 -2.011923789978027344e+00 1.343247592449188232e-01
-1.277512311935424805e+00 -2.019336938858032227e+00 4.838420450687408447e-02
-1.283621788024902344e+00 -2.003241539001464844e+00 1.342684328556060791e-01
-1.289878726005554199e+00 -2.011460304260253906e+00 4.838420450687408447e-02
-1.205363988876342773e+00 -2.038108587265014648e+00 2.521045692265033722e-02
-1.314183354377746582e+00 -2.021950244903564453e+00 4.882958531379699707e-02
-1.222989797592163086e+00 -2.039249658584594727e+00 2.531691826879978180e-02
-1.258015871047973633e+00 -2.071209669113159180e+00 1.138573065400123596e-01
-1.240674853324890137e+00 -2.040250778198242188e+00 2.542338147759437561e-02
-1.242940306663513184e+00 -2.018372058868408203e+00 1.113699078559875488e-01
-1.252120733261108398e+00 -2.030897617340087891e+00 2.540209144353866577e-02
-1.257946252822875977e+00 -2.014944076538085938e+00 1.116045638918876648e-01
-1.271978378295898438e+00 -2.035047531127929688e+00 2.555113844573497772e-02
-1.287379980087280273e+00 -2.034197568893432617e+00 1.131063923239707947e-01
-1.286581993103027344e+00 -2.030583143234252930e+00 2.559372410178184509e-02
-1.289050340652465820e+00 -2.009444713592529297e+00 1.121677532792091370e-01
-1.299017190933227539e+00 -2.022650718688964844e+00 2.559372410178184509e-02
-1.209889769554138184e+00 -2.042556047439575195e+00 2.900387626141309738e-03
-1.245514273643493652e+00 -2.075216293334960938e+00 9.086320549249649048e-02
-1.315767645835876465e+00 -2.021346330642700195e+00 2.567889541387557983e-02
-1.232183218002319336e+00 -2.051381349563598633e+00 2.923600375652313232e-03
-1.255107164382934570e+00 -2.062412977218627930e+00 9.063811600208282471e-02
-1.253589749336242676e+00 -2.058301448822021484e+00 2.944369800388813019e-03
-1.253570675849914551e+00 -2.031711101531982422e+00 8.962518721818923950e-02
-1.252535462379455566e+00 -2.028448343276977539e+00 2.912604715675115585e-03
-1.266013383865356445e+00 -2.023981094360351562e+00 8.962518721818923950e-02
-1.250631928443908691e+00 -1.997839093208312988e+00 2.879618201404809952e-03
-1.270916700363159180e+00 -2.004359483718872070e+00 8.909995853900909424e-02
-1.295550346374511719e+00 -2.041633129119873047e+00 2.954143797978758812e-03
-1.288053989410400391e+00 -2.004089355468750000e+00 8.943760395050048828e-02
-1.273972392082214355e+00 -1.980659365653991699e+00 2.877174643799662590e-03
-1.312314987182617188e+00 -2.013015270233154297e+00 2.935817698016762733e-03
-5.582814216613769531e+00 -6.962029933929443359e+00 1.090272050350904465e-02
-5.614710807800292969e+00 -6.914445877075195312e+00 1.088195107877254486e-02
-5.604316234588623047e+00 -6.815754413604736328e+00 1.078054774552583694e-02
-5.600601673126220703e+00 -6.726675033569335938e+00 1.069380436092615128e-02
-5.655305862426757812e+00 -6.708239555358886719e+00 1.071946043521165848e-02
-4.559930801391601562e+00 -4.298000812530517578e+00 1.859776973724365234e-01
-5.597028255462646484e+00 -6.557042598724365234e+00 1.053253654390573502e-02
-4.574511528015136719e+00 -4.259042263031005859e+00 1.855030357837677002e-01
-5.677697181701660156e+00 -6.569485664367675781e+00 1.060828380286693573e-02
-4.550528526306152344e+00 -4.184883594512939453e+00 1.834857314825057983e-01
-5.678388595581054688e+00 -6.489369869232177734e+00 1.053497940301895142e-02
-5.762529373168945312e+00 -6.504556179046630859e+00 1.061683613806962967e-02
-5.792315959930419922e+00 -6.457909107208251953e+00 1.059850957244634628e-02
-5.793513298034667969e+00 -6.380048274993896484e+00 1.052887085825204849e-02
-4.559588909149169922e+00 -4.291765213012695312e+00 1.267909109592437744e-01
-5.849471569061279297e+00 -6.362784862518310547e+00 1.055941451340913773e-02
-4.583640098571777344e+00 -4.261664867401123047e+00 1.267301738262176514e-01
-5.878183364868164062e+00 -6.315793037414550781e+00 1.054108794778585434e-02
-4.592030048370361328e+00 -4.217228889465332031e+00 1.262443065643310547e-01
-5.909967899322509766e+00 -6.272327899932861328e+00 1.052887085825204849e-02
-5.886912822723388672e+00 -6.171546936035156250e+00 1.042013708502054214e-02
-5.882296562194824219e+00 -6.091429233551025391e+00 1.034561172127723694e-02
-5.917464733123779297e+00 -6.053076267242431641e+00 1.034194603562355042e-02
-4.544999122619628906e+00 -4.272145271301269531e+00 6.641166657209396362e-02
-5.986148357391357422e+00 -6.048637866973876953e+00 1.039692386984825134e-02
-4.570394039154052734e+00 -4.243496894836425781e+00 6.640102714300155640e-02
-6.010409832000732422e+00 -5.999078273773193359e+00 1.037493348121643066e-02
-4.602241039276123047e+00 -4.220780372619628906e+00 6.648619472980499268e-02
-6.032152652740478516e+00 -5.947342395782470703e+00 1.034927740693092346e-02
-5.961072444915771484e+00 -5.805562496185302734e+00 1.016601733863353729e-02
-5.994421005249023438e+00 -5.766797065734863281e+00 1.016235258430242538e-02
-4.520456790924072266e+00 -4.295708179473876953e+00 7.618709467351436615e-03
-4.542355537414550781e+00 -4.263784408569335938e+00 7.611379493027925491e-03
-4.543962478637695312e+00 -4.216095447540283203e+00 2.327103465795516968e-01
-4.567698478698730469e+00 -4.235152244567871094e+00 7.610157132148742676e-03
-4.589911937713623047e+00 -4.203669071197509766e+00 7.604049053043127060e-03
-8.367236137390136719e+00 -6.062087059020996094e+00 3.066599965095520020e-01
-4.650473117828369141e+00 -4.206957340240478516e+00 7.661470212042331696e-03
-8.410778999328613281e+00 -6.015284061431884766e+00 3.068973124027252197e-01
-6.090765476226806641e+00 -5.442306995391845703e+00 9.979092516005039215e-03
-6.253753185272216797e+00 -5.519308090209960938e+00 1.019045244902372360e-02
-6.176691532135009766e+00 -5.384238243103027344e+00 1.001085713505744934e-02
-6.330863952636718750e+00 -5.450630664825439453e+00 1.020633429288864136e-02
-6.335240364074707031e+00 -5.387066364288330078e+00 1.015990786254405975e-02
-8.332057952880859375e+00 -6.027872562408447266e+00 2.082342803478240967e-01
-6.388085365295410156e+00 -5.364813327789306641e+00 1.019167341291904449e-02
-8.364006042480468750e+00 -5.973148822784423828e+00 2.081128209829330444e-01
-9.027325630187988281e+00 -6.952604293823242188e+00 1.213146746158599854e-01
-6.397792339324951172e+00 -5.306364059448242188e+00 1.015502121299505234e-02
-9.095287322998046875e+00 -6.916451930999755859e+00 1.216553673148155212e-01
-6.403154850006103516e+00 -5.244830131530761719e+00 1.011226139962673187e-02
-9.203125000000000000e+00 -6.909744739532470703e+00 1.225283592939376831e-01
-6.531623363494873047e+00 -5.283426284790039062e+00 1.026375498622655869e-02
-9.106375694274902344e+00 -6.750130653381347656e+00 1.206865459680557251e-01
-6.536572456359863281e+00 -5.221405506134033203e+00 1.022099517285823822e-02
-9.250912666320800781e+00 -6.769714832305908203e+00 1.220492720603942871e-01
-6.509602069854736328e+00 -5.134750843048095703e+00 1.012936513870954514e-02
-8.371478080749511719e+00 -6.047631740570068359e+00 1.099550649523735046e-01
-6.594632625579833984e+00 -5.136497020721435547e+00 1.021244283765554428e-02
-8.365279197692871094e+00 -5.965381145477294922e+00 1.093908101320266724e-01
-6.519806385040283203e+00 -5.014245510101318359e+00 1.004873123019933701e-02
-8.438520431518554688e+00 -5.939841270446777344e+00 1.098698973655700684e-01
-6.531336307525634766e+00 -4.959631919860839844e+00 1.001940947026014328e-02
-9.220459938049316406e+00 -6.406000137329101562e+00 1.195367425680160522e-01
-6.572046756744384766e+00 -4.927261352539062500e+00 1.003529224544763565e-02
-9.292579650878906250e+00 -6.371923446655273438e+00 1.199625954031944275e-01
-6.613409042358398438e+00 -4.895172595977783203e+00 1.005239691585302353e-02
-9.352205276489257812e+00 -6.328795433044433594e+00 1.202287524938583374e-01
-6.669157505035400391e+00 -4.873381137847900391e+00 1.009149104356765747e-02
-9.393357276916503906e+00 -6.272958278656005859e+00 1.202606931328773499e-01
-6.792200088500976562e+00 -4.899646759033203125e+00 1.023199036717414856e-02
-1.243446063995361328e+01 -6.961851119995117188e+00 4.229516685009002686e-01
-9.263010025024414062e+00 -6.104060649871826172e+00 1.181101426482200623e-01
-6.660034179687500000e+00 -4.742449760437011719e+00 9.988866746425628662e-03
-9.449508666992187500e+00 -6.144133090972900391e+00 1.200051829218864441e-01
-6.756912708282470703e+00 -4.749223232269287109e+00 1.009027007967233658e-02
-9.471039772033691406e+00 -6.075777530670166016e+00 1.198028996586799622e-01
-6.346348762512207031e+00 -4.402721405029296875e+00 9.436644613742828369e-03
-9.417733192443847656e+00 -5.960331916809082031e+00 1.186637505888938904e-01
-6.803957462310791016e+00 -4.658603191375732422e+00 1.007438730448484421e-02
-9.444796562194824219e+00 -5.896608352661132812e+00 1.185466349124908447e-01
-6.790985107421875000e+00 -4.588773250579833984e+00 1.001330092549324036e-02
-9.479948997497558594e+00 -5.838020801544189453e+00 1.185359954833984375e-01
-6.679239273071289062e+00 -4.453814506530761719e+00 9.808050468564033508e-03
-1.246922302246093750e+01 -6.970062732696533203e+00 2.892525196075439453e-01
-9.341244697570800781e+00 -5.673844814300537109e+00 1.163641437888145447e-01
-6.705605983734130859e+00 -4.412198066711425781e+00 9.806828573346138000e-03
-9.321841239929199219e+00 -5.584048748016357422e+00 1.156934276223182678e-01
-6.792941093444824219e+00 -4.410176277160644531e+00 9.894792921841144562e-03
-9.474739074707031250e+00 -5.596930027008056641e+00 1.171626150608062744e-01
-6.759245395660400391e+00 -4.329577445983886719e+00 9.806828573346138000e-03
-9.554697990417480469e+00 -5.565362930297851562e+00 1.177268698811531067e-01
-6.788220405578613281e+00 -4.289624691009521484e+00 9.810494258999824524e-03
-9.602540016174316406e+00 -5.514599323272705078e+00 1.178972125053405762e-01
-6.815261363983154297e+00 -4.248421192169189453e+00 9.811715222895145416e-03
-9.640547752380371094e+00 -5.458038806915283203e+00 1.179504469037055969e-01
-6.854830265045166016e+00 -4.214903831481933594e+00 9.831262752413749695e-03
-9.671236038208007812e+00 -5.397320747375488281e+00 1.179184988141059875e-01
-6.876288890838623047e+00 -4.170171737670898438e+00 9.825155138969421387e-03
-9.661240577697753906e+00 -5.314262866973876953e+00 1.173968389630317688e-01
-6.897455692291259766e+00 -4.125334739685058594e+00 9.819046594202518463e-03
-9.603120803833007812e+00 -5.205798625946044922e+00 1.163002699613571167e-01
-6.882154941558837891e+00 -4.059058189392089844e+00 9.761624038219451904e-03
-9.741602897644042969e+00 -5.203784942626953125e+00 1.175884678959846497e-01
-6.902609348297119141e+00 -4.014239788055419922e+00 9.755516424775123596e-03
-9.830865859985351562e+00 -5.174185752868652344e+00 1.182804778218269348e-01
-6.882866859436035156e+00 -3.946442842483520508e+00 9.693208150565624237e-03
-9.723058700561523438e+00 -5.041502475738525391e+00 1.166090071201324463e-01
-6.900858402252197266e+00 -3.900691509246826172e+00 9.684655815362930298e-03
-9.817036628723144531e+00 -5.014040946960449219e+00 1.173648908734321594e-01
-6.946501255035400391e+00 -3.870443344116210938e+00 9.715198539197444916e-03
-9.542112350463867188e+00 -4.800030231475830078e+00 1.137238591909408569e-01
-6.941194057464599609e+00 -3.811862707138061523e+00 9.674881584942340851e-03
-9.893956184387207031e+00 -4.901183128356933594e+00 1.175565347075462341e-01
-6.837810516357421875e+00 -3.700661182403564453e+00 9.498952887952327728e-03
-9.901373863220214844e+00 -4.829423427581787109e+00 1.172903701663017273e-01
-6.965389728546142578e+00 -3.714632749557495117e+00 9.644338861107826233e-03
-9.945243835449218750e+00 -4.775504589080810547e+00 1.174607202410697937e-01
-7.070378303527832031e+00 -3.715081930160522461e+00 9.757959283888339996e-03
-9.951756477355957031e+00 -4.703709125518798828e+00 1.171945556998252869e-01
-7.067286014556884766e+00 -3.658297538757324219e+00 9.722528979182243347e-03
-9.964111328125000000e+00 -4.634966373443603516e+00 1.170029267668724060e-01
-7.110980987548828125e+00 -3.625766515731811523e+00 9.751850739121437073e-03
-9.972359657287597656e+00 -4.564584732055664062e+00 1.167687028646469116e-01
-7.122370719909667969e+00 -3.576680898666381836e+00 9.737189859151840210e-03
-9.983768463134765625e+00 -4.495918750762939453e+00 1.165770739316940308e-01
-7.139700412750244141e+00 -3.530695199966430664e+00 9.731081314384937286e-03
-9.888656616210937500e+00 -4.380307197570800781e+00 1.151504665613174438e-01
-7.160331249237060547e+00 -3.486382484436035156e+00 9.729859419167041779e-03
-9.995102882385253906e+00 -4.354293823242187500e+00 1.160767003893852234e-01
-7.168062210083007812e+00 -3.435898303985595703e+00 9.711533784866333008e-03
-9.966482162475585938e+00 -4.269258975982666016e+00 1.154379174113273621e-01
-7.170921802520751953e+00 -3.383317232131958008e+00 9.687098674476146698e-03
-1.009201812744140625e+01 -4.249938964843750000e+00 1.165877133607864380e-01
-7.167057514190673828e+00 -3.327882766723632812e+00 9.654112160205841064e-03
-9.968230247497558594e+00 -4.125982761383056641e+00 1.148630157113075256e-01
-7.078195095062255859e+00 -3.233975410461425781e+00 9.507505223155021667e-03
-9.971128463745117188e+00 -4.055698871612548828e+00 1.146075055003166199e-01
-7.020377159118652344e+00 -3.155634880065917969e+00 9.403658099472522736e-03
-1.002646827697753906e+01 -4.006685733795166016e+00 1.149588301777839661e-01
-7.231671810150146484e+00 -3.197418689727783203e+00 9.660220704972743988e-03
-1.001363182067871094e+01 -3.930474996566772461e+00 1.145329773426055908e-01
-7.193379878997802734e+00 -3.127863883972167969e+00 9.583251550793647766e-03
-1.013179588317871094e+01 -3.905281782150268555e+00 1.156082525849342346e-01
-7.128763675689697266e+00 -3.047893047332763672e+00 9.472073987126350403e-03
-1.016304969787597656e+01 -3.845871925354003906e+00 1.156934276223182678e-01
-7.154706001281738281e+00 -3.007194042205810547e+00 9.481848217546939850e-03
-1.017145824432373047e+01 -3.777869939804077148e+00 1.155230924487113953e-01
-7.177644252777099609e+00 -2.965146064758300781e+00 9.487956762313842773e-03
-1.014841175079345703e+01 -3.698609828948974609e+00 1.150014102458953857e-01
-7.231839179992675781e+00 -2.935718297958374023e+00 9.535604156553745270e-03
-1.014172744750976562e+01 -3.625835657119750977e+00 1.146713867783546448e-01
-7.098312854766845703e+00 -2.830907583236694336e+00 9.336462244391441345e-03
-1.017510700225830078e+01 -3.567508935928344727e+00 1.147991418838500977e-01
-7.216109275817871094e+00 -2.826691150665283203e+00 9.468409232795238495e-03
-1.016843605041503906e+01 -3.495256900787353516e+00 1.144797429442405701e-01
-7.293051242828369141e+00 -2.805337667465209961e+00 9.546600282192230225e-03
-1.018021583557128906e+01 -3.429606676101684570e+00 1.143732890486717224e-01
-7.193187236785888672e+00 -2.716375350952148438e+00 9.393883869051933289e-03
-1.021625995635986328e+01 -3.372092008590698242e+00 1.145436316728591919e-01
-7.192841529846191406e+00 -2.665932178497314453e+00 9.371892549097537994e-03
-1.023961257934570312e+01 -3.310265302658081055e+00 1.145755574107170105e-01
-7.207183837890625000e+00 -2.621063709259033203e+00 9.369448758661746979e-03
-1.025401115417480469e+01 -3.245563507080078125e+00 1.145116835832595825e-01
-6.855805397033691406e+00 -2.445751667022705078e+00 8.892973884940147400e-03
-9.815254211425781250e+00 -3.040558099746704102e+00 1.094014570116996765e-01
-7.014156341552734375e+00 -2.453831911087036133e+00 9.078676812350749969e-03
-1.012942695617675781e+01 -3.069892644882202148e+00 1.126911640167236328e-01
-6.661120891571044922e+00 -2.284549236297607422e+00 8.603423833847045898e-03
-1.014519691467285156e+01 -3.006829738616943359e+00 1.126592308282852173e-01
-7.119571208953857422e+00 -2.393061161041259766e+00 9.176415391266345978e-03
-1.016921806335449219e+01 -2.946192741394042969e+00 1.127231046557426453e-01
-7.072382926940917969e+00 -2.329000473022460938e+00 9.097003377974033356e-03
-1.019864940643310547e+01 -2.887008428573608398e+00 1.128508597612380981e-01
-7.045615673065185547e+00 -2.272362232208251953e+00 9.044469334185123444e-03
-1.024990463256835938e+01 -2.833702087402343750e+00 1.132234781980514526e-01
-7.030818462371826172e+00 -2.220055103302001953e+00 9.007817134261131287e-03
-1.025841045379638672e+01 -2.768411636352539062e+00 1.131276637315750122e-01
-7.015645503997802734e+00 -2.168015718460083008e+00 8.971164934337139130e-03
-1.026746749877929688e+01 -2.703378200531005859e+00 1.130424886941909790e-01
-7.035516738891601562e+00 -2.126953363418579102e+00 8.979717269539833069e-03
-1.027224063873291016e+01 -2.637343645095825195e+00 1.129147484898567200e-01
-7.044599056243896484e+00 -2.082610130310058594e+00 8.974829688668251038e-03
-1.028531932830810547e+01 -2.573536396026611328e+00 1.128828004002571106e-01
-7.124493598937988281e+00 -2.058779001235961914e+00 9.060351178050041199e-03
-1.030965995788574219e+01 -2.512509346008300781e+00 1.129786148667335510e-01
-7.075399398803710938e+00 -1.997635483741760254e+00 8.982160128653049469e-03
-1.033363819122314453e+01 -2.451280355453491211e+00 1.130744293332099915e-01
-7.100056171417236328e+00 -1.957639575004577637e+00 8.998042903840541840e-03
-1.048294448852539062e+01 -2.418853521347045898e+00 1.145436316728591919e-01
-7.076205730438232422e+00 -1.904421925544738770e+00 8.952839300036430359e-03
-1.260731697082519531e+01 -1.884527564048767090e+00 3.783336281776428223e-01
-1.038050460815429688e+01 -2.328225374221801758e+00 1.132660731673240662e-01
-7.068413734436035156e+00 -1.855888247489929199e+00 8.928405120968818665e-03
-1.263249492645263672e+01 -1.809118866920471191e+00 3.787489533424377441e-01
-1.023045444488525391e+01 -2.228729486465454102e+00 1.114774942398071289e-01
-6.988604545593261719e+00 -1.789169073104858398e+00 8.813561871647834778e-03
-1.031828880310058594e+01 -2.181635141372680664e+00 1.122866123914718628e-01
-7.017886161804199219e+00 -1.750853300094604492e+00 8.836775086820125580e-03
-1.032756233215332031e+01 -2.117478609085083008e+00 1.122440174221992493e-01
-7.023638248443603516e+00 -1.706578850746154785e+00 8.830665610730648041e-03
-1.033447647094726562e+01 -2.052901268005371094e+00 1.121801435947418213e-01
-7.037870407104492188e+00 -1.664371132850646973e+00 8.835553191602230072e-03
-9.365598678588867188e+00 -1.107455730438232422e+00 2.799010276794433594e-01
-1.258599376678466797e+01 -1.951507687568664551e+00 2.578938901424407959e-01
-1.036160659790039062e+01 -1.992283344268798828e+00 1.123398318886756897e-01
-7.008968353271484375e+00 -1.612189650535583496e+00 8.786683902144432068e-03
-1.262146472930908203e+01 -1.877775788307189941e+00 2.583797574043273926e-01
-1.038051891326904297e+01 -1.929947853088378906e+00 1.124143674969673157e-01
-6.990427017211914062e+00 -1.562825798988342285e+00 8.751253597438335419e-03
-1.263076972961425781e+01 -1.800014495849609375e+00 2.583392560482025146e-01
-1.037346553802490234e+01 -1.862859845161437988e+00 1.122120916843414307e-01
-6.956886768341064453e+00 -1.510567665100097656e+00 8.697497658431529999e-03
-1.041721439361572266e+01 -1.804807424545288086e+00 1.125634163618087769e-01
-6.986573219299316406e+00 -1.472182512283325195e+00 8.723153732717037201e-03
-1.019433975219726562e+01 -1.701832294464111328e+00 1.100402399897575378e-01
-6.994495391845703125e+00 -1.429085850715637207e+00 8.721931837499141693e-03
-1.019175624847412109e+01 -1.637187242507934570e+00 1.099018380045890808e-01
-6.920731067657470703e+00 -1.369831681251525879e+00 8.619306609034538269e-03
-9.384448051452636719e+00 -1.103145718574523926e+00 1.913301646709442139e-01
-1.018382072448730469e+01 -1.571875333786010742e+00 1.097102016210556030e-01
-6.992845058441162109e+00 -1.339570283889770508e+00 8.698719553649425507e-03
-9.357256889343261719e+00 -1.041781783103942871e+00 1.906418651342391968e-01
-1.019228553771972656e+01 -1.509212613105773926e+00 1.096995621919631958e-01
-6.995033264160156250e+00 -1.295545101165771484e+00 8.691389113664627075e-03
-1.034787940979003906e+01 -1.467424154281616211e+00 1.112752109766006470e-01
-7.006788253784179688e+00 -1.253304362297058105e+00 8.696275763213634491e-03
-1.028336238861083984e+01 -1.393963456153869629e+00 1.104873791337013245e-01
-6.980841159820556641e+00 -1.204506754875183105e+00 8.654736913740634918e-03
-9.622333526611328125e+00 -1.244279861450195312e+00 1.033011227846145630e-01
-6.989087581634521484e+00 -1.161814451217651367e+00 8.655958808958530426e-03
-9.463055610656738281e+00 -1.164693951606750488e+00 1.015125513076782227e-01
-6.983247756958007812e+00 -1.116855382919311523e+00 8.640076033771038055e-03
-9.353820800781250000e+00 -1.093029022216796875e+00 1.002669259905815125e-01
-6.937583923339843750e+00 -1.065937161445617676e+00 8.575324900448322296e-03
-1.262499237060546875e+01 -1.865070581436157227e+00 4.791139662265777588e-01
-9.347431182861328125e+00 -1.034185051918029785e+00 1.001285240054130554e-01
-6.959822654724121094e+00 -1.025681495666503906e+00 8.594872429966926575e-03
-9.606212615966796875e+00 -1.003191471099853516e+00 1.028326898813247681e-01
-6.982818603515625000e+00 -9.853329062461853027e-01 8.615641854703426361e-03
-1.006597709655761719e+01 -9.888069033622741699e-01 1.076874062418937683e-01
-6.905486583709716797e+00 -9.312423467636108398e-01 8.513016626238822937e-03
-1.008280849456787109e+01 -9.280327558517456055e-01 1.078045144677162170e-01
-6.904127597808837891e+00 -8.879606127738952637e-01 8.504464291036128998e-03
-1.010724163055419922e+01 -8.677735328674316406e-01 1.080067902803421021e-01
-6.904483318328857422e+00 -8.449735641479492188e-01 8.498355746269226074e-03
-9.410668373107910156e+00 -1.096446275711059570e+00 3.556870818138122559e-01
-9.999739646911621094e+00 -7.967656254768371582e-01 1.068037599325180054e-01
-6.904571056365966797e+00 -8.020156621932983398e-01 8.492246270179748535e-03
-9.368547439575195312e+00 -1.033314585685729980e+00 3.538487851619720459e-01
-1.009020328521728516e+01 -7.416975498199462891e-01 1.077193394303321838e-01
-6.929242610931396484e+00 -7.618205547332763672e-01 8.516681380569934845e-03
-1.009755802154541016e+01 -6.799728274345397949e-01 1.077512800693511963e-01
-6.907925128936767578e+00 -7.166064381599426270e-01 8.484915830194950104e-03
-9.983766555786132812e+00 -6.107972860336303711e-01 1.064950153231620789e-01
-6.941055297851562500e+00 -6.770220398902893066e-01 8.520347066223621368e-03
-9.816595077514648438e+00 -5.401325225830078125e-01 1.046745032072067261e-01
-6.925161838531494141e+00 -6.326003670692443848e-01 8.495911955833435059e-03
-9.840698242187500000e+00 -4.809138178825378418e-01 1.048980727791786194e-01
-6.908985137939453125e+00 -5.883993506431579590e-01 8.471477776765823364e-03
-9.879428863525390625e+00 -4.220598638057708740e-01 1.052813455462455750e-01
-6.832713603973388672e+00 -5.396961569786071777e-01 8.373738266527652740e-03
-9.860847473144531250e+00 -3.606653213500976562e-01 1.050577610731124878e-01
-6.766081809997558594e+00 -4.926775991916656494e-01 8.288217708468437195e-03
-9.853878974914550781e+00 -2.998797595500946045e-01 1.049619466066360474e-01
-6.838821887969970703e+00 -4.558075964450836182e-01 8.373738266527652740e-03
-9.846537590026855469e+00 -2.391933053731918335e-01 1.048661321401596069e-01
-6.859457492828369141e+00 -4.149236083030700684e-01 8.395729586482048035e-03
-9.848819732666015625e+00 -1.787897497415542603e-01 1.048767790198326111e-01
-6.877851009368896484e+00 -3.736950159072875977e-01 8.415278047323226929e-03
-9.875727653503417969e+00 -1.186675354838371277e-01 1.051535829901695251e-01
-6.920966625213623047e+00 -3.334594368934631348e-01 8.465369231998920441e-03
-9.877269744873046875e+00 -5.807484686374664307e-02 1.051642298698425293e-01
-6.662112712860107422e+00 -2.800260484218597412e-01 8.146497420966625214e-03
-9.907439231872558594e+00 2.539724810048937798e-03 1.054836213588714600e-01
-6.172022342681884766e+00 -2.214976102113723755e-01 7.545405533164739609e-03
-9.883238792419433594e+00 6.317717581987380981e-02 1.052281111478805542e-01
-6.767002582550048828e+00 -2.012832313776016235e-01 8.271113969385623932e-03
-9.881664276123046875e+00 1.238058656454086304e-01 1.052174568176269531e-01
-6.788104534149169922e+00 -1.602298617362976074e-01 8.295548148453235626e-03
-9.856724739074707031e+00 1.839883923530578613e-01 1.049619466066360474e-01
-6.821954727172851562e+00 -1.191521063446998596e-01 8.335865102708339691e-03
-9.817423820495605469e+00 2.435224056243896484e-01 1.045573875308036804e-01
-6.828557014465332031e+00 -7.735910266637802124e-02 8.343195542693138123e-03
-9.867716789245605469e+00 3.053647279739379883e-01 1.051109954714775085e-01
-6.801903724670410156e+00 -3.531821444630622864e-02 8.310209028422832489e-03
-5.469724655151367188e+00 6.003908514976501465e-01 1.633126735687255859e-01
-9.818692207336425781e+00 3.641642630100250244e-01 1.046106144785881042e-01
-6.759992122650146484e+00 6.378518417477607727e-03 8.258895948529243469e-03
-5.446079730987548828e+00 6.316379904747009277e-01 1.627193540334701538e-01
-9.756333351135253906e+00 4.218122959136962891e-01 1.039718464016914368e-01
-6.709827423095703125e+00 4.750296100974082947e-02 8.197810500860214233e-03
-5.408367156982421875e+00 6.609202623367309570e-01 1.617107093334197998e-01
-9.717606544494628906e+00 4.798925220966339111e-01 1.035885736346244812e-01
-6.699410438537597656e+00 8.854064345359802246e-02 8.185592480003833771e-03
-9.905174255371093750e+00 5.501001477241516113e-01 1.056220233440399170e-01
-6.732734203338623047e+00 1.303036808967590332e-01 8.227131329476833344e-03
-9.645114898681640625e+00 5.950425267219543457e-01 1.028859168291091919e-01
-6.726809501647949219e+00 1.714850813150405884e-01 8.221022784709930420e-03
-5.503040313720703125e+00 5.737199783325195312e-01 1.120327189564704895e-01
-9.588406562805175781e+00 6.506247520446777344e-01 1.023216620087623596e-01
-6.684651374816894531e+00 2.114604562520980835e-01 8.170931600034236908e-03
-5.504384994506835938e+00 6.080240011215209961e-01 1.121339350938796997e-01
-9.628111839294433594e+00 7.126938104629516602e-01 1.027901023626327515e-01
-6.730194568634033203e+00 2.542469799518585205e-01 8.228353224694728851e-03
-5.481682777404785156e+00 6.395854353904724121e-01 1.117492988705635071e-01
-9.642496109008789062e+00 7.732760906219482422e-01 1.029923856258392334e-01
-6.745491504669189453e+00 2.962838709354400635e-01 8.249122649431228638e-03
-5.462769985198974609e+00 6.713789701461791992e-01 1.114456206560134888e-01
-9.560858726501464844e+00 8.258010745048522949e-01 1.021726131439208984e-01
-6.720575332641601562e+00 3.365176022052764893e-01 8.221022784709930420e-03
-9.524745941162109375e+00 8.815929293632507324e-01 1.018425747752189636e-01
-6.684437751770019531e+00 3.758392930030822754e-01 8.179483935236930847e-03
-9.466417312622070312e+00 9.348109364509582520e-01 1.012783274054527283e-01
-6.709951400756835938e+00 4.185905158519744873e-01 8.213692344725131989e-03
-5.498488426208496094e+00 5.770654678344726562e-01 5.886343494057655334e-02
-6.678324699401855469e+00 4.577709436416625977e-01 8.178262040019035339e-03
-5.524168491363525391e+00 6.111242771148681641e-01 2.611302733421325684e-01
-5.494843959808349609e+00 6.107926964759826660e-01 5.886343494057655334e-02
-6.671401500701904297e+00 4.984417557716369629e-01 8.173375390470027924e-03
-5.532220363616943359e+00 6.463995575904846191e-01 2.616934478282928467e-01
-5.496951580047607422e+00 6.451963186264038086e-01 5.892731621861457825e-02
-6.682171821594238281e+00 5.404960513114929199e-01 8.190480060875415802e-03
-5.452201366424560547e+00 6.738838553428649902e-01 5.849081650376319885e-02
-6.583091259002685547e+00 5.731601119041442871e-01 8.073193021118640900e-03
-5.459863185882568359e+00 7.088701128959655762e-01 5.861856788396835327e-02
-6.489839076995849609e+00 6.051860451698303223e-01 7.963237352669239044e-03
-9.375063896179199219e+00 1.275733947753906250e+00 1.007353663444519043e-01
-6.455156326293945312e+00 6.419279575347900391e-01 7.925364188849925995e-03
-9.368048667907714844e+00 1.333374977111816406e+00 1.007460057735443115e-01
-5.482486724853515625e+00 5.791955590248107910e-01 6.735398899763822556e-03
-5.489094257354736328e+00 6.120327115058898926e-01 2.073496878147125244e-01
-9.357712745666503906e+00 1.390537261962890625e+00 1.007247194647789001e-01
-5.484792232513427734e+00 6.134914755821228027e-01 6.742728874087333679e-03
-5.476303100585937500e+00 6.446501612663269043e-01 2.070120424032211304e-01
-9.348015785217285156e+00 1.447775840759277344e+00 1.007140651345252991e-01
-5.466028213500976562e+00 6.453751325607299805e-01 6.724403239786624908e-03
-9.359688758850097656e+00 1.508448243141174316e+00 1.009376496076583862e-01
-5.465934753417968750e+00 6.793953180313110352e-01 6.729290354996919632e-03
-9.250648498535156250e+00 1.549168825149536133e+00 9.986236691474914551e-02
-5.482486724853515625e+00 7.156389951705932617e-01 6.754946429282426834e-03
-9.270524978637695312e+00 1.611036896705627441e+00 1.001817584037780762e-01
-6.488582134246826172e+00 8.874912261962890625e-01 8.001111447811126709e-03
-9.286052703857421875e+00 1.672497749328613281e+00 1.004585623741149902e-01
-6.576067447662353516e+00 9.405974149703979492e-01 8.115953765809535980e-03
-9.196975708007812500e+00 1.714781999588012695e+00 9.960686415433883667e-02
-6.538523197174072266e+00 9.762045145034790039e-01 8.076858706772327423e-03
-9.250101089477539062e+00 1.783486247062683105e+00 1.002988666296005249e-01
-6.519565105438232422e+00 1.014307260513305664e+00 8.060975931584835052e-03
-9.210543632507324219e+00 1.834545612335205078e+00 9.999012202024459839e-02
-6.629702091217041016e+00 1.073146581649780273e+00 8.205140940845012665e-03
-9.188340187072753906e+00 1.888811230659484863e+00 9.987301379442214966e-02
-6.523391246795654297e+00 1.097055315971374512e+00 8.081745356321334839e-03
-9.233312606811523438e+00 1.957180500030517578e+00 1.004904955625534058e-01
-6.616034030914306641e+00 1.154422521591186523e+00 8.205140940845012665e-03
-9.183031082153320312e+00 2.005477666854858398e+00 1.000752970576286316e-01
-6.486804485321044922e+00 1.172932267189025879e+00 8.053645491600036621e-03
-9.171527862548828125e+00 2.062005281448364258e+00 1.000859364867210388e-01
-6.507990360260009766e+00 1.218047499656677246e+00 8.089075796306133270e-03
-9.486042976379394531e+00 2.193949699401855469e+00 1.036631017923355103e-01
-6.502357482910156250e+00 1.258336782455444336e+00 8.091518655419349670e-03
-9.480185508728027344e+00 2.253964185714721680e+00 1.037482768297195435e-01
-6.527854919433593750e+00 1.304875493049621582e+00 8.133058436214923859e-03
-9.232072830200195312e+00 2.254911422729492188e+00 1.011825129389762878e-01
-6.486426353454589844e+00 1.338036060333251953e+00 8.091518655419349670e-03
-9.347061157226562500e+00 2.343863487243652344e+00 1.025984659790992737e-01
-6.478094100952148438e+00 1.377810835838317871e+00 8.091518655419349670e-03
-9.361556053161621094e+00 2.408646821975708008e+00 1.029178574681282043e-01
-6.498823165893554688e+00 1.423954725265502930e+00 8.128170855343341827e-03
-9.371739387512207031e+00 2.472675561904907227e+00 1.031946688890457153e-01
-6.468502521514892578e+00 1.458963513374328613e+00 8.101293817162513733e-03
-9.365077972412109375e+00 2.532482147216796875e+00 1.032904833555221558e-01
-6.473066806793212891e+00 1.501790046691894531e+00 8.118397556245326996e-03
-9.347434997558593750e+00 2.589363574981689453e+00 1.032691895961761475e-01
-6.481238842010498047e+00 1.545655250549316406e+00 8.140387944877147675e-03
-9.435266494750976562e+00 2.676137685775756836e+00 1.044189855456352234e-01
-6.517282962799072266e+00 1.596577525138854980e+00 8.197810500860214233e-03
-9.512778282165527344e+00 2.761298418045043945e+00 1.054623201489448547e-01
-6.500575542449951172e+00 1.634829521179199219e+00 8.189258165657520294e-03
-9.250261306762695312e+00 2.746748685836791992e+00 1.027368679642677307e-01
-6.494294643402099609e+00 1.675684809684753418e+00 8.194144815206527710e-03
-9.392064094543457031e+00 2.851680994033813477e+00 1.045041605830192566e-01
-6.507092475891113281e+00 1.721640229225158691e+00 8.223466575145721436e-03
-9.469890594482421875e+00 2.938893556594848633e+00 1.055687889456748962e-01
-6.516674518585205078e+00 1.767030358314514160e+00 8.249122649431228638e-03
-9.448819160461425781e+00 2.996037483215332031e+00 1.055368483066558838e-01
-6.546176910400390625e+00 1.818222761154174805e+00 8.300434798002243042e-03
-9.563441276550292969e+00 3.097088813781738281e+00 1.070273295044898987e-01
-6.540668964385986328e+00 1.859996318817138672e+00 8.307765237987041473e-03
-9.570840835571289062e+00 3.164499998092651367e+00 1.073254272341728210e-01
-6.518571376800537109e+00 1.897020459175109863e+00 8.294327184557914734e-03
-9.591035842895507812e+00 3.236594438552856445e+00 1.077725738286972046e-01
-6.500099658966064453e+00 1.934984803199768066e+00 8.285774849355220795e-03
-9.599360466003417969e+00 3.305149316787719727e+00 1.080919653177261353e-01
-6.479494094848632812e+00 1.972211480140686035e+00 8.274778723716735840e-03
-9.636450767517089844e+00 3.384198665618896484e+00 1.087413877248764038e-01
-6.499736309051513672e+00 2.022031545639038086e+00 8.316317573189735413e-03
-9.613621711730957031e+00 3.442589044570922852e+00 1.087201014161109924e-01
-6.456710338592529297e+00 2.052181959152221680e+00 8.277221582829952240e-03
-9.590437889099121094e+00 3.500826120376586914e+00 1.086988002061843872e-01
-6.472531318664550781e+00 2.101023435592651367e+00 8.313873782753944397e-03
-9.660622596740722656e+00 3.593772888183593750e+00 1.097421422600746155e-01
-6.494639396667480469e+00 2.152338027954101562e+00 8.359078317880630493e-03
-9.625299453735351562e+00 3.648020505905151367e+00 1.095930933952331543e-01
-6.486046791076660156e+00 2.193749904632568359e+00 8.365186862647533417e-03
-9.612062454223632812e+00 3.710612773895263672e+00 1.096995621919631958e-01
-6.493260860443115234e+00 2.240682601928710938e+00 8.392064832150936127e-03
-9.639367103576660156e+00 3.789276123046875000e+00 1.102744564414024353e-01
-6.494482517242431641e+00 2.285794258117675781e+00 8.411612361669540405e-03
-9.601081848144531250e+00 3.842406511306762695e+00 1.101041212677955627e-01
-6.477511405944824219e+00 2.324587345123291016e+00 8.407947607338428497e-03
-9.842177391052246094e+00 4.009130954742431641e+00 1.131489574909210205e-01
-6.462186813354492188e+00 2.363945484161376953e+00 8.406725712120532990e-03
-9.438663482666015625e+00 3.912457466125488281e+00 1.087839752435684204e-01
-6.408205509185791016e+00 2.388881206512451172e+00 8.355412632226943970e-03
-9.478974342346191406e+00 3.997497558593750000e+00 1.095292121171951294e-01
-6.412124156951904297e+00 2.435257196426391602e+00 8.379847742617130280e-03
-1.003597068786621094e+01 4.305116176605224609e+00 1.162683293223381042e-01
-6.395195960998535156e+00 2.473834037780761719e+00 8.377403952181339264e-03
-9.715161323547363281e+00 4.238266944885253906e+00 1.128508597612380981e-01
-6.397574424743652344e+00 2.519990921020507812e+00 8.400617167353630066e-03
-9.730105400085449219e+00 4.316043853759765625e+00 1.133299469947814941e-01
-6.412620544433593750e+00 2.571480512619018555e+00 8.440934121608734131e-03
-9.604992866516113281e+00 4.331271648406982422e+00 1.121801435947418213e-01
-6.402276515960693359e+00 2.613046646118164062e+00 8.448264561593532562e-03
-9.733675956726074219e+00 4.461370468139648438e+00 1.140006631612777710e-01
-6.404592990875244141e+00 2.659952163696289062e+00 8.472699671983718872e-03
-9.850241661071777344e+00 4.588142395019531250e+00 1.156934276223182678e-01
-6.421312332153320312e+00 2.713211536407470703e+00 8.516681380569934845e-03
-9.833653450012207031e+00 4.654057025909423828e+00 1.158318221569061279e-01
-6.462424755096435547e+00 2.777436971664428711e+00 8.593650534749031067e-03
-9.662524223327636719e+00 4.645845890045166016e+00 1.141497045755386353e-01
-6.434265136718750000e+00 2.812231540679931641e+00 8.578989654779434204e-03
-9.632039070129394531e+00 4.704168796539306641e+00 1.141284182667732239e-01
-6.418715953826904297e+00 2.852470636367797852e+00 8.581432513892650604e-03
-9.825152397155761719e+00 4.873374462127685547e+00 1.167687028646469116e-01
-6.391068458557128906e+00 2.887272834777832031e+00 8.567994460463523865e-03
-9.951350212097167969e+00 5.012286663055419922e+00 1.186318099498748779e-01
-6.359600543975830078e+00 2.920173883438110352e+00 8.549667894840240479e-03
-9.959580421447753906e+00 5.093285083770751953e+00 1.191002428531646729e-01
-6.355155944824218750e+00 2.965483665466308594e+00 8.567994460463523865e-03
-9.894416809082031250e+00 5.136791706085205078e+00 1.186956837773323059e-01
-6.325997352600097656e+00 2.999281406402587891e+00 8.553333580493927002e-03
-1.021125507354736328e+01 5.381079673767089844e+00 1.228903308510780334e-01
-6.339908599853515625e+00 3.053662538528442383e+00 8.597315289080142975e-03
-1.022742366790771484e+01 5.470043182373046875e+00 1.234865263104438782e-01
-6.333628177642822266e+00 3.098658323287963867e+00 8.614419959485530853e-03
-1.003283977508544922e+01 5.445403575897216797e+00 1.215382516384124756e-01
-6.347630977630615234e+00 3.153926372528076172e+00 8.659623563289642334e-03
-9.824059486389160156e+00 5.410385608673095703e+00 1.194089874625205994e-01
-6.448687553405761719e+00 3.253626585006713867e+00 8.824557997286319733e-03
-1.006040954589843750e+01 5.621276378631591797e+00 1.226986944675445557e-01
-6.429492473602294922e+00 3.293589830398559570e+00 8.825778961181640625e-03
-1.054506587982177734e+01 5.977276802062988281e+00 1.290545463562011719e-01
-6.403839111328125000e+00 3.330209970474243164e+00 8.818448521196842194e-03
-1.035475540161132812e+01 5.953647136688232422e+00 1.271701455116271973e-01
-6.382400512695312500e+00 3.368973731994628906e+00 8.817227557301521301e-03
-1.025497245788574219e+01 5.980298042297363281e+00 1.263929605484008789e-01
-6.267290115356445312e+00 3.357543468475341797e+00 8.686501532793045044e-03
-1.005455398559570312e+01 5.946394443511962891e+00 1.243701651692390442e-01
-6.357269763946533203e+00 3.456116914749145508e+00 8.840439841151237488e-03
-1.043378925323486328e+01 6.257408618927001953e+00 1.295336335897445679e-01
-6.332441329956054688e+00 3.493127346038818359e+00 8.835553191602230072e-03
-1.044475173950195312e+01 6.351445198059082031e+00 1.301511079072952271e-01
-6.350157260894775391e+00 3.553893566131591797e+00 8.890531025826931000e-03
-1.067966175079345703e+01 6.584392070770263672e+00 1.335792243480682373e-01
-6.325622558593750000e+00 3.591309070587158203e+00 8.886865340173244476e-03
-1.022950553894042969e+01 6.393811225891113281e+00 1.284370571374893188e-01
-6.355462074279785156e+00 3.659997463226318359e+00 8.960168808698654175e-03
-1.048656082153320312e+01 6.644308090209960938e+00 1.321739107370376587e-01
-6.360517024993896484e+00 3.715064287185668945e+00 8.999264799058437347e-03
-1.033537483215332031e+01 6.637740135192871094e+00 1.307792365550994873e-01
-6.319533824920654297e+00 3.743319272994995117e+00 8.973608724772930145e-03
-1.060703945159912109e+01 6.904506683349609375e+00 1.347503215074539185e-01
-6.273300647735595703e+00 3.768122196197509766e+00 8.940622210502624512e-03
-6.314971446990966797e+00 3.846076011657714844e+00 9.033473208546638489e-03
-6.278490066528320312e+00 3.876870393753051758e+00 9.015147574245929718e-03
-6.248650550842285156e+00 3.911607265472412109e+00 9.006595239043235779e-03
-6.268437862396240234e+00 3.977735996246337891e+00 9.070125408470630646e-03
-6.263257026672363281e+00 4.028565883636474609e+00 9.098225273191928864e-03
-6.328892707824707031e+00 4.125900745391845703e+00 9.230172261595726013e-03
-6.316807270050048828e+00 4.173476696014404297e+00 9.249719791114330292e-03
-6.306868076324462891e+00 4.222727775573730469e+00 9.272932074964046478e-03
-6.319732666015625000e+00 4.287734508514404297e+00 9.330353699624538422e-03
-6.296600818634033203e+00 4.328696727752685547e+00 9.335240349173545837e-03
-6.264998435974121094e+00 4.363821506500244141e+00 9.327909909188747406e-03
-6.257713794708251953e+00 4.416018486022949219e+00 9.357231669127941132e-03
-6.219924449920654297e+00 4.446771144866943359e+00 9.341349825263023376e-03
-6.279991626739501953e+00 4.548201084136962891e+00 9.473295882344245911e-03
-6.281799316406250000e+00 4.608534812927246094e+00 9.518500417470932007e-03
-6.224508285522460938e+00 4.625520229339599609e+00 9.474517777562141418e-03
-6.340622901916503906e+00 4.772473812103271484e+00 9.695651009678840637e-03
-6.291338443756103516e+00 4.796133041381835938e+00 9.665107354521751404e-03
-6.289495468139648438e+00 4.856035232543945312e+00 9.707869030535221100e-03
-6.260368824005126953e+00 4.895151615142822266e+00 9.709089994430541992e-03
-6.271764755249023438e+00 4.966373920440673828e+00 9.773841127753257751e-03
-6.202946662902832031e+00 4.974109172821044922e+00 9.713976643979549408e-03
-6.256925582885742188e+00 5.080786705017089844e+00 9.847145527601242065e-03
-6.187011718750000000e+00 5.087326526641845703e+00 9.786059148609638214e-03
-6.198715686798095703e+00 5.161025047302246094e+00 9.854475967586040497e-03
-6.184516906738281250e+00 5.213787555694580078e+00 9.882575832307338715e-03
-6.182833194732666016e+00 5.277606487274169922e+00 9.931445121765136719e-03
-6.372014522552490234e+00 5.507032394409179688e+00 1.028941106051206589e-02
-6.211673736572265625e+00 5.435396194458007812e+00 1.008416153490543365e-02
-6.182696819305419922e+00 5.477386474609375000e+00 1.009149104356765747e-02
-6.241281032562255859e+00 5.598015308380126953e+00 1.024298649281263351e-02
-6.182384490966796875e+00 5.614021301269531250e+00 1.020266953855752945e-02
-6.172114849090576172e+00 5.674183845520019531e+00 1.024298649281263351e-02
-6.230147838592529297e+00 5.798472404479980469e+00 1.039814669638872147e-02
-6.117303371429443359e+00 5.763898849487304688e+00 1.026864256709814072e-02
-6.233776569366455078e+00 5.946272373199462891e+00 1.052520610392093658e-02
-6.248247146606445312e+00 6.033730506896972656e+00 1.061194948852062225e-02
-6.150326251983642578e+00 6.012536048889160156e+00 1.050810236483812332e-02
-6.131087303161621094e+00 6.067746162414550781e+00 1.053864508867263794e-02
-6.107870101928710938e+00 6.119407176971435547e+00 1.056308019906282425e-02
-6.103204727172851562e+00 6.190237522125244141e+00 1.062050182372331619e-02
-6.083247661590576172e+00 6.246195793151855469e+00 1.065226644277572632e-02
-6.255567550659179688e+00 6.502483844757080078e+00 1.102367229759693146e-02
-6.225883960723876953e+00 6.551617622375488281e+00 1.104199700057506561e-02
-6.219786643981933594e+00 6.626151561737060547e+00 1.110308431088924408e-02
-6.247003078460693359e+00 6.737520217895507812e+00 1.122525800019502640e-02
-6.278487682342529297e+00 6.855369091033935547e+00 1.135720405727624893e-02
-6.160498619079589844e+00 6.809965610504150391e+00 1.121914852410554886e-02
-1.550685524940490723e+00 2.409944057464599609e+00 8.505312353372573853e-02
-1.499441146850585938e+00 2.362029314041137695e+00 8.303581923246383667e-02
-1.485980868339538574e+00 2.372879505157470703e+00 8.309515565633773804e-02
-1.523993611335754395e+00 2.372042417526245117e+00 5.708931386470794678e-02
-1.544518232345581055e+00 2.434857368469238281e+00 1.627222895622253418e-01
-1.508875131607055664e+00 2.380504369735717773e+00 5.706907063722610474e-02
-1.523193717002868652e+00 2.434132099151611328e+00 1.620461642742156982e-01
-1.512424707412719727e+00 2.450229167938232422e+00 1.624969094991683960e-01
-1.495804309844970703e+00 2.456904649734497070e+00 1.623278707265853882e-01
-1.491302728652954102e+00 2.451436519622802734e+00 5.810153484344482422e-02
-1.535467863082885742e+00 2.423335552215576172e+00 1.347890347242355347e-01
-1.527981877326965332e+00 2.444570064544677734e+00 1.354460865259170532e-01
-1.501944541931152344e+00 2.436043739318847656e+00 1.344605088233947754e-01
-1.479702711105346680e+00 2.433264970779418945e+00 1.338034570217132568e-01
-1.471423625946044922e+00 2.453434705734252930e+00 1.344135701656341553e-01
-1.539920687675476074e+00 2.404091835021972656e+00 3.488039597868919373e-03
-1.554286360740661621e+00 2.457717657089233398e+00 1.091709062457084656e-01
-1.526743054389953613e+00 2.416031360626220703e+00 3.491704817861318588e-03
-1.511672616004943848e+00 2.423120737075805664e+00 1.072200834751129150e-01
-1.496019721031188965e+00 2.399895191192626953e+00 3.455053083598613739e-03
-1.496252417564392090e+00 2.431499481201171875e+00 1.071825698018074036e-01
-1.479171037673950195e+00 2.405622243881225586e+00 3.450166201218962669e-03
-1.476120114326477051e+00 2.432091951370239258e+00 1.068074107170104980e-01
-1.464901089668273926e+00 2.415507793426513672e+00 3.451387863606214523e-03
-1.463222146034240723e+00 2.444533109664916992e+00 1.069574728608131409e-01
-1.448512315750122070e+00 2.421876192092895508e+00 3.447722643613815308e-03
-1.430068612098693848e+00 2.424689054489135742e+00 3.439170541241765022e-03
-4.754335433244705200e-02 6.952674984931945801e-01 3.932830691337585449e-02
-9.903137385845184326e-02 7.343521118164062500e-01 9.053021203726530075e-04
-3.993089869618415833e-02 7.167414426803588867e-01 1.453550625592470169e-02
-8.588216453790664673e-02 7.017638683319091797e-01 8.637632708996534348e-04
-2.439249679446220398e-02 6.485088467597961426e-01 3.662378340959548950e-02
-9.486339986324310303e-03 7.267816066741943359e-01 4.101863875985145569e-02
-1.350315287709236145e-02 7.438352704048156738e-01 7.920852862298488617e-03
-3.295089304447174072e-02 7.100799083709716797e-01 1.868843138217926025e-01
-6.823555566370487213e-03 7.712961435317993164e-01 1.797771006822586060e-01
