-7.537975788116455078e+00 -4.342847824096679688e+00 8.085602521896362305e-01
-7.149183750152587891e+00 -4.472078323364257812e+00 7.036667466163635254e-01
-6.941919326782226562e+00 -4.699591159820556641e+00 6.200297474861145020e-01
-7.992580413818359375e+00 -4.222481250762939453e+00 5.956423282623291016e-01
-7.377382755279541016e+00 -4.246896266937255859e+00 4.803913235664367676e-01
-7.060961723327636719e+00 -4.413464069366455078e+00 3.912260830402374268e-01
-6.923678398132324219e+00 -4.681957244873046875e+00 3.137819468975067139e-01
-8.060159683227539062e+00 -4.256384372711181641e+00 2.705264985561370850e-01
-7.385624408721923828e+00 -4.248208999633789062e+00 1.725230962038040161e-01
-8.043787956237792969e+00 -5.435311317443847656e+00 1.186055690050125122e-02
-1.035467433929443359e+01 -5.398560047149658203e+00 3.441301584243774414e+00
-1.073339748382568359e+01 -5.598395347595214844e+00 3.074454784393310547e+00
-1.140805149078369141e+01 -6.500689506530761719e+00 3.193519353866577148e+00
-9.937896728515625000e+00 -6.160781383514404297e+00 2.725257396697998047e+00
-9.817946434020996094e+00 -6.596375465393066406e+00 2.643896341323852539e+00
-1.071449375152587891e+01 -5.590914249420166016e+00 2.595314025878906250e+00
-1.201729583740234375e+01 -6.842301368713378906e+00 2.828561544418334961e+00
-1.041687583923339844e+01 -6.447651386260986328e+00 2.385763645172119141e+00
-1.035064792633056641e+01 -6.941178798675537109e+00 2.305303096771240234e+00
-8.569828987121582031e+00 -4.871494293212890625e+00 1.276787400245666504e+00
-8.908995628356933594e+00 -5.501435279846191406e+00 1.257826209068298340e+00
-8.370880126953125000e+00 -5.598726272583007812e+00 1.113585829734802246e+00
-8.251811981201171875e+00 -4.298539161682128906e+00 9.532995223999023438e-01
-7.668376922607421875e+00 -4.355525016784667969e+00 8.196655511856079102e-01
-7.188362121582031250e+00 -4.435453891754150391e+00 7.048308849334716797e-01
-6.952382087707519531e+00 -4.644720077514648438e+00 6.184070706367492676e-01
-8.119242668151855469e+00 -4.225878715515136719e+00 6.031380295753479004e-01
-7.464952945709228516e+00 -4.236537933349609375e+00 4.843917787075042725e-01
-7.108316421508789062e+00 -4.382637500762939453e+00 3.923524618148803711e-01
-6.965575218200683594e+00 -4.648261070251464844e+00 3.143821954727172852e-01
-8.173024177551269531e+00 -4.252058029174804688e+00 2.734337747097015381e-01
-7.455036640167236328e+00 -4.227470397949218750e+00 1.735353171825408936e-01
-1.135482311248779297e+01 -6.992621421813964844e+00 1.419791579246520996e-01
-8.215929031372070312e+00 -5.478502273559570312e+00 1.206458546221256256e-02
-1.042941474914550781e+01 -5.356396198272705078e+00 3.455152511596679688e+00
-1.049374103546142578e+01 -6.970540046691894531e+00 3.312047958374023438e+00
-1.062012767791748047e+01 -5.456686496734619141e+00 3.032362461090087891e+00
-1.117493820190429688e+01 -6.277335643768310547e+00 3.117421388626098633e+00
-9.750055313110351562e+00 -6.464285850524902344e+00 2.614883184432983398e+00
-1.117641830444335938e+01 -5.744977951049804688e+00 2.698614120483398438e+00
-1.192833900451660156e+01 -6.695069313049316406e+00 2.797901153564453125e+00
-1.037916660308837891e+01 -6.336558341979980469e+00 2.368177890777587891e+00
-1.033564090728759766e+01 -6.839552402496337891e+00 2.292570590972900391e+00
-8.697319984436035156e+00 -4.873600006103515625e+00 1.291302204132080078e+00
-9.427618026733398438e+00 -5.742086887359619141e+00 1.326048970222473145e+00
-7.775756359100341797e+00 -4.353630065917968750e+00 8.282722234725952148e-01
-7.223954677581787109e+00 -4.396443843841552734e+00 7.056624293327331543e-01
-6.994904518127441406e+00 -4.611304759979248047e+00 6.196609735488891602e-01
-8.227598190307617188e+00 -4.218318462371826172e+00 6.092529296875000000e-01
-7.576198101043701172e+00 -4.238424777984619141e+00 4.899135529994964600e-01
-7.175187110900878906e+00 -4.363332748413085938e+00 3.945582807064056396e-01
-6.986454010009765625e+00 -4.600487232208251953e+00 3.140445351600646973e-01
-8.291473388671875000e+00 -4.249240398406982422e+00 2.765190601348876953e-01
-7.325997352600097656e+00 -4.449789524078369141e+00 9.126015007495880127e-02
-8.141626358032226562e+00 -5.357079982757568359e+00 1.190698239952325821e-02
-1.042784690856933594e+01 -5.274982452392578125e+00 3.443845510482788086e+00
-1.261651992797851562e+01 -6.991382598876953125e+00 4.087060928344726562e+00
-1.014239501953125000e+01 -6.647826671600341797e+00 3.188220977783203125e+00
-1.069492053985595703e+01 -5.412427425384521484e+00 3.044178009033203125e+00
-1.102283000946044922e+01 -6.103218555450439453e+00 3.064483642578125000e+00
-1.072830486297607422e+01 -6.469891548156738281e+00 2.920015811920166016e+00
-9.814035415649414062e+00 -6.420366764068603516e+00 2.621427297592163086e+00
-1.115476036071777344e+01 -5.647586822509765625e+00 2.684967041015625000e+00
-1.079559230804443359e+01 -5.972476959228515625e+00 2.523561716079711914e+00
-1.038673782348632812e+01 -6.254019737243652344e+00 2.361104965209960938e+00
-8.694071769714355469e+00 -4.801922798156738281e+00 1.286421060562133789e+00
-8.820423126220703125e+00 -5.743999004364013672e+00 1.163923501968383789e+00
-8.479732513427734375e+00 -4.285801410675048828e+00 9.734805226325988770e-01
-7.828475952148437500e+00 -4.320269584655761719e+00 8.310484886169433594e-01
-7.270447254180908203e+00 -4.363831520080566406e+00 7.075750827789306641e-01
-7.071554660797119141e+00 -4.599837303161621094e+00 6.239390969276428223e-01
-8.339725494384765625e+00 -4.211385250091552734e+00 6.156308054924011230e-01
-7.623045444488525391e+00 -4.203428745269775391e+00 4.912658333778381348e-01
-7.220671653747558594e+00 -4.330527305603027344e+00 3.955908119678497314e-01
-7.018740177154541016e+00 -4.560255050659179688e+00 3.142321407794952393e-01
-8.370038032531738281e+00 -4.224859237670898438e+00 2.782693803310394287e-01
-7.712138175964355469e+00 -4.249045848846435547e+00 1.782927513122558594e-01
-8.270797729492187500e+00 -5.369644165039062500e+00 1.204748172312974930e-02
-1.038961410522460938e+01 -5.175826072692871094e+00 3.420666217803955078e+00
-1.031682682037353516e+01 -5.634556293487548828e+00 3.330823659896850586e+00
-1.065506172180175781e+01 -5.310386657714843750e+00 3.023501157760620117e+00
-1.057048320770263672e+01 -5.768301486968994141e+00 2.928830623626708984e+00
-1.136043167114257812e+01 -6.756398200988769531e+00 3.080725669860839844e+00
-9.931961059570312500e+00 -6.410836696624755859e+00 2.642369270324707031e+00
-1.114982986450195312e+01 -5.559403896331787109e+00 2.675518751144409180e+00
-1.064279937744140625e+01 -5.802943706512451172e+00 2.479475021362304688e+00
-8.728599548339843750e+00 -4.751331329345703125e+00 1.287191867828369141e+00
-8.439076423645019531e+00 -4.200444698333740234e+00 9.658362269401550293e-01
-7.959801673889160156e+00 -4.329242706298828125e+00 8.421538472175598145e-01
-7.318525791168212891e+00 -4.331828594207763672e+00 7.096539139747619629e-01
-7.085377216339111328e+00 -4.547203540802001953e+00 6.226851344108581543e-01
-8.472622871398925781e+00 -4.213452339172363281e+00 6.235209703445434570e-01
-7.730276584625244141e+00 -4.200911045074462891e+00 4.965057969093322754e-01
-7.267741203308105469e+00 -4.298344135284423828e+00 3.967171311378479004e-01
-7.039858818054199219e+00 -4.512788295745849609e+00 3.139320015907287598e-01
-8.556917190551757812e+00 -4.253509521484375000e+00 2.836093008518218994e-01
-7.957721233367919922e+00 -4.320914745330810547e+00 1.833538562059402466e-01
-7.493696689605712891e+00 -4.426685810089111328e+00 9.266546368598937988e-02
-7.830350399017333984e+00 -5.015665054321289062e+00 1.136086974292993546e-02
-1.202039432525634766e+01 -5.896455287933349609e+00 3.945596218109130859e+00
-1.036645603179931641e+01 -5.579355239868164062e+00 3.335731029510498047e+00
-1.067004299163818359e+01 -5.236368179321289062e+00 3.018578052520751953e+00
-1.058428382873535156e+01 -5.691828727722167969e+00 2.922922372817993164e+00
-1.037592697143554688e+01 -6.085010528564453125e+00 2.803569316864013672e+00
-9.801535606384277344e+00 -6.241786956787109375e+00 2.597431659698486328e+00
-1.114862632751464844e+01 -5.473649501800537109e+00 2.667120218276977539e+00
-1.074293231964111328e+01 -5.772310256958007812e+00 2.494504690170288086e+00
-1.277688217163085938e+01 -6.270308017730712891e+00 2.514705657958984375e+00
-8.791670799255371094e+00 -4.715966701507568359e+00 1.292201280593872070e+00
-8.453971862792968750e+00 -4.143330574035644531e+00 9.646131396293640137e-01
-8.037116050720214844e+00 -4.307601451873779297e+00 8.475213646888732910e-01
-7.394025802612304688e+00 -4.315474033355712891e+00 7.143938541412353516e-01
-7.193191528320312500e+00 -4.554323673248291016e+00 6.296924352645874023e-01
-8.591518402099609375e+00 -4.207024097442626953e+00 6.303591728210449219e-01
-7.885290145874023438e+00 -4.222685813903808594e+00 5.047884583473205566e-01
-7.318139076232910156e+00 -4.267759323120117188e+00 3.980312347412109375e-01
-7.060659885406494141e+00 -4.465235233306884766e+00 3.136318922042846680e-01
-8.653780937194824219e+00 -4.235640048980712891e+00 2.859529554843902588e-01
-7.851853847503662109e+00 -4.201253890991210938e+00 1.803172081708908081e-01
-7.510348320007324219e+00 -4.374582767486572266e+00 9.253770858049392700e-02
-8.046957015991210938e+00 -5.085048198699951172e+00 1.162964943796396255e-02
-1.036734580993652344e+01 -5.498062133789062500e+00 3.325098752975463867e+00
-1.067317295074462891e+01 -5.156884670257568359e+00 3.010454893112182617e+00
-1.060441303253173828e+01 -5.619043350219726562e+00 2.918904781341552734e+00
-1.038861942291259766e+01 -6.007092475891113281e+00 2.796986579895019531e+00
-9.854524612426757812e+00 -6.190873146057128906e+00 2.601358175277709961e+00
-1.295485496520996094e+01 -6.262098312377929688e+00 3.089979410171508789e+00
-1.094179534912109375e+01 -5.792923927307128906e+00 2.532379150390625000e+00
-1.044956016540527344e+01 -6.551979064941406250e+00 2.281475067138671875e+00
-8.776602745056152344e+00 -4.638762474060058594e+00 1.285778880119323730e+00
-8.378889083862304688e+00 -4.042961120605468750e+00 9.531975388526916504e-01
-8.105659484863281250e+00 -4.280524730682373047e+00 8.519635200500488281e-01
-7.487737178802490234e+00 -4.308792591094970703e+00 7.208800315856933594e-01
-7.165174961090087891e+00 -4.475233554840087891e+00 6.248242259025573730e-01
-8.686380386352539062e+00 -4.187593460083007812e+00 6.354219913482666016e-01
-8.008184432983398438e+00 -4.225474834442138672e+00 5.109862685203552246e-01
-7.335528850555419922e+00 -4.217796802520751953e+00 3.975619375705718994e-01
-7.088772773742675781e+00 -4.422356128692626953e+00 3.136693835258483887e-01
-8.781359672546386719e+00 -4.231493473052978516e+00 2.893052399158477783e-01
-8.131311416625976562e+00 -4.286814212799072266e+00 1.861273497343063354e-01
-7.474616527557373047e+00 -4.292563438415527344e+00 9.177117794752120972e-02
-8.407271385192871094e+00 -5.240830421447753906e+00 1.210368145257234573e-02
-1.039576911926269531e+01 -5.431673049926757812e+00 3.323463201522827148e+00
-1.072036838531494141e+01 -5.098791122436523438e+00 3.014885663986206055e+00
-1.063610649108886719e+01 -5.552520751953125000e+00 2.918195724487304688e+00
-9.887349128723144531e+00 -6.127205848693847656e+00 2.600049495697021484e+00
-1.282705688476562500e+01 -6.103513717651367188e+00 3.050506830215454102e+00
-1.084683609008789062e+01 -5.657713890075683594e+00 2.502320051193237305e+00
-1.043437004089355469e+01 -6.453600406646728516e+00 2.269470214843750000e+00
-1.267145156860351562e+01 -6.026760101318359375e+00 2.479211091995239258e+00
-1.258293151855468750e+01 -5.981965541839599609e+00 1.940727829933166504e+00
-9.603634834289550781e+00 -5.452645301818847656e+00 1.326645255088806152e+00
-9.283250808715820312e+00 -4.409314632415771484e+00 1.052981615066528320e+00
-8.256318092346191406e+00 -4.295506477355957031e+00 8.650122880935668945e-01
-7.540904521942138672e+00 -4.278010845184326172e+00 7.234578728675842285e-01
-7.168725490570068359e+00 -4.416537761688232422e+00 6.227589249610900879e-01
-8.817384719848632812e+00 -4.184267997741699219e+00 6.431148648262023926e-01
-8.136721611022949219e+00 -4.229675769805908203e+00 5.175222158432006836e-01
-7.562008857727050781e+00 -4.286495208740234375e+00 4.084032475948333740e-01
-7.125136375427246094e+00 -4.384538173675537109e+00 3.140820860862731934e-01
-8.906500816345214844e+00 -4.224653720855712891e+00 2.925685048103332520e-01
-8.186740875244140625e+00 -4.252048015594482422e+00 1.867954134941101074e-01
-7.450344562530517578e+00 -4.218045711517333984e+00 9.115368872880935669e-02
-8.072975158691406250e+00 -4.963917732238769531e+00 1.157833728939294815e-02
-1.142315387725830078e+01 -5.344919204711914062e+00 3.716628313064575195e+00
-1.046312046051025391e+01 -5.385395526885986328e+00 3.334367752075195312e+00
-1.199043750762939453e+01 -6.746617794036865234e+00 3.753489732742309570e+00
-1.079007625579833984e+01 -5.050996780395507812e+00 3.025716543197631836e+00
-1.059307098388671875e+01 -5.447605133056640625e+00 2.897162437438964844e+00
-1.240749359130859375e+01 -6.972730159759521484e+00 3.317250490188598633e+00
-9.780703544616699219e+00 -5.978371143341064453e+00 2.562310695648193359e+00
-1.243572330474853516e+01 -5.823995113372802734e+00 2.948886394500732422e+00
-1.090487575531005859e+01 -5.603141784667968750e+00 2.507730722427368164e+00
-1.053673171997070312e+01 -6.427862644195556641e+00 2.283112287521362305e+00
-1.281610870361328125e+01 -5.999413013458251953e+00 2.500264167785644531e+00
-1.295760250091552734e+01 -6.062891960144042969e+00 1.992739915847778320e+00
-8.702271461486816406e+00 -4.463723659515380859e+00 1.266768336296081543e+00
-9.349109649658203125e+00 -5.687700748443603516e+00 1.210084795951843262e+00
-8.356067657470703125e+00 -4.282458782196044922e+00 8.726934790611267090e-01
-7.688779830932617188e+00 -4.299755573272705078e+00 7.350996732711791992e-01
-7.205917358398437500e+00 -4.378683090209960938e+00 6.236440539360046387e-01
-8.985738754272460938e+00 -4.196803092956542969e+00 6.535035967826843262e-01
-8.226506233215332031e+00 -4.212433815002441406e+00 5.215789675712585449e-01
-7.568112373352050781e+00 -4.228808403015136719e+00 4.073238372802734375e-01
-7.166427135467529297e+00 -4.349550724029541016e+00 3.147198259830474854e-01
-9.029168128967285156e+00 -4.215167522430419922e+00 2.957428097724914551e-01
-8.340847015380859375e+00 -4.267308712005615234e+00 1.897106170654296875e-01
-7.579119682312011719e+00 -4.229753017425537109e+00 9.240995347499847412e-02
-8.361504554748535156e+00 -5.070891380310058594e+00 1.194729935377836227e-02
-1.142001056671142578e+01 -5.258278846740722656e+00 3.705038309097290039e+00
-1.204679489135742188e+01 -6.681341171264648438e+00 3.758227109909057617e+00
-1.074691867828369141e+01 -4.950631141662597656e+00 3.005039453506469727e+00
-1.051707839965820312e+01 -5.327182292938232422e+00 2.867384910583496094e+00
-1.045057392120361328e+01 -5.788898944854736328e+00 2.784502029418945312e+00
-1.255380249023437500e+01 -5.785638809204101562e+00 2.968412637710571289e+00
-1.099237346649169922e+01 -5.563111305236816406e+00 2.519954681396484375e+00
-1.067623901367187500e+01 -6.423414707183837891e+00 2.304757356643676758e+00
-1.266216945648193359e+01 -5.832902431488037109e+00 2.463203907012939453e+00
-1.296307277679443359e+01 -5.968772888183593750e+00 1.987911224365234375e+00
-8.800309181213378906e+00 -4.446018695831298828e+00 1.277044296264648438e+00
-9.365082740783691406e+00 -5.618978977203369141e+00 1.207666873931884766e+00
-8.441741943359375000e+00 -4.261168479919433594e+00 8.788939714431762695e-01
-7.741200447082519531e+00 -4.266929149627685547e+00 7.375944256782531738e-01
-9.081133842468261719e+00 -4.173675060272216797e+00 6.585665345191955566e-01
-8.368979454040527344e+00 -4.220774650573730469e+00 5.289601087570190430e-01
-7.805661201477050781e+00 -4.298907756805419922e+00 4.186813831329345703e-01
-7.227278709411621094e+00 -4.326025962829589844e+00 3.162204921245574951e-01
-9.164765357971191406e+00 -4.210174560546875000e+00 2.993324100971221924e-01
-8.428480148315429688e+00 -4.247093200683593750e+00 1.911074817180633545e-01
-7.663632392883300781e+00 -4.215458393096923828e+00 9.312325716018676758e-02
-8.496306419372558594e+00 -5.081599235534667969e+00 1.209512911736965179e-02
-1.140225696563720703e+01 -5.165545940399169922e+00 3.688925743103027344e+00
-1.049439907073974609e+01 -5.736443042755126953e+00 3.262885570526123047e+00
-1.168636608123779297e+01 -5.296713829040527344e+00 3.258577585220336914e+00
-1.054608917236328125e+01 -5.260815620422363281e+00 2.866439580917358398e+00
-1.053205680847167969e+01 -5.749867439270019531e+00 2.796759843826293945e+00
-1.257214832305908203e+01 -5.700829982757568359e+00 2.964423418045043945e+00
-1.104383754730224609e+01 -5.504298686981201172e+00 2.523962497711181641e+00
-1.070868682861328125e+01 -6.353772163391113281e+00 2.303302288055419922e+00
-1.279369258880615234e+01 -5.798596858978271484e+00 2.481821060180664062e+00
-1.296426773071289062e+01 -5.873180866241455078e+00 1.982530713081359863e+00
-8.961495399475097656e+00 -4.458642482757568359e+00 1.296440124511718750e+00
-9.870723724365234375e+00 -5.366478443145751953e+00 1.349664568901062012e+00
-9.405371665954589844e+00 -5.564952850341796875e+00 1.208436250686645508e+00
-8.600581169128417969e+00 -4.275331020355224609e+00 8.926830887794494629e-01
-7.806640625000000000e+00 -4.240755081176757812e+00 7.413363456726074219e-01
-7.290015220642089844e+00 -4.308190822601318359e+00 6.262993812561035156e-01
-9.264773368835449219e+00 -4.189412117004394531e+00 6.700072288513183594e-01
-8.470726966857910156e+00 -4.207093715667724609e+00 5.337494015693664551e-01
-7.870519638061523438e+00 -4.271898746490478516e+00 4.207463860511779785e-01
-7.253686904907226562e+00 -4.281599044799804688e+00 3.162204921245574951e-01
-9.301549911499023438e+00 -4.204086780548095703e+00 3.029517233371734619e-01
-8.513490676879882812e+00 -4.224628925323486328e+00 1.924436241388320923e-01
-7.691111564636230469e+00 -4.169308662414550781e+00 9.314455091953277588e-02
-8.727158546447753906e+00 -5.147231101989746094e+00 1.237857155501842499e-02
-1.148367786407470703e+01 -5.117742061614990234e+00 3.705038309097290039e+00
-1.052770137786865234e+01 -5.671027660369873047e+00 3.262359142303466797e+00
-1.170625305175781250e+01 -5.219382286071777344e+00 3.255131483078002930e+00
-1.057468223571777344e+01 -5.194293498992919922e+00 2.865494251251220703e+00
-1.068635272979736328e+01 -5.749272823333740234e+00 2.828311443328857422e+00
-1.169077968597412109e+01 -6.853540897369384766e+00 3.029137134552001953e+00
-1.254885292053222656e+01 -5.597692012786865234e+00 2.950776100158691406e+00
-1.114512538909912109e+01 -5.469667434692382812e+00 2.539392948150634766e+00
-1.246848678588867188e+01 -6.696842670440673828e+00 2.756215572357177734e+00
-1.080433559417724609e+01 -6.321214199066162109e+00 2.315489053726196289e+00
-1.291717147827148438e+01 -5.759285926818847656e+00 2.498872280120849609e+00
-1.285531425476074219e+01 -5.729016304016113281e+00 1.960456609725952148e+00
-9.078634262084960938e+00 -4.447638034820556641e+00 1.309413552284240723e+00
-9.840453147888183594e+00 -5.272052288055419922e+00 1.341076970100402832e+00
-8.712507247924804688e+00 -4.264501571655273438e+00 9.015673398971557617e-01
-7.962544441223144531e+00 -4.262380599975585938e+00 7.536435127258300781e-01
-7.381798744201660156e+00 -4.301539421081542969e+00 6.319051980972290039e-01
-9.378740310668945312e+00 -4.171823501586914062e+00 6.763851642608642578e-01
-8.571721076965332031e+00 -4.191883087158203125e+00 5.384823083877563477e-01
-7.908915042877197266e+00 -4.230121135711669922e+00 4.214034378528594971e-01
-7.285003185272216797e+00 -4.240026473999023438e+00 3.164455592632293701e-01
-9.420331954956054688e+00 -4.188354969024658203e+00 3.059776425361633301e-01
-8.631776809692382812e+00 -4.217519283294677734e+00 1.945287883281707764e-01
-7.983792304992675781e+00 -4.264794826507568359e+00 9.637037664651870728e-02
-7.508586883544921875e+00 -4.366648674011230469e+00 1.061194948852062225e-02
-1.151398563385009766e+01 -5.046798229217529297e+00 3.704755783081054688e+00
-1.043192195892333984e+01 -5.537121295928955078e+00 3.222089529037475586e+00
-1.173184490203857422e+01 -5.144731044769287109e+00 3.253408193588256836e+00
-1.074718952178955078e+01 -5.197419166564941406e+00 2.903543233871459961e+00
-1.074896335601806641e+01 -5.698190689086914062e+00 2.835575103759765625e+00
-1.175880432128906250e+01 -6.796818256378173828e+00 3.035899639129638672e+00
-1.288916587829589844e+01 -5.654930114746093750e+00 3.022582292556762695e+00
-1.142018318176269531e+01 -5.517966270446777344e+00 2.594300985336303711e+00
-1.253710460662841797e+01 -6.634903430938720703e+00 2.762332439422607422e+00
-1.289385318756103516e+01 -5.651620388031005859e+00 1.961008429527282715e+00
-9.271896362304687500e+00 -4.471982955932617188e+00 1.333305120468139648e+00
-9.999932289123535156e+00 -5.278780460357666016e+00 1.358371257781982422e+00
-8.806681632995605469e+00 -4.243813514709472656e+00 9.086007475852966309e-01
-8.070522308349609375e+00 -4.256679058074951172e+00 7.613769769668579102e-01
-7.436589241027832031e+00 -4.272559165954589844e+00 6.343392729759216309e-01
-9.488265991210937500e+00 -4.150992870330810547e+00 6.824342608451843262e-01
-8.725921630859375000e+00 -4.201143741607666016e+00 5.465395450592041016e-01
-8.033696174621582031e+00 -4.233671665191650391e+00 4.266598522663116455e-01
-7.356819629669189453e+00 -4.221606731414794922e+00 3.184339106082916260e-01
-9.606123924255371094e+00 -4.200556755065917969e+00 3.111692368984222412e-01
-8.795342445373535156e+00 -4.230785369873046875e+00 1.976261883974075317e-01
-1.306770706176757812e+01 -6.877801418304443359e+00 1.572246700525283813e-01
-7.524828433990478516e+00 -4.314525604248046875e+00 1.059728860855102539e-02
-1.175526428222656250e+01 -5.066797256469726562e+00 3.772315263748168945e+00
-1.153712081909179688e+01 -5.497286796569824219e+00 3.621160030364990234e+00
-1.045629787445068359e+01 -5.468090534210205078e+00 3.219194412231445312e+00
-1.071068668365478516e+01 -6.116005897521972656e+00 3.242633581161499023e+00
-1.175518131256103516e+01 -5.069194793701171875e+00 3.251192808151245117e+00
-1.084467792510986328e+01 -5.162702560424804688e+00 2.921267986297607422e+00
-1.088299846649169922e+01 -5.683977603912353516e+00 2.861679077148437500e+00
-1.181639766693115234e+01 -6.733720302581787109e+00 3.040044307708740234e+00
-1.286616706848144531e+01 -5.550949096679687500e+00 3.009144783020019531e+00
-1.181214523315429688e+01 -5.618216991424560547e+00 2.675460338592529297e+00
-1.258802318572998047e+01 -6.563298225402832031e+00 2.764626264572143555e+00
-1.331783103942871094e+01 -5.743057250976562500e+00 2.562553167343139648e+00
-1.289522743225097656e+01 -6.127845287322998047e+00 2.378932476043701172e+00
-1.292374038696289062e+01 -5.570438385009765625e+00 1.960318565368652344e+00
-9.380686759948730469e+00 -4.453713417053222656e+00 1.344994068145751953e+00
-8.542596817016601562e+00 -4.442672252655029297e+00 1.156684875488281250e+00
-9.616878509521484375e+00 -5.453646659851074219e+00 1.222504377365112305e+00
-9.019677162170410156e+00 -4.278457641601562500e+00 9.278498888015747070e-01
-8.169000625610351562e+00 -4.244757175445556641e+00 7.681958675384521484e-01
-7.510391712188720703e+00 -4.253880977630615234e+00 6.383961439132690430e-01
-9.667549133300781250e+00 -4.158942222595214844e+00 6.934805512428283691e-01
-8.835440635681152344e+00 -4.187287807464599609e+00 5.517795681953430176e-01
-8.157041549682617188e+00 -4.234927654266357422e+00 4.318223595619201660e-01
-7.553927898406982422e+00 -4.273317337036132812e+00 3.258244991302490234e-01
-9.740073204040527344e+00 -4.188127517700195312e+00 3.146698474884033203e-01
-8.997343063354492188e+00 -4.260170936584472656e+00 2.015738636255264282e-01
-1.312031459808349609e+01 -6.803013801574707031e+00 1.573524326086044312e-01
-7.542454719543457031e+00 -4.263351917266845703e+00 1.058507058769464493e-02
-1.181262779235839844e+01 -5.005801200866699219e+00 3.780795812606811523e+00
-1.157586002349853516e+01 -5.428843975067138672e+00 3.622795581817626953e+00
-1.044934368133544922e+01 -5.383063793182373047e+00 3.206824064254760742e+00
-1.073789882659912109e+01 -6.044477939605712891e+00 3.239582300186157227e+00
-1.171289157867431641e+01 -4.965948104858398438e+00 3.231008291244506836e+00
-1.096853828430175781e+01 -5.139351844787597656e+00 2.946082592010498047e+00
-1.264707279205322266e+01 -6.506864547729492188e+00 3.314980745315551758e+00
-1.356694602966308594e+01 -5.754810333251953125e+00 3.164725065231323242e+00
-1.265916633605957031e+01 -5.926114082336425781e+00 2.859021425247192383e+00
-1.241064929962158203e+01 -6.374271869659423828e+00 2.717029571533203125e+00
-1.341356372833251953e+01 -5.686986446380615234e+00 2.574210882186889648e+00
-1.307258033752441406e+01 -5.539727687835693359e+00 1.977702021598815918e+00
-1.262793922424316406e+01 -5.900751590728759766e+00 1.805356740951538086e+00
-8.582067489624023438e+00 -4.396510124206542969e+00 1.158354759216308594e+00
-1.022986030578613281e+01 -4.330864906311035156e+00 1.138190507888793945e+00
-9.152222633361816406e+00 -4.272735595703125000e+00 9.387701153755187988e-01
-8.251665115356445312e+00 -4.223612308502197266e+00 7.735177874565124512e-01
-7.626909732818603516e+00 -4.258278846740722656e+00 6.460672020912170410e-01
-9.850037574768066406e+00 -4.166011333465576172e+00 7.047240138053894043e-01
-8.994881629943847656e+00 -4.195457458496093750e+00 5.601185560226440430e-01
-8.272696495056152344e+00 -4.230733871459960938e+00 4.365625083446502686e-01
-7.719649314880371094e+00 -4.304757118225097656e+00 3.318270146846771240e-01
-9.863179206848144531e+00 -4.169539928436279297e+00 3.178144693374633789e-01
-9.046875000000000000e+00 -4.215864181518554688e+00 2.021002173423767090e-01
-1.343341827392578125e+01 -6.861104011535644531e+00 1.605995595455169678e-01
-7.528288364410400391e+00 -4.194602489471435547e+00 1.052887085825204849e-02
-1.208928108215332031e+01 -5.035763263702392578e+00 3.859379768371582031e+00
-1.160371208190917969e+01 -5.355294704437255859e+00 3.621160030364990234e+00
-1.052089118957519531e+01 -5.338490962982177734e+00 3.218668222427368164e+00
-1.106062507629394531e+01 -6.137078285217285156e+00 3.325523853302001953e+00
-1.108722305297851562e+01 -5.112232685089111328e+00 2.969479084014892578e+00
-1.072953796386718750e+01 -5.437299728393554688e+00 2.803569316864013672e+00
-1.071140003204345703e+01 -5.931088924407958984e+00 2.736825227737426758e+00
-1.267927265167236328e+01 -5.840948581695556641e+00 2.855414152145385742e+00
-1.146856021881103516e+01 -5.801747322082519531e+00 2.502939701080322266e+00
-1.361181926727294922e+01 -5.672761917114257812e+00 2.605529308319091797e+00
-1.309352588653564453e+01 -5.454079627990722656e+00 1.975770473480224609e+00
-1.268102741241455078e+01 -5.831028938293457031e+00 1.807797312736511230e+00
-1.002694511413574219e+01 -5.524686813354492188e+00 1.265918016433715820e+00
-1.026175117492675781e+01 -4.270307064056396484e+00 1.138801932334899902e+00
-9.261508941650390625e+00 -4.254739284515380859e+00 9.472842216491699219e-01
-8.405564308166503906e+00 -4.237500667572021484e+00 7.854922413825988770e-01
-7.686096191406250000e+00 -4.229671478271484375e+00 6.488701105117797852e-01
-9.927933692932128906e+00 -4.127327919006347656e+00 7.084718346595764160e-01
-9.093954086303710938e+00 -4.173921108245849609e+00 5.646823644638061523e-01
-8.367194175720214844e+00 -4.214494705200195312e+00 4.401763081550598145e-01
-7.674983501434326172e+00 -4.218322277069091797e+00 3.287882804870605469e-01
-1.002149581909179688e+01 -4.164173126220703125e+00 3.220864236354827881e-01
-9.226160049438476562e+00 -4.230702400207519531e+00 2.055215239524841309e-01
-1.350831508636474609e+01 -6.795175075531005859e+00 1.609934717416763306e-01
-7.635401248931884766e+00 -4.193097114562988281e+00 1.064249221235513687e-02
-1.225044536590576172e+01 -5.014909744262695312e+00 3.900933027267456055e+00
-1.151808834075927734e+01 -5.230291366577148438e+00 3.584356784820556641e+00
-1.054568195343017578e+01 -5.269953727722167969e+00 3.216299057006835938e+00
-1.055585479736328125e+01 -5.772578239440917969e+00 3.163048982620239258e+00
-1.118917179107666016e+01 -5.076221942901611328e+00 2.988385438919067383e+00
-1.090822315216064453e+01 -5.443988800048828125e+00 2.841476917266845703e+00
-1.051115417480468750e+01 -5.736223220825195312e+00 2.676617622375488281e+00
-1.383015060424804688e+01 -5.667223930358886719e+00 3.209656476974487305e+00
-1.251320552825927734e+01 -5.671634197235107422e+00 2.810125112533569336e+00
-1.130714511871337891e+01 -5.633223056793212891e+00 2.460121631622314453e+00
-1.345135784149169922e+01 -5.509263038635253906e+00 2.568295001983642578e+00
-1.309659099578857422e+01 -5.930544853210449219e+00 2.395532608032226562e+00
-1.282951068878173828e+01 -5.804206848144531250e+00 1.823853492736816406e+00
-1.010083484649658203e+01 -5.484876155853271484e+00 1.270973682403564453e+00
-9.334622383117675781e+00 -4.219157218933105469e+00 9.520965218544006348e-01
-8.503706932067871094e+00 -4.221739292144775391e+00 7.922279238700866699e-01
-7.807458400726318359e+00 -4.234253406524658203e+00 6.569099426269531250e-01
-1.008608722686767578e+01 -4.120676994323730469e+00 7.179400324821472168e-01
-9.206748008728027344e+00 -4.157489776611328125e+00 5.700914263725280762e-01
-8.479697227478027344e+00 -4.206130981445312500e+00 4.447287321090698242e-01
-7.896666526794433594e+00 -4.277284622192382812e+00 3.371542692184448242e-01
-1.004593276977539062e+01 -4.102226257324218750e+00 3.220567703247070312e-01
-9.346725463867187500e+00 -4.216772079467773438e+00 2.076269537210464478e-01
-1.405601119995117188e+01 -6.962946414947509766e+00 1.670086234807968140e-01
-8.030359268188476562e+00 -4.346075534820556641e+00 1.115561928600072861e-02
-1.229611396789550781e+01 -4.945733070373535156e+00 3.905738592147827148e+00
-1.153766536712646484e+01 -5.154025554656982422e+00 3.580540180206298828e+00
-1.058767127990722656e+01 -5.705864906311035156e+00 3.162031888961791992e+00
-1.195125675201416016e+01 -5.333778381347656250e+00 3.183120965957641602e+00
-1.074301052093505859e+01 -5.279449939727783203e+00 2.789949893951416016e+00
-1.049028587341308594e+01 -5.641575336456298828e+00 2.662438392639160156e+00
-1.373134040832519531e+01 -5.528577804565429688e+00 3.178792476654052734e+00
-1.273299407958984375e+01 -5.677334308624267578e+00 2.851606607437133789e+00
-1.136440849304199219e+01 -5.574977397918701172e+00 2.465091705322265625e+00
-1.260832023620605469e+01 -6.766455650329589844e+00 2.646896839141845703e+00
-1.324536514282226562e+01 -5.900246143341064453e+00 2.416077613830566406e+00
-1.279693031311035156e+01 -5.695135593414306641e+00 1.814219832420349121e+00
-1.019301605224609375e+01 -5.454214572906494141e+00 1.278337597846984863e+00
-9.560497283935546875e+00 -4.250798225402832031e+00 9.724562764167785645e-01
-8.638676643371582031e+00 -4.222875118255615234e+00 8.023729324340820312e-01
-7.911572933197021484e+00 -4.228102684020996094e+00 6.634746789932250977e-01
-1.025008392333984375e+01 -4.114469051361083984e+00 7.278027534484863281e-01
-9.411835670471191406e+00 -4.180766105651855469e+00 5.811913013458251953e-01
-8.597795486450195312e+00 -4.199173450469970703e+00 4.495626986026763916e-01
-7.945683956146240234e+00 -4.240984916687011719e+00 3.381296694278717041e-01
-1.035942363739013672e+01 -4.156260013580322266e+00 3.312829732894897461e-01
-9.477515220642089844e+00 -4.205980300903320312e+00 2.099550515413284302e-01
-1.414161014556884766e+01 -6.897610664367675781e+00 1.675196588039398193e-01
-9.122772216796875000e+00 -4.865161895751953125e+00 1.263146940618753433e-02
-1.233782768249511719e+01 -4.874774932861328125e+00 3.909413576126098633e+00
-1.159461784362792969e+01 -5.094358444213867188e+00 3.588446140289306641e+00
-1.059087753295898438e+01 -5.624010086059570312e+00 3.152623891830444336e+00
-1.200422286987304688e+01 -5.269329071044921875e+00 3.188556671142578125e+00
-1.074890232086181641e+01 -5.200707435607910156e+00 2.783140182495117188e+00
-1.054971122741699219e+01 -5.590353012084960938e+00 2.668764352798461914e+00
-1.372318267822265625e+01 -5.427679061889648438e+00 3.169134378433227539e+00
-1.256212329864501953e+01 -5.508994102478027344e+00 2.805716514587402344e+00
-1.133918285369873047e+01 -5.476540088653564453e+00 2.452284336090087891e+00
-1.271740436553955078e+01 -6.724818229675292969e+00 2.661084413528442383e+00
-1.332468605041503906e+01 -5.837863445281982422e+00 2.423966884613037109e+00
-1.286434078216552734e+01 -5.630823612213134766e+00 1.818844079971313477e+00
-8.349140167236328125e+00 -4.401885986328125000e+00 1.043684363365173340e+00
-9.672155380249023438e+00 -4.229556560516357422e+00 9.811554551124572754e-01
-8.762302398681640625e+00 -4.216893672943115234e+00 8.114369511604309082e-01
-8.030903816223144531e+00 -4.228731155395507812e+00 6.712932586669921875e-01
-1.038652992248535156e+01 -4.095420837402343750e+00 7.356929183006286621e-01
-9.512333869934082031e+00 -4.155712604522705078e+00 5.858114957809448242e-01
-8.724225997924804688e+00 -4.194818973541259766e+00 4.548190832138061523e-01
-8.068845748901367188e+00 -4.243314743041992188e+00 3.422563970088958740e-01
-1.054096221923828125e+01 -4.154188156127929688e+00 3.362669050693511963e-01
-9.678160667419433594e+00 -4.224136352539062500e+00 2.138217389583587646e-01
-1.425397682189941406e+01 -6.844470977783203125e+00 1.683500707149505615e-01
-8.877144813537597656e+00 -4.664434909820556641e+00 1.225151121616363525e-02
-1.181113147735595703e+01 -5.103257179260253906e+00 3.645695447921752930e+00
-1.040923786163330078e+01 -5.445939064025878906e+00 3.088549375534057617e+00
-1.207736587524414062e+01 -5.213287353515625000e+00 3.199427843093872070e+00
-1.077709484100341797e+01 -5.132980823516845703e+00 2.782232284545898438e+00
-1.085113525390625000e+01 -5.665076732635498047e+00 2.736170768737792969e+00
-1.261458206176757812e+01 -5.439957618713378906e+00 2.809924840927124023e+00
-1.138321018218994141e+01 -5.411918640136718750e+00 2.454578161239624023e+00
-1.276104354858398438e+01 -6.648021697998046875e+00 2.661629915237426758e+00
-1.332583141326904297e+01 -5.741164207458496094e+00 2.417721271514892578e+00
-1.291394615173339844e+01 -6.136912822723388672e+00 2.244114637374877930e+00
-1.289045047760009766e+01 -5.548254966735839844e+00 1.817687988281250000e+00
-8.389224052429199219e+00 -4.357446193695068359e+00 1.045333027839660645e+00
-9.859831809997558594e+00 -4.239749908447265625e+00 9.975358247756958008e-01
-8.869066238403320312e+00 -4.201446533203125000e+00 8.189210295677185059e-01
-8.150536537170410156e+00 -4.228052139282226562e+00 6.791118979454040527e-01
-1.048032188415527344e+01 -4.058277130126953125e+00 7.405585646629333496e-01
-9.614710807800292969e+00 -4.130371093750000000e+00 5.905444622039794922e-01
-8.848214149475097656e+00 -4.187788009643554688e+00 4.599346816539764404e-01
-8.199430465698242188e+00 -4.247968673706054688e+00 3.466832637786865234e-01
-1.058303260803222656e+01 -4.095925807952880859e+00 3.368008732795715332e-01
-9.798530578613281250e+00 -4.205286502838134766e+00 2.159069329500198364e-01
-1.443312168121337891e+01 -6.821831226348876953e+00 1.699683070182800293e-01
-8.824782371520996094e+00 -4.568045139312744141e+00 1.214033272117376328e-02
-1.198744869232177734e+01 -5.092382907867431641e+00 3.690404415130615234e+00
-1.148838138580322266e+01 -5.392863750457763672e+00 3.462390899658203125e+00
-1.041838645935058594e+01 -5.369560718536376953e+00 3.081429958343505859e+00
-1.215653228759765625e+01 -5.159203052520751953e+00 3.211953163146972656e+00
-1.113377571105957031e+01 -5.219292640686035156e+00 2.865991830825805664e+00
-1.116167449951171875e+01 -5.740323543548583984e+00 2.805540561676025391e+00
-1.264321327209472656e+01 -5.360541820526123047e+00 2.808922767639160156e+00
-1.141975879669189453e+01 -5.343634605407714844e+00 2.455342769622802734e+00
-1.305337238311767578e+01 -6.105272769927978516e+00 2.261790990829467773e+00
-1.292973041534423828e+01 -5.471374511718750000e+00 1.818458676338195801e+00
-9.920512199401855469e+00 -4.193904399871826172e+00 1.001052498817443848e+00
-8.994029998779296875e+00 -4.193268299102783203e+00 8.280681371688842773e-01
-8.289996147155761719e+00 -4.236045360565185547e+00 6.885531544685363770e-01
-1.072607612609863281e+01 -4.077935695648193359e+00 7.561416625976562500e-01
-9.765878677368164062e+00 -4.124515533447265625e+00 5.982635617256164551e-01
-8.939844131469726562e+00 -4.164206981658935547e+00 4.633607268333435059e-01
-8.268065452575683594e+00 -4.219381332397460938e+00 3.484840393066406250e-01
-1.102002525329589844e+01 -4.187490463256835938e+00 3.498837053775787354e-01
-9.900604248046875000e+00 -4.177343368530273438e+00 2.175872027873992920e-01
-1.473491668701171875e+01 -6.854183197021484375e+00 1.730237901210784912e-01
-9.008549690246582031e+00 -4.593303680419921875e+00 1.235413644462823868e-02
-1.242420482635498047e+01 -5.188162803649902344e+00 3.814990043640136719e+00
-1.088979816436767578e+01 -5.030567646026611328e+00 3.272624015808105469e+00
-1.044078922271728516e+01 -5.300280094146728516e+00 3.078378915786743164e+00
-1.223459148406982422e+01 -5.103968143463134766e+00 3.224242210388183594e+00
-1.145034694671630859e+01 -5.282241821289062500e+00 2.939083337783813477e+00
-1.121496868133544922e+01 -5.680989742279052734e+00 2.810121536254882812e+00
-1.267858028411865234e+01 -5.283994197845458984e+00 2.809524059295654297e+00
-1.182322883605957031e+01 -5.444251060485839844e+00 2.534862041473388672e+00
-1.245377349853515625e+01 -6.294860839843750000e+00 2.581233739852905273e+00
-1.325504493713378906e+01 -5.518815040588378906e+00 2.392409801483154297e+00
-1.300353908538818359e+01 -5.984998703002929688e+00 2.246750593185424805e+00
-1.030925464630126953e+01 -4.283875942230224609e+00 1.037607550621032715e+00
-9.129187583923339844e+00 -4.188284397125244141e+00 8.381300568580627441e-01
-8.382644653320312500e+00 -4.218723773956298828e+00 6.940852403640747070e-01
-9.921942710876464844e+00 -4.118872165679931641e+00 6.062644720077514648e-01
-9.096895217895507812e+00 -4.169625759124755859e+00 4.701659083366394043e-01
-8.373264312744140625e+00 -4.208509922027587891e+00 3.518229424953460693e-01
-1.002579116821289062e+01 -4.157880783081054688e+00 2.197736203670501709e-01
-1.498127174377441406e+01 -6.857281208038330078e+00 1.754192113876342773e-01
-8.937368392944335938e+00 -4.488128662109375000e+00 1.221852377057075500e-02
-1.244512367248535156e+01 -5.107448101043701172e+00 3.811718463897705078e+00
-1.087303256988525391e+01 -4.942097663879394531e+00 3.258410930633544922e+00
-1.058730030059814453e+01 -5.293205261230468750e+00 3.111941814422607422e+00
-1.236007881164550781e+01 -5.067505359649658203e+00 3.249057054519653320e+00
-1.192949962615966797e+01 -5.414756298065185547e+00 3.053486824035644531e+00
-1.126009464263916016e+01 -5.617297172546386719e+00 2.812739133834838867e+00
-1.377059841156005859e+01 -5.640189647674560547e+00 3.043784618377685547e+00
-1.190200996398925781e+01 -5.392261028289794922e+00 2.544610738754272461e+00
-1.173951721191406250e+01 -5.843676567077636719e+00 2.425715684890747070e+00
-1.323570823669433594e+01 -5.415713787078857422e+00 2.382877111434936523e+00
-1.308141422271728516e+01 -5.923843860626220703e+00 2.253883123397827148e+00
-9.658782005310058594e+00 -4.363770961761474609e+00 1.273212075233459473e+00
-1.041093444824218750e+01 -4.251406192779541016e+00 1.045196175575256348e+00
-9.278242111206054688e+00 -4.187946796417236328e+00 8.494392633438110352e-01
-8.515599250793457031e+00 -4.220351219177246094e+00 7.029364705085754395e-01
-1.008292198181152344e+01 -4.113353252410888672e+00 6.145470738410949707e-01
-9.239773750305175781e+00 -4.166701793670654297e+00 4.762201309204101562e-01
-8.508192062377929688e+00 -4.211133003234863281e+00 3.563998341560363770e-01
-1.009000015258789062e+01 -4.112133026123046875e+00 2.206238806247711182e-01
-8.896614074707031250e+00 -4.399516582489013672e+00 1.212567184120416641e-02
-1.254315185546875000e+01 -5.057976722717285156e+00 3.832165002822875977e+00
-1.106696414947509766e+01 -4.948536396026611328e+00 3.307366371154785156e+00
-1.062218284606933594e+01 -5.229424953460693359e+00 3.112704515457153320e+00
-1.238733386993408203e+01 -4.990117549896240234e+00 3.248111486434936523e+00
-1.232265472412109375e+01 -5.502271652221679688e+00 3.145418167114257812e+00
-1.100003433227539062e+01 -5.403524398803710938e+00 2.739443063735961914e+00
-1.370042514801025391e+01 -5.513525962829589844e+00 3.020739316940307617e+00
-1.203170013427734375e+01 -5.362284183502197266e+00 2.565255165100097656e+00
-1.216806983947753906e+01 -5.964120864868164062e+00 2.506657838821411133e+00
-1.321286106109619141e+01 -5.311954498291015625e+00 2.372851133346557617e+00
-1.294876480102539062e+01 -5.768292903900146484e+00 2.224887847900390625e+00
-9.916735649108886719e+00 -4.407246112823486328e+00 1.303626060485839844e+00
-9.392111778259277344e+00 -4.170164585113525391e+00 8.575054407119750977e-01
-8.605864524841308594e+00 -4.199510574340820312e+00 7.082471847534179688e-01
-1.028312587738037109e+01 -4.121612071990966797e+00 6.251961588859558105e-01
-9.375651359558105469e+00 -4.158938884735107422e+00 4.818989336490631104e-01
-8.590464591979980469e+00 -4.186428070068359375e+00 3.587633669376373291e-01
-1.034429645538330078e+01 -4.141939640045166016e+00 2.256242483854293823e-01
-9.095167160034179688e+00 -4.428458690643310547e+00 1.235902309417724609e-02
-1.269739151000976562e+01 -5.029816627502441406e+00 3.869785785675048828e+00
-1.145742702484130859e+01 -5.039001941680908203e+00 3.414751768112182617e+00
-1.227593135833740234e+01 -5.391312599182128906e+00 3.124989032745361328e+00
-1.281294918060302734e+01 -6.196780681610107422e+00 3.181401252746582031e+00
-1.277727031707763672e+01 -5.600852012634277344e+00 2.716838359832763672e+00
-1.178023433685302734e+01 -5.684644699096679688e+00 2.419531583786010742e+00
-1.282194328308105469e+01 -5.617766857147216797e+00 2.197132825851440430e+00
-9.604740142822265625e+00 -4.194211959838867188e+00 8.745523691177368164e-01
-8.772602081298828125e+00 -4.214427947998046875e+00 7.198275923728942871e-01
-1.049680995941162109e+01 -4.132687091827392578e+00 6.366340517997741699e-01
-9.553892135620117188e+00 -4.168036937713623047e+00 4.897365868091583252e-01
-8.721404075622558594e+00 -4.184212684631347656e+00 3.631526827812194824e-01
-1.051280021667480469e+01 -4.134745121002197266e+00 2.287418991327285767e-01
-9.573046684265136719e+00 -4.588689804077148438e+00 1.296988781541585922e-02
-1.177945041656494141e+01 -5.094601154327392578e+00 3.501344442367553711e+00
-1.071785163879394531e+01 -5.114090442657470703e+00 3.122112274169921875e+00
-1.215321063995361328e+01 -5.248700618743896484e+00 3.085492610931396484e+00
-1.106287193298339844e+01 -5.266871929168701172e+00 2.738788366317749023e+00
-1.319448471069335938e+01 -5.687477111816406250e+00 2.798077821731567383e+00
-1.190993022918701172e+01 -5.657400131225585938e+00 2.438993930816650391e+00
-1.310204505920410156e+01 -5.644919395446777344e+00 2.239152908325195312e+00
-9.361395835876464844e+00 -4.432797431945800781e+00 1.145349144935607910e+00
-9.734683990478515625e+00 -4.180023193359375000e+00 8.840321898460388184e-01
-8.853290557861328125e+00 -4.186526775360107422e+00 7.243269681930541992e-01
-1.071938991546630859e+01 -4.144532680511474609e+00 6.485790610313415527e-01
-9.628858566284179688e+00 -4.130602359771728516e+00 4.922709167003631592e-01
-8.889683723449707031e+00 -4.198041915893554688e+00 3.690801858901977539e-01
-1.053797340393066406e+01 -4.070161819458007812e+00 2.287418991327285767e-01
-9.180480003356933594e+00 -4.331448078155517578e+00 1.240178290754556656e-02
-1.159563922882080078e+01 -4.930866718292236328e+00 3.437650203704833984e+00
-1.076741218566894531e+01 -5.056864261627197266e+00 3.127451896667480469e+00
-1.212064552307128906e+01 -5.146625041961669922e+00 3.069149255752563477e+00
-1.106228351593017578e+01 -5.183570861816406250e+00 2.730717182159423828e+00
-1.343247890472412109e+01 -5.692585945129394531e+00 2.841086864471435547e+00
-1.166738700866699219e+01 -5.454698562622070312e+00 2.382425308227539062e+00
-1.321648502349853516e+01 -5.598328590393066406e+00 2.252797603607177734e+00
-1.309495830535888672e+01 -6.110975742340087891e+00 2.131312847137451172e+00
-9.847366333007812500e+00 -4.157032489776611328e+00 8.919320702552795410e-01
-8.967418670654296875e+00 -4.173361778259277344e+00 7.315554618835449219e-01
-1.077635478973388672e+01 -4.090728759765625000e+00 6.504946947097778320e-01
-9.850986480712890625e+00 -4.154510021209716797e+00 5.023143887519836426e-01
-8.985959053039550781e+00 -4.176267623901367188e+00 3.720064163208007812e-01
-9.277629852294921875e+00 -4.307885646820068359e+00 1.249707769602537155e-02
-1.152331447601318359e+01 -4.816836357116699219e+00 3.407382249832153320e+00
-1.081316280364990234e+01 -4.997599124908447266e+00 3.131774425506591797e+00
-1.117984580993652344e+01 -5.155236244201660156e+00 2.751877069473266602e+00
-1.351517677307128906e+01 -5.630063533782958984e+00 2.851217985153198242e+00
-1.176852893829345703e+01 -5.414240837097167969e+00 2.396249294281005859e+00
-1.328250789642333984e+01 -5.530419349670410156e+00 2.258224725723266602e+00
-1.303421401977539062e+01 -5.985510826110839844e+00 2.115408658981323242e+00
-1.002640247344970703e+01 -4.160313606262207031e+00 9.058191180229187012e-01
-9.097130775451660156e+00 -4.166012287139892578e+00 7.400379776954650879e-01
-1.100614452362060547e+01 -4.100871562957763672e+00 6.628341674804687500e-01
-9.990715026855468750e+00 -4.141418457031250000e+00 5.081340074539184570e-01
-9.133191108703613281e+00 -4.176742076873779297e+00 3.770335316658020020e-01
-3.568283081054687500e+00 -1.183228254318237305e+00 1.115747466683387756e-01
-1.023894023895263672e+01 -4.238033294677734375e+00 1.179823875427246094e-01
-9.726833343505859375e+00 -4.444118499755859375e+00 1.306518260389566422e-02
-1.146787738800048828e+01 -4.711212635040283203e+00 3.382378339767456055e+00
-1.086035156250000000e+01 -4.938763618469238281e+00 3.136605262756347656e+00
-1.229995536804199219e+01 -5.580478191375732422e+00 3.019102811813354492e+00
-1.357581138610839844e+01 -5.557814598083496094e+00 2.856761217117309570e+00
-1.252982997894287109e+01 -5.671591758728027344e+00 2.544127702713012695e+00
-1.302020740509033203e+01 -5.882611274719238281e+00 2.107237577438354492e+00
-1.015601348876953125e+01 -4.141232967376708984e+00 9.152157306671142578e-01
-9.281640052795410156e+00 -4.181804656982421875e+00 7.529459595680236816e-01
-1.005664253234863281e+01 -4.096619129180908203e+00 5.101990103721618652e-01
-9.291697502136230469e+00 -4.180484771728515625e+00 3.825108408927917480e-01
-3.563117265701293945e+00 -1.157297253608703613e+00 1.111890897154808044e-01
-1.013507556915283203e+01 -4.122383594512939453e+00 1.164918988943099976e-01
-9.357158660888671875e+00 -4.206009864807128906e+00 1.253373082727193832e-02
-1.131861782073974609e+01 -5.063580989837646484e+00 3.259923696517944336e+00
-1.164240741729736328e+01 -5.196245670318603516e+00 2.849823474884033203e+00
-1.364335155487060547e+01 -5.487963676452636719e+00 2.863833904266357422e+00
-1.295604896545410156e+01 -5.768997192382812500e+00 2.623432636260986328e+00
-1.296927070617675781e+01 -5.764038562774658203e+00 2.093230247497558594e+00
-1.033571815490722656e+01 -4.140728950500488281e+00 9.291027784347534180e-01
-9.399210929870605469e+00 -4.165586471557617188e+00 7.603957653045654297e-01
-1.044419670104980469e+01 -4.179957866668701172e+00 5.285494327545166016e-01
-9.412209510803222656e+00 -4.165452480316162109e+00 3.864124715328216553e-01
-3.572056531906127930e+00 -1.136018514633178711e+00 1.112484186887741089e-01
-1.031710338592529297e+01 -4.122827053070068359e+00 1.182911247014999390e-01
-9.250174522399902344e+00 -4.089881420135498047e+00 1.235657930374145508e-02
-1.165222167968750000e+01 -5.127252101898193359e+00 3.346882104873657227e+00
-1.369320106506347656e+01 -5.410639286041259766e+00 2.867274761199951172e+00
