-1.294122099876403809e+00 -5.970100879669189453e+00 4.025303423404693604e-01
-1.224499583244323730e+00 -5.644156932830810547e+00 1.714115738868713379e-01
-1.399995684623718262e+00 -6.293040752410888672e+00 1.899867534637451172e+00
-1.173659324645996094e+00 -6.405982971191406250e+00 1.845338582992553711e+00
-9.028226733207702637e-01 -6.224986076354980469e+00 1.716061472892761230e+00
-9.023352265357971191e-01 -6.198773384094238281e+00 1.460007905960083008e+00
-1.139415144920349121e+00 -6.194673061370849609e+00 1.288333058357238770e+00
-9.021474719047546387e-01 -6.167275905609130859e+00 1.213812947273254395e+00
-1.388909339904785156e+00 -6.248351573944091797e+00 1.130947589874267578e+00
-1.144540071487426758e+00 -6.210350990295410156e+00 1.052226424217224121e+00
-9.061995148658752441e-01 -6.187436103820800781e+00 9.814997315406799316e-01
-1.392224669456481934e+00 -6.258109569549560547e+00 8.930355906486511230e-01
-1.142802476882934570e+00 -6.188801765441894531e+00 8.151401281356811523e-01
-9.100930690765380859e-01 -6.176424503326416016e+00 7.499725818634033203e-01
-7.162890434265136719e-01 -6.485795021057128906e+00 7.215446829795837402e-01
-1.373061418533325195e+00 -6.161822319030761719e+00 6.468126177787780762e-01
-1.141782879829406738e+00 -6.171215534210205078e+00 5.833072066307067871e-01
-1.263128042221069336e+00 -5.659173488616943359e+00 3.820816576480865479e-01
-1.143038392066955566e+00 -6.165969848632812500e+00 3.538984358310699463e-01
-1.263248801231384277e+00 -5.655072212219238281e+00 1.719752252101898193e-01
-1.448428630828857422e+00 -6.327342987060546875e+00 1.912870645523071289e+00
-9.405684471130371094e-01 -6.216467380523681641e+00 1.715271830558776855e+00
-9.399146437644958496e-01 -6.190231800079345703e+00 1.459326982498168945e+00
-6.296425461769104004e-01 -5.497508525848388672e+00 1.236872196197509766e+00
-6.442122459411621094e-01 -5.581628322601318359e+00 1.039332628250122070e+00
-6.571850180625915527e-01 -5.659336566925048828e+00 8.402978181838989258e-01
-1.182060241699218750e+00 -6.176806926727294922e+00 5.845103263854980469e-01
-1.300386667251586914e+00 -5.657929897308349609e+00 1.723015457391738892e-01
-1.491620779037475586e+00 -6.337010860443115234e+00 1.918524146080017090e+00
-1.256991982460021973e+00 -6.415646553039550781e+00 1.852426648139953613e+00
-9.777932167053222656e-01 -6.204861164093017578e+00 1.713692665100097656e+00
-7.467976808547973633e-01 -6.230171680450439453e+00 1.649667382240295410e+00
-9.281412959098815918e-01 -5.869791984558105469e+00 1.385100841522216797e+00
-6.598529219627380371e-01 -5.464475154876708984e+00 1.230327963829040527e+00
-6.636065840721130371e-01 -5.455554962158203125e+00 1.016596078872680664e+00
-1.468863487243652344e+00 -6.245215415954589844e+00 1.133557438850402832e+00
-6.667879819869995117e-01 -5.449964523315429688e+00 8.098025321960449219e-01
-6.901197433471679688e-01 -5.616269111633300781e+00 6.257050633430480957e-01
-1.221096992492675781e+00 -6.175298213958740234e+00 5.850655436515808105e-01
-1.326343655586242676e+00 -5.612879753112792969e+00 1.711742430925369263e-01
-1.524612784385681152e+00 -6.303498268127441406e+00 1.911174535751342773e+00
-1.042682528495788574e+00 -6.362495899200439453e+00 1.758962988853454590e+00
-7.829542756080627441e-01 -6.209159851074218750e+00 1.645344734191894531e+00
-9.913168549537658691e-01 -6.029277324676513672e+00 1.424143314361572266e+00
-8.065956830978393555e-01 -6.351983070373535156e+00 1.431237936019897461e+00
-1.005758762359619141e+00 -6.090550422668457031e+00 1.202152729034423828e+00
-7.963470816612243652e-01 -6.227780342102050781e+00 1.161382317543029785e+00
-1.512707829475402832e+00 -6.259057998657226562e+00 1.137733340263366699e+00
-1.265736103057861328e+00 -6.223029136657714844e+00 1.058143377304077148e+00
-1.015747189521789551e+00 -6.144366264343261719e+00 9.774683117866516113e-01
-7.992553710937500000e-01 -6.216028690338134766e+00 9.243422150611877441e-01
-1.517657876014709473e+00 -6.274743080139160156e+00 8.992438912391662598e-01
-1.267018675804138184e+00 -6.218220710754394531e+00 8.219479322433471680e-01
-1.008812785148620605e+00 -6.069498538970947266e+00 7.391190528869628906e-01
-1.486950397491455078e+00 -6.138405799865722656e+00 6.471183896064758301e-01
-1.246419072151184082e+00 -6.106227397918701172e+00 5.792352557182312012e-01
-1.513881564140319824e+00 -6.240061759948730469e+00 4.231105744838714600e-01
-1.282543063163757324e+00 -6.272025585174560547e+00 3.612795174121856689e-01
-1.315478563308715820e+00 -5.418138027191162109e+00 1.654783189296722412e-01
-1.173351049423217773e+00 -5.727856159210205078e+00 1.183894649147987366e-01
-1.338575482368469238e+00 -6.413865566253662109e+00 1.856515765190124512e+00
-1.170239329338073730e+00 -6.876212120056152344e+00 1.902933239936828613e+00
-8.216726779937744141e-01 -6.209033012390136719e+00 1.646616101264953613e+00
-1.027309775352478027e+00 -6.017321109771728516e+00 1.422781348228454590e+00
-8.295749425888061523e-01 -6.226960182189941406e+00 1.404188156127929688e+00
-1.057043075561523438e+00 -6.165529727935791016e+00 1.218209385871887207e+00
-8.338915109634399414e-01 -6.217904090881347656e+00 1.160472869873046875e+00
-1.556065559387207031e+00 -6.269729137420654297e+00 1.141387104988098145e+00
-1.306326508522033691e+00 -6.226730346679687500e+00 1.060115694999694824e+00
-1.062452793121337891e+00 -6.190596103668212891e+00 9.858412742614746094e-01
-8.388351202011108398e-01 -6.221792221069335938e+00 9.259471893310546875e-01
-1.561144113540649414e+00 -6.285499095916748047e+00 9.021411538124084473e-01
-1.308820366859436035e+00 -6.227798938751220703e+00 8.242600560188293457e-01
-1.067303895950317383e+00 -6.186473846435546875e+00 7.541471123695373535e-01
-8.440459370613098145e-01 -6.235782146453857422e+00 6.958262324333190918e-01
-1.559405922889709473e+00 -6.269145488739013672e+00 6.618974804878234863e-01
-1.297811031341552734e+00 -6.164720058441162109e+00 5.855282545089721680e-01
-1.339641571044921875e+00 -5.377631664276123047e+00 3.651835322380065918e-01
-1.320179343223571777e+00 -6.260130882263183594e+00 3.610541820526123047e-01
-1.343379497528076172e+00 -5.388627052307128906e+00 1.648256629705429077e-01
-1.198142051696777344e+00 -5.671638965606689453e+00 1.173772513866424561e-01
-1.406231999397277832e+00 -6.537216186523437500e+00 1.894682049751281738e+00
-8.625430464744567871e-01 -6.223991870880126953e+00 1.651955723762512207e+00
-8.666887283325195312e-01 -6.214020252227783203e+00 1.402442932128906250e+00
-1.099149107933044434e+00 -6.183088302612304688e+00 1.222988247871398926e+00
-8.677910566329956055e-01 -6.182483673095703125e+00 1.154834270477294922e+00
-1.596694111824035645e+00 -6.268651485443115234e+00 1.142953038215637207e+00
-1.347009778022766113e+00 -6.230166912078857422e+00 1.062088012695312500e+00
-1.103186726570129395e+00 -6.199522018432617188e+00 9.883221387863159180e-01
-8.728496432304382324e-01 -6.187139987945556641e+00 9.215699434280395508e-01
-1.603840589523315430e+00 -6.292117118835449219e+00 9.044864773750305176e-01
-1.349947571754455566e+00 -6.233220100402832031e+00 8.260583281517028809e-01
-1.107515692710876465e+00 -6.192513942718505859e+00 7.556976079940795898e-01
-8.781111836433410645e-01 -6.200961589813232422e+00 6.925289630889892578e-01
-1.596367001533508301e+00 -6.253675937652587891e+00 6.612859368324279785e-01
-1.340256810188293457e+00 -6.178048610687255859e+00 5.875642895698547363e-01
-1.361738681793212891e+00 -5.326773643493652344e+00 3.622904717922210693e-01
-1.230299353599548340e+00 -5.661649227142333984e+00 3.269658684730529785e-01
-1.370968103408813477e+00 -5.358978748321533203e+00 1.641730070114135742e-01
-1.226753234863281250e+00 -5.635849475860595703e+00 1.167901530861854553e-01
-1.396164298057556152e+00 -6.302081584930419922e+00 1.828981518745422363e+00
-1.260259032249450684e+00 -6.892651081085205078e+00 1.911618828773498535e+00
-8.998847007751464844e-01 -6.212839126586914062e+00 1.650430083274841309e+00
-1.659587502479553223e+00 -6.352360248565673828e+00 1.667442440986633301e+00
-9.026899337768554688e-01 -6.194099903106689453e+00 1.399170875549316406e+00
-1.139199733734130859e+00 -6.187811374664306641e+00 1.225282073020935059e+00
-9.054243564605712891e-01 -6.175096511840820312e+00 1.154470443725585938e+00
-1.642844200134277344e+00 -6.288272380828857422e+00 1.148346781730651855e+00
-1.390142321586608887e+00 -6.243929386138916016e+00 1.065868139266967773e+00
-1.145681619644165039e+00 -6.216925144195556641e+00 9.921985268592834473e-01
-9.082010984420776367e-01 -6.164050579071044922e+00 9.189435243606567383e-01
-1.646175861358642578e+00 -6.296531200408935547e+00 9.065558910369873047e-01
-1.390758752822875977e+00 -6.236434936523437500e+00 8.275997042655944824e-01
-1.148926377296447754e+00 -6.204151153564453125e+00 7.579637765884399414e-01
-8.997132778167724609e-01 -6.084350109100341797e+00 6.801094412803649902e-01
-1.638991951942443848e+00 -6.260122776031494141e+00 6.630185842514038086e-01
-1.380092978477478027e+00 -6.178454399108886719e+00 5.883971452713012695e-01
-1.144080638885498047e+00 -6.165962219238281250e+00 5.233011841773986816e-01
-1.649994850158691406e+00 -6.293181896209716797e+00 4.286994338035583496e-01
-1.261309385299682617e+00 -5.637429714202880859e+00 3.260080218315124512e-01
-1.397989869117736816e+00 -5.328228473663330078e+00 1.634906828403472900e-01
-1.263060212135314941e+00 -5.636021137237548828e+00 1.169521138072013855e-01
-1.442078232765197754e+00 -6.325290679931640625e+00 1.838250517845153809e+00
-1.305935144424438477e+00 -6.902799129486083984e+00 1.916619658470153809e+00
-9.379889965057373047e-01 -6.207200527191162109e+00 1.650430083274841309e+00
-1.694521784782409668e+00 -6.327078342437744141e+00 1.663504004478454590e+00
-9.412658214569091797e-01 -6.192303657531738281e+00 1.400043368339538574e+00
-1.182471632957458496e+00 -6.208667278289794922e+00 1.230825424194335938e+00
-9.428511857986450195e-01 -6.166508674621582031e+00 1.153924822807312012e+00
-1.685983061790466309e+00 -6.295195579528808594e+00 1.151478648185729980e+00
-1.430410623550415039e+00 -6.243936061859130859e+00 1.067347526550292969e+00
-1.186581373214721680e+00 -6.224335193634033203e+00 9.945243597030639648e-01
-9.467569589614868164e-01 -6.163251399993896484e+00 9.196730852127075195e-01
-1.693497180938720703e+00 -6.318839073181152344e+00 9.112467169761657715e-01
-1.436761260032653809e+00 -6.261614799499511719e+00 8.320954442024230957e-01
-1.192015767097473145e+00 -6.223313331604003906e+00 7.611840367317199707e-01
-9.474776983261108398e-01 -6.146496295928955078e+00 6.876930594444274902e-01
-1.675309658050537109e+00 -6.242261886596679688e+00 6.622031927108764648e-01
-1.426898121833801270e+00 -6.208686351776123047e+00 5.920988917350769043e-01
-1.188466072082519531e+00 -6.193079471588134766e+00 5.262116193771362305e-01
-1.684952259063720703e+00 -6.269448280334472656e+00 4.277789294719696045e-01
-1.428912997245788574e+00 -6.207526683807373047e+00 3.594765067100524902e-01
-1.431954979896545410e+00 -5.324376583099365234e+00 1.636390089988708496e-01
-1.290655255317687988e+00 -5.597963809967041016e+00 1.163245365023612976e-01
-1.481960296630859375e+00 -6.321006298065185547e+00 1.839613556861877441e+00
-9.742535352706909180e-01 -6.189863681793212891e+00 1.647378921508789062e+00
-1.755882620811462402e+00 -6.398813247680664062e+00 1.685165524482727051e+00
-1.493567705154418945e+00 -6.360524177551269531e+00 1.589079022407531738e+00
-9.275195598602294922e-01 -5.859644412994384766e+00 1.326092839241027832e+00
-1.467122077941894531e+00 -6.238116741180419922e+00 1.310777187347412109e+00
-1.223388433456420898e+00 -6.215741634368896484e+00 1.233692765235900879e+00
-8.990509510040283203e-01 -5.647871017456054688e+00 1.057885646820068359e+00
-1.730571389198303223e+00 -6.306573867797851562e+00 1.155480504035949707e+00
-1.469374299049377441e+00 -6.237921714782714844e+00 1.067840456962585449e+00
-1.226469397544860840e+00 -6.225660800933837891e+00 9.959198832511901855e-01
-9.383196830749511719e-01 -5.868167400360107422e+00 8.764836192131042480e-01
-1.736695408821105957e+00 -6.324565410614013672e+00 9.135920405387878418e-01
-1.475837945938110352e+00 -6.255577087402343750e+00 8.324807882308959961e-01
-1.230949878692626953e+00 -6.219777584075927734e+00 7.616611123085021973e-01
-9.124314188957214355e-01 -5.687163829803466797e+00 6.369156241416931152e-01
-1.724129915237426758e+00 -6.270232677459716797e+00 6.662802100181579590e-01
-1.487177371978759766e+00 -6.293809890747070312e+00 6.010757088661193848e-01
-1.228381872177124023e+00 -6.195446014404296875e+00 5.270431637763977051e-01
-1.731070995330810547e+00 -6.286890506744384766e+00 4.296857118606567383e-01
-1.484219789505004883e+00 -6.271510601043701172e+00 3.637023568153381348e-01
-1.228205919265747070e+00 -6.183244228363037109e+00 2.961885631084442139e-01
-1.300767302513122559e+00 -5.487790584564208984e+00 1.141988709568977356e-01
-1.139363765716552734e+00 -5.720304489135742188e+00 6.209991127252578735e-02
-1.527252912521362305e+00 -6.338920116424560547e+00 1.847519516944885254e+00
-1.005028963088989258e+00 -6.139865398406982422e+00 1.635682702064514160e+00
-1.795374155044555664e+00 -6.388852119445800781e+00 1.685411572456359863e+00
-9.968973994255065918e-01 -6.057027816772460938e+00 1.372121095657348633e+00
-1.474991798400878906e+00 -6.103293895721435547e+00 1.284325242042541504e+00
-1.263459086418151855e+00 -6.217736721038818359e+00 1.235604166984558105e+00
-9.346519708633422852e-01 -5.648068904876708984e+00 1.058977007865905762e+00
-1.775895476341247559e+00 -6.319537162780761719e+00 1.159830212593078613e+00
-1.511102437973022461e+00 -6.243168830871582031e+00 1.070305824279785156e+00
-1.264843106269836426e+00 -6.218986034393310547e+00 9.960749149322509766e-01
-1.017290115356445312e+00 -6.120915889739990234e+00 9.151498675346374512e-01
-1.777346372604370117e+00 -6.320464134216308594e+00 9.145578145980834961e-01
-1.516062736511230469e+00 -6.254114151000976562e+00 8.335083723068237305e-01
-1.270879149436950684e+00 -6.220862865447998047e+00 7.627345919609069824e-01
-1.002889871597290039e+00 -6.014796733856201172e+00 6.742842793464660645e-01
-1.766615390777587891e+00 -6.273899078369140625e+00 6.678090691566467285e-01
-1.507209300994873047e+00 -6.208125591278076172e+00 5.937647223472595215e-01
-1.259180307388305664e+00 -6.152645587921142578e+00 5.240495800971984863e-01
-1.779633402824401855e+00 -6.311685085296630859e+00 4.321185350418090820e-01
-1.508283853530883789e+00 -6.203106403350830078e+00 3.602653443813323975e-01
-1.287187814712524414e+00 -6.278338909149169922e+00 3.011164367198944092e-01
-1.200680211186408997e-01 -7.154843807220458984e-01 2.723645232617855072e-02
-1.788968205451965332e+00 -6.340555191040039062e+00 1.955302208662033081e-01
-1.327081918716430664e+00 -5.449592113494873047e+00 1.135712936520576477e-01
-1.178669691085815430e+00 -5.733774662017822266e+00 6.232348456978797913e-02
-1.570740818977355957e+00 -6.348108768463134766e+00 1.852971792221069336e+00
-1.817929744720458984e+00 -6.319965362548828125e+00 1.670150160789489746e+00
-1.040126442909240723e+00 -6.086389541625976562e+00 1.380192279815673828e+00
-1.302794694900512695e+00 -6.215631484985351562e+00 1.236751079559326172e+00
-1.056696176528930664e+00 -6.151016235351562500e+00 1.154470443725585938e+00
-1.816271424293518066e+00 -6.314199924468994141e+00 1.160874247550964355e+00
-1.557471036911010742e+00 -6.266327381134033203e+00 1.075894117355346680e+00
-1.302369832992553711e+00 -6.208207607269287109e+00 9.956097602844238281e-01
-1.067946314811706543e+00 -6.190600395202636719e+00 9.265308976173400879e-01
-1.821573734283447266e+00 -6.328475475311279297e+00 9.173170328140258789e-01
-1.562313795089721680e+00 -6.276451587677001953e+00 8.377472162246704102e-01
-1.314961791038513184e+00 -6.241121768951416016e+00 7.661933898925781250e-01
-1.068419814109802246e+00 -6.174046039581298828e+00 6.928587555885314941e-01
-1.802598476409912109e+00 -6.254338264465332031e+00 6.668917536735534668e-01
-1.551535248756408691e+00 -6.223880290985107422e+00 5.961709022521972656e-01
-1.299377918243408203e+00 -6.156503677368164062e+00 5.250474214553833008e-01
-1.820817708969116211e+00 -6.309275150299072266e+00 4.327102601528167725e-01
-1.329629421234130859e+00 -5.325798034667968750e+00 3.097808659076690674e-01
-1.228987574577331543e+00 -5.812948703765869141e+00 2.791522145271301270e-01
-1.820351719856262207e+00 -6.303530693054199219e+00 1.947292238473892212e-01
-1.360252499580383301e+00 -5.440377235412597656e+00 1.135510504245758057e-01
-1.200144171714782715e+00 -5.661872863769531250e+00 6.162082776427268982e-02
-1.605399727821350098e+00 -6.321565628051757812e+00 1.848064661026000977e+00
-1.226566553115844727e+00 -6.956648826599121094e+00 1.857147097587585449e+00
-1.901324629783630371e+00 -6.464572429656982422e+00 1.447043418884277344e+00
-1.332204103469848633e+00 -6.167224884033203125e+00 1.228722810745239258e+00
-1.101660370826721191e+00 -6.185076713562011719e+00 1.162109971046447754e+00
-1.858038544654846191e+00 -6.313327789306640625e+00 1.162788033485412598e+00
-1.599304318428039551e+00 -6.270033836364746094e+00 1.078195214271545410e+00
-1.347953438758850098e+00 -6.234860897064208984e+00 1.001191735267639160e+00
-1.109568357467651367e+00 -6.204381942749023438e+00 9.295949935913085938e-01
-1.866805672645568848e+00 -6.339031696319580078e+00 9.204902648925781250e-01
-1.605459451675415039e+00 -6.285003662109375000e+00 8.401877880096435547e-01
-1.358919501304626465e+00 -6.259132862091064453e+00 7.694137096405029297e-01
-1.111723065376281738e+00 -6.197702407836914062e+00 6.962658762931823730e-01
-1.841221809387207031e+00 -6.244113922119140625e+00 6.669936776161193848e-01
-1.597344994544982910e+00 -6.244147300720214844e+00 5.990397930145263672e-01
-1.349411845207214355e+00 -6.204894065856933594e+00 5.298705101013183594e-01
-1.859213829040527344e+00 -6.297027111053466797e+00 4.326445162296295166e-01
-1.355592846870422363e+00 -5.291425704956054688e+00 3.082595765590667725e-01
-1.232101917266845703e+00 -5.655968666076660156e+00 2.719715833663940430e-01
-1.853047847747802734e+00 -6.272111892700195312e+00 1.941062361001968384e-01
-1.387893915176391602e+00 -5.409654617309570312e+00 1.130854263901710510e-01
-1.220354437828063965e+00 -5.587971687316894531e+00 6.089688092470169067e-02
-1.311363875865936279e-01 -7.252389192581176758e-01 9.004151797853410244e-04
-1.904343485832214355e+00 -6.331068992614746094e+00 1.419748544692993164e+00
-1.385366082191467285e+00 -6.227920532226562500e+00 1.242485761642456055e+00
-1.144941449165344238e+00 -6.207210540771484375e+00 1.167566657066345215e+00
-1.896457672119140625e+00 -6.300865173339843750e+00 1.162614107131958008e+00
-1.643238782882690430e+00 -6.281096935272216797e+00 1.081811070442199707e+00
-1.390692710876464844e+00 -6.246722698211669922e+00 1.004447817802429199e+00
-1.151759982109069824e+00 -6.219830513000488281e+00 9.329509735107421875e-01
-1.909664750099182129e+00 -6.340734958648681641e+00 9.224216938018798828e-01
-1.645501255989074707e+00 -6.280790328979492188e+00 8.409584760665893555e-01
-1.399898409843444824e+00 -6.262304306030273438e+00 7.708449363708496094e-01
-1.150637865066528320e+00 -6.195650100708007812e+00 6.968153715133666992e-01
-2.001851797103881836e+00 -6.638433933258056641e+00 7.104134559631347656e-01
-1.638407707214355469e+00 -6.244822502136230469e+00 6.000577211380004883e-01
-1.396604299545288086e+00 -6.237340927124023438e+00 5.333630442619323730e-01
-1.899835586547851562e+00 -6.292187213897705078e+00 4.331047832965850830e-01
-1.656965136528015137e+00 -6.306585311889648438e+00 3.679845035076141357e-01
-1.264815807342529297e+00 -5.639530181884765625e+00 2.715491950511932373e-01
-1.894099831581115723e+00 -6.269235610961914062e+00 1.943732500076293945e-01
-1.421569585800170898e+00 -5.402970314025878906e+00 1.131259128451347351e-01
-1.252644658088684082e+00 -5.571598529815673828e+00 6.080106645822525024e-02
-1.431515693664550781e+00 -6.289406299591064453e+00 1.759752631187438965e+00
-1.695001721382141113e+00 -6.337998867034912109e+00 1.595696210861206055e+00
-1.882520556449890137e+00 -6.122079849243164062e+00 1.375447034835815430e+00
-1.186877012252807617e+00 -6.220352172851562500e+00 1.171386480331420898e+00
-1.927843570709228516e+00 -6.265580654144287109e+00 1.158264398574829102e+00
-1.685325026512145996e+00 -6.284234046936035156e+00 1.084112048149108887e+00
-1.432525157928466797e+00 -6.253479480743408203e+00 1.006928801536560059e+00
-1.190646767616271973e+00 -6.216532707214355469e+00 9.335345625877380371e-01
-1.952614903450012207e+00 -6.342150211334228516e+00 9.243531823158264160e-01
-1.688381195068359375e+00 -6.286857604980468750e+00 8.431420922279357910e-01
-1.441635012626647949e+00 -6.268110752105712891e+00 7.726339697837829590e-01
-1.193506598472595215e+00 -6.213851928710937500e+00 6.996729969978332520e-01
-2.035513401031494141e+00 -6.603209972381591797e+00 7.079672813415527344e-01
-1.677211642265319824e+00 -6.236575603485107422e+00 6.002428531646728516e-01
-1.439099907875061035e+00 -6.247104644775390625e+00 5.349429845809936523e-01
-1.939290761947631836e+00 -6.283271789550781250e+00 4.333020150661468506e-01
-1.698226690292358398e+00 -6.305940151214599609e+00 3.685479462146759033e-01
-1.297823429107666016e+00 -5.624850273132324219e+00 2.712206840515136719e-01
-1.950228571891784668e+00 -6.314798831939697266e+00 1.961532235145568848e-01
-1.447926402091979980e+00 -5.369048118591308594e+00 1.125995591282844543e-01
-1.279146790504455566e+00 -5.530683517456054688e+00 6.043908745050430298e-02
-1.492689371109008789e+00 -6.362084388732910156e+00 1.523111581802368164e+00
-1.915946245193481445e+00 -6.097355365753173828e+00 1.372507691383361816e+00
-1.229587197303771973e+00 -6.236106395721435547e+00 1.175751805305480957e+00
-1.988995194435119629e+00 -6.325967788696289062e+00 1.171661734580993652e+00
-1.731431841850280762e+00 -6.301358699798583984e+00 1.088878512382507324e+00
-1.472907304763793945e+00 -6.253226280212402344e+00 1.008324265480041504e+00
-1.230496764183044434e+00 -6.217844963073730469e+00 9.348477721214294434e-01
-1.998329401016235352e+00 -6.351779937744140625e+00 9.275263547897338867e-01
-1.732186555862426758e+00 -6.295503139495849609e+00 8.457110524177551270e-01
-1.481439113616943359e+00 -6.264944076538085938e+00 7.733496427536010742e-01
-1.232772350311279297e+00 -6.212261676788330078e+00 7.003324627876281738e-01
-2.074198484420776367e+00 -6.584903717041015625e+00 7.073557972908020020e-01
-1.726026415824890137e+00 -6.264564514160156250e+00 6.039445996284484863e-01
-1.490035772323608398e+00 -6.291491508483886719e+00 5.395166277885437012e-01
-1.236084103584289551e+00 -6.211912155151367188e+00 4.684521853923797607e-01
-1.992513775825500488e+00 -6.317884445190429688e+00 4.365238547325134277e-01
-1.753085136413574219e+00 -6.354111194610595703e+00 3.719849586486816406e-01
-1.476632833480834961e+00 -6.225208759307861328e+00 3.006001710891723633e-01
-2.000670194625854492e+00 -6.339889049530029297e+00 1.973102092742919922e-01
-1.464069604873657227e+00 -5.299349784851074219e+00 1.113241538405418396e-01
-1.296867728233337402e+00 -5.454633235931396484e+00 5.969385057687759399e-02
-1.540177345275878906e+00 -6.402683734893798828e+00 1.796600461006164551e+00
-1.787615776062011719e+00 -6.370047092437744141e+00 1.609167098999023438e+00
-2.064181566238403320e+00 -6.430859565734863281e+00 1.450402855873107910e+00
-1.513380289077758789e+00 -6.257654666900634766e+00 1.253763675689697266e+00
-1.269593358039855957e+00 -6.237116813659667969e+00 1.177388906478881836e+00
-2.030483484268188477e+00 -6.322082519531250000e+00 1.173227667808532715e+00
-1.778346061706542969e+00 -6.320051193237304688e+00 1.093973636627197266e+00
-1.515896439552307129e+00 -6.263274669647216797e+00 1.011425375938415527e+00
-1.270605683326721191e+00 -6.219870090484619141e+00 9.363068342208862305e-01
-2.043629169464111328e+00 -6.359200954437255859e+00 9.304236173629760742e-01
-1.774547934532165527e+00 -6.298120021820068359e+00 8.475093841552734375e-01
-1.523368239402770996e+00 -6.270208358764648438e+00 7.751386761665344238e-01
-1.271864175796508789e+00 -6.209449291229248047e+00 7.008820176124572754e-01
-2.160572290420532227e+00 -6.715046882629394531e+00 7.227463722229003906e-01
-1.783358335494995117e+00 -6.320936203002929688e+00 6.104227304458618164e-01
-1.520129680633544922e+00 -6.247371673583984375e+00 5.365229845046997070e-01
-1.270966410636901855e+00 -6.188580989837646484e+00 4.672720432281494141e-01
-2.049905300140380859e+00 -6.363475322723388672e+00 4.405346810817718506e-01
-1.787697196006774902e+00 -6.327861785888671875e+00 3.710834383964538574e-01
-1.311646103858947754e+00 -5.382374763488769531e+00 2.602854967117309570e-01
-2.041373252868652344e+00 -6.333202362060546875e+00 1.974882036447525024e-01
-1.328414320945739746e+00 -5.438802242279052734e+00 5.960867926478385925e-02
-1.177827358245849609e+00 -5.709779262542724609e+00 7.122687529772520065e-03
-1.570410370826721191e+00 -6.356585979461669922e+00 1.786335706710815430e+00
-1.834447860717773438e+00 -6.386041641235351562e+00 1.616020560264587402e+00
-2.102688074111938477e+00 -6.415285587310791016e+00 1.449772834777832031e+00
-1.309658050537109375e+00 -6.237870216369628906e+00 1.179025888442993164e+00
-2.069543600082397461e+00 -6.310440540313720703e+00 1.173401594161987305e+00
-1.820913791656494141e+00 -6.322290897369384766e+00 1.096274733543395996e+00
-1.561685442924499512e+00 -6.283576488494873047e+00 1.016232132911682129e+00
-1.310377717018127441e+00 -6.219700813293457031e+00 9.374741315841674805e-01
-2.087550878524780273e+00 -6.361598491668701172e+00 9.326309561729431152e-01
-1.816181778907775879e+00 -6.297594547271728516e+00 8.489223122596740723e-01
-1.566138505935668945e+00 -6.278083324432373047e+00 7.772855162620544434e-01
-1.314254403114318848e+00 -6.221950531005859375e+00 7.031900286674499512e-01
-2.215706586837768555e+00 -6.744192123413085938e+00 7.273329496383666992e-01
-1.859126210212707520e+00 -6.438062191009521484e+00 6.228236556053161621e-01
-1.554569602012634277e+00 -6.222457885742187500e+00 5.351924896240234375e-01
-1.300856828689575195e+00 -6.142615795135498047e+00 4.643953740596771240e-01
-2.080806016921997070e+00 -6.326132774353027344e+00 4.388251602649688721e-01
-1.833423852920532227e+00 -6.340752124786376953e+00 3.724920749664306641e-01
-1.341252565383911133e+00 -5.360658645629882812e+00 2.596284449100494385e-01
-1.207714557647705078e+00 -5.688104629516601562e+00 2.183042913675308228e-01
-2.058633327484130859e+00 -6.255044460296630859e+00 1.954412311315536499e-01
-1.816771268844604492e+00 -6.274950504302978516e+00 1.322771608829498291e-01
-1.361274719238281250e+00 -5.428608417510986328e+00 5.958738178014755249e-02
-1.208054900169372559e+00 -5.679947376251220703e+00 7.094587199389934540e-03
-1.610095500946044922e+00 -6.349636077880859375e+00 1.787125349044799805e+00
-1.874419331550598145e+00 -6.377462387084960938e+00 1.616729617118835449e+00
-1.884709954261779785e+00 -6.404211044311523438e+00 1.365484714508056641e+00
-1.350403666496276855e+00 -6.241249561309814453e+00 1.181208610534667969e+00
-2.071962118148803711e+00 -6.189301013946533203e+00 1.153218507766723633e+00
-1.862460374832153320e+00 -6.320460319519042969e+00 1.097918272018432617e+00
-1.604361891746520996e+00 -6.290148735046386719e+00 1.018867969512939453e+00
-1.354603171348571777e+00 -6.239580154418945312e+00 9.417055845260620117e-01
-2.134410142898559570e+00 -6.372148513793945312e+00 9.360800385475158691e-01
-1.858156681060791016e+00 -6.297746658325195312e+00 8.504636883735656738e-01
-1.606846690177917480e+00 -6.277012348175048828e+00 7.783589959144592285e-01
-1.356000304222106934e+00 -6.230279922485351562e+00 7.050585150718688965e-01
-2.264953613281250000e+00 -6.754049301147460938e+00 7.298810482025146484e-01
-1.973635315895080566e+00 -6.680539131164550781e+00 6.474404335021972656e-01
-1.603114247322082520e+00 -6.253345489501953125e+00 5.386850237846374512e-01
-1.246042132377624512e+00 -5.710675239562988281e+00 4.323095977306365967e-01
-2.141814470291137695e+00 -6.379462718963623047e+00 4.434277713298797607e-01
-1.868330478668212891e+00 -6.315979003906250000e+00 3.717032074928283691e-01
-1.368655085563659668e+00 -5.331042289733886719e+00 2.585959434509277344e-01
-1.236400723457336426e+00 -5.652276992797851562e+00 2.172163426876068115e-01
-2.131351470947265625e+00 -6.344627380371093750e+00 1.986451745033264160e-01
-1.862621784210205078e+00 -6.288609504699707031e+00 1.328035145998001099e-01
-1.391070127487182617e+00 -5.406596183776855469e+00 5.943833664059638977e-02
-1.230041742324829102e+00 -5.613818645477294922e+00 7.021283730864524841e-03
-1.648297190666198730e+00 -6.336836338043212891e+00 1.786335706710815430e+00
-1.901381611824035645e+00 -6.317474365234375000e+00 1.349453210830688477e+00
-1.391881465911865234e+00 -6.247242927551269531e+00 1.183936953544616699e+00
-2.183752775192260742e+00 -6.392666339874267578e+00 1.193584680557250977e+00
-1.907183766365051270e+00 -6.328746795654296875e+00 1.101369738578796387e+00
-1.643677473068237305e+00 -6.283053874969482422e+00 1.019333243370056152e+00
-1.398689985275268555e+00 -6.257218837738037109e+00 9.456451535224914551e-01
-2.184680223464965820e+00 -6.391734123229980469e+00 9.409087300300598145e-01
-1.907650113105773926e+00 -6.322305202484130859e+00 8.553448319435119629e-01
-1.652894973754882812e+00 -6.295844078063964844e+00 7.819370627403259277e-01
-1.395507097244262695e+00 -6.227661609649658203e+00 7.057179808616638184e-01
-2.313760757446289062e+00 -6.761672973632812500e+00 7.322253584861755371e-01
-2.003358602523803711e+00 -6.631130218505859375e+00 6.438312530517578125e-01
-1.631065011024475098e+00 -6.203876018524169922e+00 5.352756381034851074e-01
-1.291331768035888672e+00 -5.748654842376708984e+00 4.357763528823852539e-01
-2.189002513885498047e+00 -6.389800071716308594e+00 4.450715482234954834e-01
-1.914854645729064941e+00 -6.330198764801025391e+00 3.732245266437530518e-01
-1.399814009666442871e+00 -5.316748142242431641e+00 2.583143413066864014e-01
-1.265131950378417969e+00 -5.618262290954589844e+00 2.162034213542938232e-01
-2.181909322738647461e+00 -6.365470409393310547e+00 1.997131705284118652e-01
-1.903201580047607422e+00 -6.283760070800781250e+00 1.329452246427536011e-01
-1.425748825073242188e+00 -5.403759956359863281e+00 5.950221419334411621e-02
-1.264464259147644043e+00 -5.606165409088134766e+00 7.021283730864524841e-03
-1.688142657279968262e+00 -6.330331802368164062e+00 1.787388563156127930e+00
-1.450411438941955566e+00 -6.377891063690185547e+00 1.719590067863464355e+00
-1.881047248840332031e+00 -6.113727569580078125e+00 1.308372497558593750e+00
-1.433043956756591797e+00 -6.251044750213623047e+00 1.186301589012145996e+00
-2.229741573333740234e+00 -6.398674964904785156e+00 1.197238564491271973e+00
-1.952078819274902344e+00 -6.336721897125244141e+00 1.104821324348449707e+00
-1.689107537269592285e+00 -6.298613071441650391e+00 1.023519635200500488e+00
-1.439939737319946289e+00 -6.261052608489990234e+00 9.475419521331787109e-01
-2.229727506637573242e+00 -6.395042896270751953e+00 9.433920979499816895e-01
-1.950499296188354492e+00 -6.323748111724853516e+00 8.571431040763854980e-01
-1.692010402679443359e+00 -6.287500858306884766e+00 7.821756005287170410e-01
-1.442847609519958496e+00 -6.258691787719726562e+00 7.102241516113281250e-01
-2.355206251144409180e+00 -6.747348785400390625e+00 7.322253584861755371e-01
-1.976433396339416504e+00 -6.399896621704101562e+00 6.225460171699523926e-01
-1.675323724746704102e+00 -6.216844558715820312e+00 5.372713804244995117e-01
-1.436604857444763184e+00 -6.216740608215332031e+00 4.719189405441284180e-01
-2.236068487167358398e+00 -6.398855686187744141e+00 4.466495811939239502e-01
-1.963097810745239258e+00 -6.348853588104248047e+00 3.750275373458862305e-01
-1.705672144889831543e+00 -6.320679664611816406e+00 3.075930774211883545e-01
-1.300708651542663574e+00 -5.615261077880859375e+00 2.163909822702407837e-01
-2.226864337921142578e+00 -6.368946552276611328e+00 2.002471685409545898e-01
-1.938174009323120117e+00 -6.260503292083740234e+00 1.327022910118103027e-01
-1.458617806434631348e+00 -5.393944740295410156e+00 5.949156731367111206e-02
-1.283019065856933594e+00 -5.530112266540527344e+00 6.935762241482734680e-03
-1.472736358642578125e+00 -6.272426128387451172e+00 1.440181732177734375e+00
-1.922932624816894531e+00 -6.116089820861816406e+00 1.311378359794616699e+00
-1.472500681877136230e+00 -6.246919631958007812e+00 1.187211036682128906e+00
-2.294021368026733398e+00 -6.455393314361572266e+00 1.210461854934692383e+00
-2.002770662307739258e+00 -6.362260341644287109e+00 1.111395597457885742e+00
-1.734005093574523926e+00 -6.310993194580078125e+00 1.027240991592407227e+00
-1.481061458587646484e+00 -6.263652324676513672e+00 9.492928981781005859e-01
-2.279874563217163086e+00 -6.412036895751953125e+00 9.479448795318603516e-01
-1.995524525642395020e+00 -6.331523895263671875e+00 8.598405122756958008e-01
-1.734252452850341797e+00 -6.290400981903076172e+00 7.838454246520996094e-01
-1.485807418823242188e+00 -6.269063472747802734e+00 7.124223113059997559e-01
-2.408572196960449219e+00 -6.766509056091308594e+00 7.358946204185485840e-01
-2.005777120590209961e+00 -6.356313705444335938e+00 6.194920539855957031e-01
-1.726963043212890625e+00 -6.255438327789306641e+00 5.415123105049133301e-01
-1.485095500946044922e+00 -6.251471519470214844e+00 4.752381443977355957e-01
-2.283662796020507812e+00 -6.408513545989990234e+00 4.482933580875396729e-01
-2.015251159667968750e+00 -6.378577709197998047e+00 3.775067031383514404e-01
-1.772902250289916992e+00 -6.413112640380859375e+00 3.126147985458374023e-01
-1.629109978675842285e+00 -6.841763973236083984e+00 2.640360295772552490e-01
-2.281343221664428711e+00 -6.398472309112548828e+00 2.016118019819259644e-01
-1.999467849731445312e+00 -6.320939540863037109e+00 1.342408657073974609e-01
-1.472200036048889160e+00 -5.314547061920166016e+00 5.871438980102539062e-02
-1.303240418434143066e+00 -5.464745521545410156e+00 6.863680202513933182e-03
-1.790259838104248047e+00 -6.384019851684570312e+00 1.545356631278991699e+00
-2.003263473510742188e+00 -6.237565040588378906e+00 1.340034723281860352e+00
-1.510108947753906250e+00 -6.234899520874023438e+00 1.186665296554565430e+00
-2.339961051940917969e+00 -6.458786964416503906e+00 1.213767766952514648e+00
-2.049319744110107422e+00 -6.373328208923339844e+00 1.115504622459411621e+00
-1.781525969505310059e+00 -6.331616878509521484e+00 1.032357811927795410e+00
-1.521101474761962891e+00 -6.261176109313964844e+00 9.503142833709716797e-01
-2.319175243377685547e+00 -6.397927284240722656e+00 9.479448795318603516e-01
-2.040110588073730469e+00 -6.337096691131591797e+00 8.622810840606689453e-01
-1.776053905487060547e+00 -6.291107177734375000e+00 7.852766513824462891e-01
-1.529889345169067383e+00 -6.283006668090820312e+00 7.150601148605346680e-01
-2.467351913452148438e+00 -6.799294471740722656e+00 7.410927414894104004e-01
-2.034660816192626953e+00 -6.312613010406494141e+00 6.164380908012390137e-01
-1.786728978157043457e+00 -6.320481777191162109e+00 5.480816364288330078e-01
-1.476609349250793457e+00 -6.050410747528076172e+00 4.606336057186126709e-01
-2.319875240325927734e+00 -6.385940074920654297e+00 4.477016031742095947e-01
-2.039940357208251953e+00 -6.321434974670410156e+00 3.748584985733032227e-01
-1.792358279228210449e+00 -6.331950664520263672e+00 3.091887533664703369e-01
-1.319657444953918457e+00 -5.395033836364746094e+00 2.085126638412475586e-01
-2.327731132507324219e+00 -6.404081821441650391e+00 2.022348046302795410e-01
-2.054505586624145508e+00 -6.358974456787109375e+00 1.353138238191604614e-01
-1.336746931076049805e+00 -5.456645965576171875e+00 6.863680202513933182e-03
-2.102252006530761719e+00 -6.410411357879638672e+00 1.379913091659545898e+00
-1.827644348144531250e+00 -6.350087165832519531e+00 1.286832928657531738e+00
-1.554033041000366211e+00 -6.248418807983398438e+00 1.191030740737915039e+00
-2.388074874877929688e+00 -6.467402458190917969e+00 1.218117594718933105e+00
-2.088387250900268555e+00 -6.360633373260498047e+00 1.115504622459411621e+00
-1.824443578720092773e+00 -6.334805965423583984e+00 1.034683704376220703e+00
-1.565716266632080078e+00 -6.276681900024414062e+00 9.541079401969909668e-01
-2.367655992507934570e+00 -6.408660888671875000e+00 9.516698718070983887e-01
-2.082362651824951172e+00 -6.334822654724121094e+00 8.636940121650695801e-01
-1.818480610847473145e+00 -6.293445587158203125e+00 7.869464755058288574e-01
-1.569376587867736816e+00 -6.277357578277587891e+00 7.154996991157531738e-01
-2.495222091674804688e+00 -6.746706008911132812e+00 7.370157837867736816e-01
-2.060282707214355469e+00 -6.260286331176757812e+00 6.125512719154357910e-01
-1.945957064628601074e+00 -6.725814342498779297e+00 5.842545628547668457e-01
-1.361729621887207031e+00 -5.434694290161132812e+00 4.143858253955841064e-01
-2.365597724914550781e+00 -6.389364719390869141e+00 4.489508867263793945e-01
-2.090874910354614258e+00 -6.345781326293945312e+00 3.770559430122375488e-01
-1.817556858062744141e+00 -6.273821353912353516e+00 3.068890869617462158e-01
-1.350302100181579590e+00 -5.377143383026123047e+00 2.081375271081924438e-01
-2.382259607315063477e+00 -6.430920600891113281e+00 2.035401165485382080e-01
-2.101628303527832031e+00 -6.370934963226318359e+00 1.358401775360107422e-01
-1.365081310272216797e+00 -5.427975177764892578e+00 6.838024128228425980e-03
-1.608158707618713379e+00 -6.346937656402587891e+00 1.721369862556457520e+00
-1.875602483749389648e+00 -6.385864734649658203e+00 1.551258444786071777e+00
-2.149943113327026367e+00 -6.422475814819335938e+00 1.385323762893676758e+00
-1.601097822189331055e+00 -6.273065090179443359e+00 1.197578907012939453e+00
-2.429100275039672852e+00 -6.456314086914062500e+00 1.218813538551330566e+00
-2.133958339691162109e+00 -6.367340564727783203e+00 1.118956089019775391e+00
-1.870538711547851562e+00 -6.348130702972412109e+00 1.038715124130249023e+00
-1.610823631286621094e+00 -6.292833328247070312e+00 9.580475091934204102e-01
-2.422287225723266602e+00 -6.434798240661621094e+00 9.577403068542480469e-01
-2.131603479385375977e+00 -6.352952957153320312e+00 8.679328560829162598e-01
-1.861284136772155762e+00 -6.296450614929199219e+00 7.887355089187622070e-01
-1.614285707473754883e+00 -6.292642116546630859e+00 7.183573246002197266e-01
-2.534818172454833984e+00 -6.726613998413085938e+00 7.365061640739440918e-01
-2.138606548309326172e+00 -6.366455078125000000e+00 6.242118477821350098e-01
-1.908561348915100098e+00 -6.448102474212646484e+00 5.611371397972106934e-01
-1.390084266662597656e+00 -5.406919002532958984e+00 4.129106104373931885e-01
-2.398418188095092773e+00 -6.357924461364746094e+00 4.477673470973968506e-01
-2.135501146316528320e+00 -6.349866390228271484e+00 3.780701458454132080e-01
-1.862830162048339844e+00 -6.285535812377929688e+00 3.080154657363891602e-01
-1.383020877838134766e+00 -5.367789268493652344e+00 2.081000059843063354e-01
-2.425909519195556641e+00 -6.427403926849365234e+00 2.038961052894592285e-01
-2.138766050338745117e+00 -6.352234363555908203e+00 1.357187032699584961e-01
-1.895968198776245117e+00 -6.385076522827148438e+00 7.091505825519561768e-02
-1.396862030029296875e+00 -5.413687229156494141e+00 6.830693688243627548e-03
-1.644396185874938965e+00 -6.326653957366943359e+00 1.718572974205017090e+00
-1.918392539024353027e+00 -6.386361598968505859e+00 1.554209232330322266e+00
-2.184243202209472656e+00 -6.394329071044921875e+00 1.382117509841918945e+00
-1.896374702453613281e+00 -6.297105312347412109e+00 1.280716061592102051e+00
-1.689860939979553223e+00 -6.455278396606445312e+00 1.234321117401123047e+00
-2.486995220184326172e+00 -6.489103317260742188e+00 1.227861046791076660e+00
-2.183520555496215820e+00 -6.384927272796630859e+00 1.124380111694335938e+00
-1.909739971160888672e+00 -6.337479591369628906e+00 1.038870096206665039e+00
-1.651666164398193359e+00 -6.291442871093750000e+00 9.593607187271118164e-01
-2.477682352066040039e+00 -6.461429119110107422e+00 9.639486670494079590e-01
-2.175362825393676758e+00 -6.353827953338623047e+00 8.698595762252807617e-01
-1.888391494750976562e+00 -6.246896266937255859e+00 7.839646935462951660e-01
-1.657924056053161621e+00 -6.301843166351318359e+00 7.205554842948913574e-01
-2.450557470321655273e+00 -6.384024620056152344e+00 7.006287574768066406e-01
-2.185378789901733398e+00 -6.375819206237792969e+00 6.264328956604003906e-01
-1.926727056503295898e+00 -6.365688800811767578e+00 5.549836158752441406e-01
-1.627643227577209473e+00 -6.173604965209960938e+00 4.722139835357666016e-01
-2.499303340911865234e+00 -6.504226684570312500e+00 4.591423571109771729e-01
-2.174422979354858398e+00 -6.336643695831298828e+00 3.780701458454132080e-01
-1.908025741577148438e+00 -6.295974731445312500e+00 3.090949058532714844e-01
-1.411591529846191406e+00 -5.342777252197265625e+00 2.074622362852096558e-01
-2.194268703460693359e+00 -6.387214660644531250e+00 1.367511749267578125e-01
-1.914193630218505859e+00 -6.304432392120361328e+00 7.014852017164230347e-02
-1.427495837211608887e+00 -5.395347595214843750e+00 6.818476598709821701e-03
-1.698873758316040039e+00 -6.375320434570312500e+00 1.734591603279113770e+00
-1.955827116966247559e+00 -6.368885040283203125e+00 1.552847385406494141e+00
-1.872884750366210938e+00 -6.083656311035156250e+00 1.239618420600891113e+00
-2.548247814178466797e+00 -6.528762340545654297e+00 1.238300561904907227e+00
-2.233703374862670898e+00 -6.403075218200683594e+00 1.129968285560607910e+00
-1.954115867614746094e+00 -6.343580722808837891e+00 1.041816234588623047e+00
-1.694865942001342773e+00 -6.298386096954345703e+00 9.619870781898498535e-01
-2.533494949340820312e+00 -6.487621307373046875e+00 9.701569676399230957e-01
-2.221828937530517578e+00 -6.361894607543945312e+00 8.728139400482177734e-01
-1.933134913444519043e+00 -6.256060600280761719e+00 7.865886688232421875e-01
-1.697595357894897461e+00 -6.295390605926513672e+00 7.209951281547546387e-01
-2.499824285507202148e+00 -6.394810676574707031e+00 7.034826278686523438e-01
-2.230702638626098633e+00 -6.380147933959960938e+00 6.281912326812744141e-01
-1.957797408103942871e+00 -6.328042507171630859e+00 5.527384281158447266e-01
-1.683703660964965820e+00 -6.230894088745117188e+00 4.773771762847900391e-01
-2.625343561172485352e+00 -6.708994865417480469e+00 4.747254550457000732e-01
-2.237341642379760742e+00 -6.391973972320556641e+00 3.821832835674285889e-01
-1.977064847946166992e+00 -6.382427692413330078e+00 3.139289021492004395e-01
-1.829071640968322754e+00 -6.754812240600585938e+00 2.627229690551757812e-01
-2.231765747070312500e+00 -6.368913173675537109e+00 1.366499513387680054e-01
-1.948395133018493652e+00 -6.278243064880371094e+00 6.998882442712783813e-02
-1.460574150085449219e+00 -5.386487007141113281e+00 6.818476598709821701e-03
-1.738724231719970703e+00 -6.367575168609619141e+00 1.735354423522949219e+00
-1.913123726844787598e+00 -6.081413745880126953e+00 1.241529941558837891e+00
-1.700131297111511230e+00 -6.183747291564941406e+00 1.186301589012145996e+00
-2.564620971679687500e+00 -6.453520298004150391e+00 1.226991176605224609e+00
-2.291133403778076172e+00 -6.440362930297851562e+00 1.139007925987243652e+00
-2.004274368286132812e+00 -6.367279529571533203e+00 1.047708272933959961e+00
-1.743208408355712891e+00 -6.323154926300048828e+00 9.673857688903808594e-01
-2.579841375350952148e+00 -6.488520145416259766e+00 9.726402759552001953e-01
-2.265148162841796875e+00 -6.360286712646484375e+00 8.744837045669555664e-01
-1.998389244079589844e+00 -6.329292774200439453e+00 7.973229885101318359e-01
-1.740955114364624023e+00 -6.302100658416748047e+00 7.229734659194946289e-01
-2.562190532684326172e+00 -6.437580585479736328e+00 7.099038362503051758e-01
-2.300906419754028320e+00 -6.453563690185546875e+00 6.367979049682617188e-01
-2.002896547317504883e+00 -6.335864543914794922e+00 5.544846653938293457e-01
-1.733876466751098633e+00 -6.263696670532226562e+00 4.806964099407196045e-01
-2.582994461059570312e+00 -6.483263492584228516e+00 4.598656296730041504e-01
-2.284910440444946289e+00 -6.401633262634277344e+00 3.835918605327606201e-01
-2.017696619033813477e+00 -6.374938488006591797e+00 3.141635656356811523e-01
-1.863806486129760742e+00 -6.719388484954833984e+00 2.617850601673126221e-01
-2.274166584014892578e+00 -6.364514350891113281e+00 1.368523985147476196e-01
-1.998668193817138672e+00 -6.303343772888183594e+00 7.040403783321380615e-02
-1.496006011962890625e+00 -5.386095046997070312e+00 6.829471793025732040e-03
-2.004455327987670898e+00 -6.237769603729248047e+00 1.275937199592590332e+00
-1.769221305847167969e+00 -6.283941745758056641e+00 1.207583069801330566e+00
-2.339351415634155273e+00 -6.450293064117431641e+00 1.143281340599060059e+00
-2.049655675888061523e+00 -6.374611854553222656e+00 1.050964474678039551e+00
-1.783048987388610840e+00 -6.316148281097412109e+00 9.679694175720214844e-01
-2.618862390518188477e+00 -6.470732212066650391e+00 9.723643660545349121e-01
-2.317330837249755859e+00 -6.382623195648193359e+00 8.794932365417480469e-01
-2.013417720794677734e+00 -6.243206501007080078e+00 7.880198955535888672e-01
-1.778779625892639160e+00 -6.288430690765380859e+00 7.226437330245971680e-01
-2.600522041320800781e+00 -6.418972492218017578e+00 7.095981240272521973e-01
-2.462229251861572266e+00 -6.774344921112060547e+00 6.699287295341491699e-01
-2.036835908889770508e+00 -6.308282852172851562e+00 5.531542301177978516e-01
-1.880511999130249023e+00 -6.634813785552978516e+00 5.100530385971069336e-01
-2.625726461410522461e+00 -6.474689960479736328e+00 4.603916406631469727e-01
-2.323464393615722656e+00 -6.385616302490234375e+00 3.834791779518127441e-01
-2.064455986022949219e+00 -6.386199951171875000e+00 3.153368830680847168e-01
-1.803717494010925293e+00 -6.351190567016601562e+00 2.478667199611663818e-01
-2.314886808395385742e+00 -6.355137348175048828e+00 1.369536221027374268e-01
-2.051170587539672852e+00 -6.333770275115966797e+00 7.088311761617660522e-02
-1.857138037681579590e+00 -6.465561866760253906e+00 1.503661394119262695e+00
-2.087677001953125000e+00 -6.362451076507568359e+00 1.304036617279052734e+00
-1.817003488540649414e+00 -6.305093288421630859e+00 1.213767290115356445e+00
-2.386067390441894531e+00 -6.455247402191162109e+00 1.146732807159423828e+00
-2.096743345260620117e+00 -6.386319160461425781e+00 1.054995894432067871e+00
-1.828910470008850098e+00 -6.329800128936767578e+00 9.717630743980407715e-01
-2.675113677978515625e+00 -6.494836807250976562e+00 9.784348011016845703e-01
-2.371937274932861328e+00 -6.410138130187988281e+00 8.852735161781311035e-01
-2.069077014923095703e+00 -6.283545494079589844e+00 7.946990132331848145e-01
-1.811803221702575684e+00 -6.258303165435791016e+00 7.204455733299255371e-01
-2.656922340393066406e+00 -6.444281101226806641e+00 7.141847014427185059e-01
-2.523118257522583008e+00 -6.811397075653076172e+00 6.751112341880798340e-01
-2.101089239120483398e+00 -6.373273372650146484e+00 5.599730014801025391e-01
-1.834504365921020508e+00 -6.324317932128906250e+00 4.870398044586181641e-01
-2.669592142105102539e+00 -6.468603134155273438e+00 4.611149132251739502e-01
-2.362601995468139648e+00 -6.371239662170410156e+00 3.834791779518127441e-01
-2.102349758148193359e+00 -6.369617938995361328e+00 3.151491284370422363e-01
-1.837075829505920410e+00 -6.320811748504638672e+00 2.471164166927337646e-01
-2.377497673034667969e+00 -6.404550075531005859e+00 1.383302360773086548e-01
-2.091250896453857422e+00 -6.324862480163574219e+00 7.092569768428802490e-02
-1.865405201911926270e+00 -6.347304821014404297e+00 1.478793144226074219e+00
-2.150368928909301758e+00 -6.420257568359375000e+00 1.318564057350158691e+00
-1.846479773521423340e+00 -6.262700557708740234e+00 1.207764863967895508e+00
-2.437799453735351562e+00 -6.472794055938720703e+00 1.152485489845275879e+00
-2.141854047775268555e+00 -6.391130924224853516e+00 1.057941913604736328e+00
-1.876969337463378906e+00 -6.349766254425048828e+00 9.765781164169311523e-01
-2.895602941513061523e+00 -6.909455776214599609e+00 1.043553352355957031e+00
