-1.453868627548217773e+00 -6.143262863159179688e+00 3.562649190425872803e-01
-1.182727217674255371e+00 -5.938015460968017578e+00 6.446339190006256104e-02
-1.006565213203430176e+00 -6.115768432617187500e+00 1.385427832603454590e+00
-1.241176486015319824e+00 -6.108080387115478516e+00 1.213812947273254395e+00
-1.002077817916870117e+00 -6.055521011352539062e+00 1.135371685028076172e+00
-1.475134968757629395e+00 -6.094568252563476562e+00 1.044830322265625000e+00
-1.234127759933471680e+00 -6.067964553833007812e+00 9.718862771987915039e-01
-1.000259637832641602e+00 -6.018445014953613281e+00 8.998292684555053711e-01
-1.806034922599792480e+00 -6.422484397888183594e+00 9.293199181556701660e-01
-1.480316519737243652e+00 -6.106652259826660156e+00 8.138556480407714844e-01
-1.223183870315551758e+00 -5.987397670745849609e+00 7.341096401214599609e-01
-1.063046932220458984e+00 -6.375586509704589844e+00 7.147303819656372070e-01
-1.735607862472534180e+00 -6.163780212402343750e+00 6.560877561569213867e-01
-1.452709197998046875e+00 -5.983642578125000000e+00 5.722944736480712891e-01
-1.231806755065917969e+00 -6.018892288208007812e+00 5.126572251319885254e-01
-1.731703519821166992e+00 -6.141695976257324219e+00 4.204805195331573486e-01
-1.484930634498596191e+00 -6.107061862945556641e+00 3.546872437000274658e-01
-1.232618689537048340e+00 -6.012174606323242188e+00 2.883508801460266113e-01
-1.114681139588356018e-01 -6.642375588417053223e-01 2.528563141822814941e-02
-1.222764134407043457e+00 -5.948276996612548828e+00 6.465502828359603882e-02
-1.018426299095153809e+00 -5.959409236907958984e+00 1.351397395133972168e+00
-1.270577311515808105e+00 -6.061922073364257812e+00 1.206166863441467285e+00
-1.037716627120971680e+00 -6.040536403656005859e+00 1.133734703063964844e+00
-1.515119910240173340e+00 -6.095932483673095703e+00 1.046638250350952148e+00
-1.277624607086181641e+00 -6.090250492095947266e+00 9.766929745674133301e-01
-1.043055534362792969e+00 -6.046315670013427734e+00 9.049361348152160645e-01
-1.521591067314147949e+00 -6.112851619720458984e+00 8.159108161926269531e-01
-1.268905401229858398e+00 -6.022527217864990234e+00 7.393575310707092285e-01
-1.100282430648803711e+00 -6.358170509338378906e+00 7.135213613510131836e-01
-1.805629014968872070e+00 -6.264853000640869141e+00 6.680129170417785645e-01
-1.518057584762573242e+00 -6.089586734771728516e+00 5.833072066307067871e-01
-1.344240903854370117e+00 -6.369066238403320312e+00 5.431755185127258301e-01
-1.796746730804443359e+00 -6.225867271423339844e+00 4.269899129867553711e-01
-1.527695417404174805e+00 -6.119146823883056641e+00 3.559268414974212646e-01
-1.274857640266418457e+00 -6.029907703399658203e+00 2.895711362361907959e-01
-1.323499560356140137e+00 -6.126928329467773438e+00 1.220694422721862793e+00
-1.081313490867614746e+00 -6.070842742919921875e+00 1.140646696090698242e+00
-1.556152343750000000e+00 -6.100857734680175781e+00 1.049103617668151855e+00
-1.317892193794250488e+00 -6.095814704895019531e+00 9.788637757301330566e-01
-1.081702947616577148e+00 -6.048566341400146484e+00 9.062493443489074707e-01
-1.567415237426757812e+00 -6.136069774627685547e+00 8.202781081199645996e-01
-1.311522722244262695e+00 -6.040824890136718750e+00 7.425778508186340332e-01
-1.139450311660766602e+00 -6.352278232574462891e+00 7.136313319206237793e-01
-1.543795824050903320e+00 -6.034819602966308594e+00 5.789576172828674316e-01
-1.392401695251464844e+00 -6.402570724487304688e+00 5.467512011528015137e-01
-1.881535768508911133e+00 -6.372629642486572266e+00 4.378388822078704834e-01
-1.577849745750427246e+00 -6.158983707427978516e+00 3.588004112243652344e-01
-1.323313713073730469e+00 -6.074676513671875000e+00 2.921054661273956299e-01
-1.363200187683105469e+00 -6.128273963928222656e+00 1.222605943679809570e+00
-1.118721485137939453e+00 -6.065060615539550781e+00 1.140828490257263184e+00
-1.672947883605957031e+00 -6.394656658172607422e+00 1.101369738578796387e+00
-1.357632160186767578e+00 -6.098220825195312500e+00 9.805694222450256348e-01
-1.120597124099731445e+00 -6.051542758941650391e+00 9.077084064483642578e-01
-1.611570715904235840e+00 -6.151279449462890625e+00 8.236177563667297363e-01
-1.349863409996032715e+00 -6.038477420806884766e+00 7.432934641838073730e-01
-1.182398438453674316e+00 -6.366665840148925781e+00 7.160492539405822754e-01
-1.583827853202819824e+00 -6.036790370941162109e+00 5.800681114196777344e-01
-1.436668992042541504e+00 -6.416273117065429688e+00 5.486637949943542480e-01
-1.622968316078186035e+00 -6.177189826965332031e+00 3.604343831539154053e-01
-1.400557875633239746e+00 -6.118837356567382812e+00 1.222414851188659668e+00
-1.162918210029602051e+00 -6.094786167144775391e+00 1.147740483283996582e+00
-1.727483630180358887e+00 -6.441435337066650391e+00 1.111231327056884766e+00
-1.396127462387084961e+00 -6.094590663909912109e+00 9.813446998596191406e-01
-1.159196376800537109e+00 -6.052326202392578125e+00 9.088757038116455078e-01
-1.665231585502624512e+00 -6.200657844543457031e+00 8.315816521644592285e-01
-1.393120527267456055e+00 -6.057174205780029297e+00 7.466330528259277344e-01
-1.225940942764282227e+00 -6.382717609405517578e+00 7.186870574951171875e-01
-1.620580554008483887e+00 -6.025996685028076172e+00 5.799756050109863281e-01
-1.420084953308105469e+00 -6.164561271667480469e+00 5.278747677803039551e-01
-1.671225428581237793e+00 -6.205677509307861328e+00 3.626881539821624756e-01
-1.428301930427551270e+00 -6.190351963043212891e+00 2.984882295131683350e-01
-1.203336715698242188e+00 -6.102971553802490234e+00 1.150650739669799805e+00
-1.437800407409667969e+00 -6.104179859161376953e+00 9.842907190322875977e-01
-1.199191808700561523e+00 -6.059657096862792969e+00 9.110643863677978516e-01
-1.716927409172058105e+00 -6.240045070648193359e+00 8.382610678672790527e-01
-1.436429262161254883e+00 -6.074599742889404297e+00 7.498533129692077637e-01
-1.315576314926147461e+00 -6.629531860351562500e+00 7.473729848861694336e-01
-1.681857347488403320e+00 -6.104254245758056641e+00 5.884897112846374512e-01
-1.423204660415649414e+00 -6.009305477142333984e+00 5.153182148933410645e-01
-1.195017457008361816e+00 -6.005533218383789062e+00 4.528887569904327393e-01
-1.701570749282836914e+00 -6.167395591735839844e+00 3.610541820526123047e-01
-1.463722467422485352e+00 -6.170780658721923828e+00 2.979719936847686768e-01
-1.242722630500793457e+00 -6.105109214782714844e+00 1.152469635009765625e+00
-1.473368644714355469e+00 -6.087561130523681641e+00 9.830502271652221680e-01
-1.235558509826660156e+00 -6.048307418823242188e+00 9.104807376861572266e-01
-1.761369109153747559e+00 -6.251347064971923828e+00 8.412153720855712891e-01
-1.481644868850708008e+00 -6.098474502563476562e+00 7.539085149765014648e-01
-1.314345955848693848e+00 -6.416852474212646484e+00 7.242923378944396973e-01
-1.741721510887145996e+00 -6.173358440399169922e+00 5.961709022521972656e-01
-1.460521459579467773e+00 -6.002396106719970703e+00 5.154845118522644043e-01
-1.222816109657287598e+00 -5.954127788543701172e+00 4.495695233345031738e-01
-1.786882877349853516e+00 -6.324979305267333984e+00 3.709143996238708496e-01
-1.508180141448974609e+00 -6.188857078552246094e+00 2.992860972881317139e-01
-1.235672354698181152e+00 -6.000781536102294922e+00 2.300092279911041260e-01
-1.285816788673400879e+00 -6.124314308166503906e+00 1.157562613487243652e+00
-1.516412258148193359e+00 -6.101416110992431641e+00 9.867715835571289062e-01
-1.278153657913208008e+00 -6.066749572753906250e+00 9.144203066825866699e-01
-1.521199464797973633e+00 -6.097939014434814453e+00 7.549819946289062500e-01
-1.285701513290405273e+00 -6.086775302886962891e+00 6.879128813743591309e-01
-1.795866131782531738e+00 -6.218996047973632812e+00 6.016309857368469238e-01
-1.513507246971130371e+00 -6.058098316192626953e+00 5.210559368133544922e-01
-1.286187052726745605e+00 -6.073345661163330078e+00 4.591583907604217529e-01
-1.561157941818237305e+00 -6.239566326141357422e+00 3.021958768367767334e-01
-1.275582313537597656e+00 -6.007749080657958984e+00 2.305719554424285889e-01
-1.319627523422241211e+00 -6.099009513854980469e+00 1.154288530349731445e+00
-1.325638890266418457e+00 -6.106164932250976562e+00 9.215699434280395508e-01
-1.569913268089294434e+00 -6.132735252380371094e+00 7.604684233665466309e-01
-1.319431543350219727e+00 -6.062261104583740234e+00 6.860444545745849609e-01
-1.846686244010925293e+00 -6.250830650329589844e+00 6.057955026626586914e-01
-1.544216275215148926e+00 -6.023599147796630859e+00 5.188938975334167480e-01
-1.409743309020996094e+00 -6.460926055908203125e+00 4.891051054000854492e-01
-1.583765029907226562e+00 -6.168916225433349609e+00 2.992391586303710938e-01
-1.323738813400268555e+00 -6.051548480987548828e+00 2.325602918863296509e-01
-1.361943960189819336e+00 -6.112873077392578125e+00 1.158472061157226562e+00
-1.680431365966796875e+00 -6.423547744750976562e+00 1.042126297950744629e+00
-1.364375591278076172e+00 -6.103709220886230469e+00 9.224454164505004883e-01
-1.609026193618774414e+00 -6.128748893737792969e+00 7.611840367317199707e-01
-1.355734825134277344e+00 -6.050171852111816406e+00 6.856048107147216797e-01
-1.593309998512268066e+00 -6.060272216796875000e+00 5.228853821754455566e-01
-1.447393059730529785e+00 -6.443397045135498047e+00 4.884412586688995361e-01
-1.633794546127319336e+00 -6.205449104309082031e+00 3.014918863773345947e-01
-1.409533500671386719e+00 -6.148490428924560547e+00 1.166839122772216797e+00
-1.732608318328857422e+00 -6.460825920104980469e+00 1.049879074096679688e+00
-1.403575420379638672e+00 -6.102935314178466797e+00 9.236126542091369629e-01
-1.661307573318481445e+00 -6.173409461975097656e+00 7.679824233055114746e-01
-1.395065188407897949e+00 -6.051424503326416016e+00 6.867038607597351074e-01
-1.635910511016845703e+00 -6.070588588714599609e+00 5.246316790580749512e-01
-1.454118967056274414e+00 -6.292531013488769531e+00 4.776722490787506104e-01
-1.690837860107421875e+00 -6.265708446502685547e+00 3.049179315567016602e-01
-1.455580592155456543e+00 -6.175137996673583984e+00 1.173569083213806152e+00
-1.799962639808654785e+00 -6.551048755645751953e+00 1.066314935684204102e+00
-1.446004033088684082e+00 -6.115388870239257812e+00 9.268226623535156250e-01
-1.715780496597290039e+00 -6.223400115966796875e+00 7.754964828491210938e-01
-1.425751686096191406e+00 -6.015670299530029297e+00 6.836264729499816895e-01
-1.676840901374816895e+00 -6.073884963989257812e+00 5.257958769798278809e-01
-1.436230063438415527e+00 -6.045773506164550781e+00 4.596009552478790283e-01
-1.768377542495727539e+00 -6.396745681762695312e+00 3.118169605731964111e-01
-1.497378110885620117e+00 -6.182337284088134766e+00 1.176661252975463867e+00
-1.487236976623535156e+00 -6.121782779693603516e+00 9.291572570800781250e-01
-1.786304593086242676e+00 -6.327416896820068359e+00 7.898089289665222168e-01
-1.473453164100646973e+00 -6.051232337951660156e+00 6.886822581291198730e-01
-1.759620428085327148e+00 -6.224586009979248047e+00 5.397660732269287109e-01
-1.472353339195251465e+00 -6.032971382141113281e+00 4.593059122562408447e-01
-1.533148169517517090e+00 -6.164444923400878906e+00 1.175024271011352539e+00
-1.529560327529907227e+00 -6.131739616394042969e+00 9.320755004882812500e-01
-1.503805160522460938e+00 -6.015078067779541016e+00 6.856048107147216797e-01
-1.849573135375976562e+00 -6.392682552337646484e+00 5.553162693977355957e-01
-1.523886442184448242e+00 -6.081866264343261719e+00 4.637315273284912109e-01
-1.569363117218017578e+00 -6.130864143371582031e+00 9.333886504173278809e-01
-1.547600150108337402e+00 -6.032695293426513672e+00 6.886822581291198730e-01
-1.881692171096801758e+00 -6.357324600219726562e+00 5.532373785972595215e-01
-1.553477644920349121e+00 -6.042459487915039062e+00 4.614449739456176758e-01
-1.607203006744384766e+00 -6.122076511383056641e+00 9.335345625877380371e-01
-1.599254369735717773e+00 -6.078837394714355469e+00 6.950569152832031250e-01
-1.602219223976135254e+00 -6.077172756195068359e+00 4.648379385471343994e-01
-1.739339113235473633e+00 -6.463654994964599609e+00 9.872295856475830078e-01
-1.652826428413391113e+00 -6.129368305206298828e+00 7.019810676574707031e-01
-1.651184678077697754e+00 -6.110550403594970703e+00 4.681571424007415771e-01
-1.786065697669982910e+00 -6.478611469268798828e+00 9.911691546440124512e-01
-1.699821591377258301e+00 -6.140671730041503906e+00 4.712550938129425049e-01
-1.914031386375427246e+00 -6.891118526458740234e+00 8.737814612686634064e-03
-1.825784087181091309e+00 -6.467530250549316406e+00 9.911691546440124512e-01
-1.769310951232910156e+00 -6.254956245422363281e+00 7.187969684600830078e-01
-1.765206456184387207e+00 -6.227993488311767578e+00 4.787786304950714111e-01
-1.844228506088256836e+00 -6.357841014862060547e+00 4.896214306354522705e-01
-1.898808240890502930e+00 -6.398989200592041016e+00 4.936782419681549072e-01
-2.270834445953369141e+00 -6.995660305023193359e+00 8.985825814306735992e-03
-2.352986574172973633e+00 -6.956846714019775391e+00 8.972386829555034637e-03
-2.545681476593017578e+00 -6.958989143371582031e+00 9.053020738065242767e-03
-2.585538864135742188e+00 -6.935741901397705078e+00 9.043247438967227936e-03
-2.705097675323486328e+00 -6.745827674865722656e+00 8.879534900188446045e-03
-2.501571655273437500e+00 -6.129149913787841797e+00 8.087853901088237762e-03
-2.932728290557861328e+00 -6.940839290618896484e+00 9.205737151205539703e-03
-2.921955585479736328e+00 -6.798684120178222656e+00 9.040803648531436920e-03
-2.873906850814819336e+00 -6.575375556945800781e+00 8.767135441303253174e-03
-3.046588182449340820e+00 -6.855525016784667969e+00 9.165420196950435638e-03
-3.048248767852783203e+00 -6.747393608093261719e+00 9.045690298080444336e-03
-3.129234790802001953e+00 -6.814896583557128906e+00 9.161755442619323730e-03
-3.176065444946289062e+00 -6.806441783905029297e+00 9.176415391266345978e-03
-3.196348905563354492e+00 -6.741646289825439453e+00 9.115329012274742126e-03
-3.147394418716430664e+00 -6.534511566162109375e+00 8.861209265887737274e-03
-3.030541658401489258e+00 -6.194397926330566406e+00 8.425051346421241760e-03
-3.217556715011596680e+00 -6.475694179534912109e+00 8.834331296384334564e-03
-3.228401184082031250e+00 -6.398690700531005859e+00 8.756140246987342834e-03
-3.342829227447509766e+00 -6.525614261627197266e+00 8.957725949585437775e-03
-3.418794155120849609e+00 -6.574182033538818359e+00 9.053020738065242767e-03
-3.384378671646118164e+00 -6.411583900451660156e+00 8.857544511556625366e-03
-3.392488479614257812e+00 -6.332520008087158203e+00 8.776910603046417236e-03
-3.375397682189941406e+00 -6.208793163299560547e+00 8.633967489004135132e-03
-3.403287410736083984e+00 -6.169577121734619141e+00 8.608311414718627930e-03
-3.477218866348266602e+00 -6.213153839111328125e+00 8.698719553649425507e-03
-3.587853193283081055e+00 -6.319535255432128906e+00 8.878313004970550537e-03
-3.643029928207397461e+00 -6.325998306274414062e+00 8.918630890548229218e-03
-3.706994771957397461e+00 -6.346701145172119141e+00 8.979717269539833069e-03
-3.742809772491455078e+00 -6.318673610687255859e+00 8.972386829555034637e-03
-3.750100374221801758e+00 -6.243297576904296875e+00 8.897861465811729431e-03
-3.807063579559326172e+00 -6.250916004180908203e+00 8.941843174397945404e-03
-3.826958179473876953e+00 -6.197658538818359375e+00 8.899083361029624939e-03
-3.902587175369262695e+00 -6.234241485595703125e+00 8.985825814306735992e-03
-3.940766334533691406e+00 -6.210177898406982422e+00 8.985825814306735992e-03
-3.959322214126586914e+00 -6.155603408813476562e+00 8.941843174397945404e-03
-3.988826036453247070e+00 -6.118628025054931641e+00 8.923517540097236633e-03
-4.016371726989746094e+00 -6.079019546508789062e+00 8.901526220142841339e-03
-4.060828685760498047e+00 -6.065063476562500000e+00 8.917408995330333710e-03
-4.106950283050537109e+00 -6.053272724151611328e+00 8.936956524848937988e-03
-4.129852294921875000e+00 -6.007357597351074219e+00 8.906413801014423370e-03
-4.152917385101318359e+00 -5.962210655212402344e+00 8.877092041075229645e-03
-4.189999580383300781e+00 -5.937433719635009766e+00 8.878313004970550537e-03
-4.228678226470947266e+00 -5.914866447448730469e+00 8.883200585842132568e-03
-4.268411159515380859e+00 -5.893668174743652344e+00 8.890531025826931000e-03
-4.338801860809326172e+00 -5.914131641387939453e+00 8.961391635239124298e-03
-4.070219039916992188e+00 -5.477246284484863281e+00 8.337086997926235199e-03
-4.375569820404052734e+00 -5.813302993774414062e+00 8.889309130609035492e-03
-4.363262653350830078e+00 -5.723519802093505859e+00 8.792792446911334991e-03
-4.366520404815673828e+00 -5.655479907989501953e+00 8.729262277483940125e-03
-4.560677051544189453e+00 -5.832612037658691406e+00 9.045690298080444336e-03
-4.404552936553955078e+00 -5.562271595001220703e+00 8.668175898492336273e-03
-4.396684646606445312e+00 -5.482871055603027344e+00 8.586320094764232635e-03
-3.101315021514892578e+00 -3.070346355438232422e+00 1.295228302478790283e-01
-4.400617122650146484e+00 -5.419304847717285156e+00 8.528898470103740692e-03
-3.091510534286499023e+00 -3.023304462432861328e+00 1.283361762762069702e-01
-4.618606567382812500e+00 -5.616972446441650391e+00 8.884422481060028076e-03
-3.110002994537353516e+00 -3.004278421401977539e+00 1.283361762762069702e-01
-4.661303043365478516e+00 -5.598517894744873047e+00 8.900304324924945831e-03
-4.657538414001464844e+00 -5.524702548980712891e+00 8.828222751617431641e-03
-4.706931591033935547e+00 -5.514274597167968750e+00 8.857544511556625366e-03
-4.735446929931640625e+00 -5.479237079620361328e+00 8.847770281136035919e-03
-3.092778921127319336e+00 -3.057689905166625977e+00 8.806330710649490356e-02
-4.770294666290283203e+00 -5.451582908630371094e+00 8.850214071571826935e-03
-3.124682188034057617e+00 -3.053677797317504883e+00 2.465625852346420288e-01
-3.107905864715576172e+00 -3.035162448883056641e+00 8.796208351850509644e-02
-4.775803565979003906e+00 -5.390772342681884766e+00 8.798900991678237915e-03
-3.109920740127563477e+00 -3.000070333480834961e+00 8.749645203351974487e-02
-4.707967758178710938e+00 -5.248958587646484375e+00 8.614419959485530853e-03
-3.110899209976196289e+00 -2.964378833770751953e+00 8.701059222221374512e-02
-4.714540481567382812e+00 -5.191840648651123047e+00 8.567994460463523865e-03
-4.870160579681396484e+00 -5.297535419464111328e+00 8.791571483016014099e-03
-3.100575208663940430e+00 -3.098985910415649414e+00 4.667341336607933044e-02
-4.828994274139404297e+00 -5.188495635986328125e+00 8.659623563289642334e-03
-3.128158330917358398e+00 -3.091655969619750977e+00 2.066421061754226685e-01
-3.121666431427001953e+00 -3.082010269165039062e+00 4.670535027980804443e-02
-4.971148490905761719e+00 -5.275946617126464844e+00 8.856322616338729858e-03
-3.128485918045043945e+00 -3.054260969161987305e+00 2.054218649864196777e-01
-3.119758367538452148e+00 -3.042551755905151367e+00 4.639660939574241638e-02
-4.873665332794189453e+00 -5.109308719635009766e+00 8.626637049019336700e-03
-3.132068157196044922e+00 -3.020446062088012695e+00 2.044362872838973999e-01
-3.131886959075927734e+00 -3.017107963562011719e+00 4.630079120397567749e-02
-4.890336513519287109e+00 -5.064202308654785156e+00 8.600980974733829498e-03
-3.169174671173095703e+00 -3.015756607055664062e+00 4.657759517431259155e-02
-4.917123317718505859e+00 -5.029809951782226562e+00 8.593650534749031067e-03
-7.319502830505371094e+00 -6.880084514617919922e+00 1.069528087973594666e-01
-4.998539924621582031e+00 -5.050719261169433594e+00 8.681614883244037628e-03
-3.080936670303344727e+00 -3.075127840042114258e+00 5.318191833794116974e-03
-3.135625362396240234e+00 -3.093698501586914062e+00 1.653695255517959595e-01
-3.092626571655273438e+00 -3.049145221710205078e+00 5.305974744260311127e-03
-3.124491930007934570e+00 -3.045107364654541016e+00 1.637938767671585083e-01
-3.101964473724365234e+00 -3.021041631698608398e+00 5.290091969072818756e-03
-3.127999544143676758e+00 -3.011324405670166016e+00 1.630060374736785889e-01
-3.110353231430053711e+00 -2.992245197296142578e+00 5.272987298667430878e-03
-3.130104780197143555e+00 -2.974481821060180664e+00 5.275431089103221893e-03
-5.154078483581542969e+00 -4.837991714477539062e+00 8.636411279439926147e-03
-5.059739589691162109e+00 -4.691371440887451172e+00 8.429937995970249176e-03
-5.107604026794433594e+00 -4.677797317504882812e+00 8.461703546345233917e-03
-5.806151390075683594e+00 -4.206573486328125000e+00 2.127959728240966797e-01
-5.046478748321533203e+00 -4.565196037292480469e+00 8.313873782753944397e-03
-5.806649208068847656e+00 -4.152842521667480469e+00 2.118763178586959839e-01
-5.125101566314697266e+00 -4.579453468322753906e+00 8.396951481699943542e-03
-5.169599056243896484e+00 -4.562478065490722656e+00 8.423830382525920868e-03
-5.264585494995117188e+00 -4.589153289794921875e+00 8.532564155757427216e-03
-5.305528163909912109e+00 -4.567855834960937500e+00 8.553333580493927002e-03
-5.344121456146240234e+00 -4.544284820556640625e+00 8.570437319576740265e-03
-5.782866477966308594e+00 -4.183646202087402344e+00 1.445250362157821655e-01
-5.348930358886718750e+00 -4.492115020751953125e+00 8.533785119652748108e-03
-5.821445465087890625e+00 -4.157381057739257812e+00 1.448489427566528320e-01
-5.347914218902587891e+00 -4.435589313507080078e+00 8.488581515848636627e-03
-9.096879005432128906e+00 -6.917662143707275391e+00 1.216766536235809326e-01
-5.458579063415527344e+00 -4.471127033233642578e+00 8.620528504252433777e-03
-8.839285850524902344e+00 -6.636573314666748047e+00 1.176842898130416870e-01
-5.387170791625976562e+00 -4.357678890228271484e+00 8.465369231998920441e-03
-9.340140342712402344e+00 -6.923409461975097656e+00 1.237846240401268005e-01
-5.423183441162109375e+00 -4.332031726837158203e+00 8.480030111968517303e-03
-5.755190849304199219e+00 -4.211584568023681641e+00 7.592947036027908325e-02
-5.463794231414794922e+00 -4.309821605682373047e+00 8.502020500600337982e-03
-5.790650844573974609e+00 -4.183218955993652344e+00 7.605722546577453613e-02
-5.494869709014892578e+00 -4.279901981353759766e+00 8.509350940585136414e-03
-5.843076229095458984e+00 -4.166768074035644531e+00 7.640855014324188232e-02
-5.528161525726318359e+00 -4.251592636108398438e+00 8.520347066223621368e-03
-5.938854217529296875e+00 -4.180335998535156250e+00 7.732413709163665771e-02
-5.561312198638916016e+00 -4.223034858703613281e+00 8.531342260539531708e-03
-4.470975875854492188e+00 -3.352025270462036133e+00 6.827028468251228333e-03
-1.003397369384765625e+01 -6.880297183990478516e+00 1.295336335897445679e-01
-4.742235183715820312e+00 -3.510150194168090820e+00 7.208208087831735611e-03
-1.015301895141601562e+01 -6.870718955993652344e+00 1.305237263441085815e-01
-5.596924781799316406e+00 -4.089864253997802734e+00 8.469033986330032349e-03
-5.836929798126220703e+00 -4.213647842407226562e+00 2.702636420726776123e-01
-5.663275718688964844e+00 -4.085281848907470703e+00 8.531342260539531708e-03
-5.833377361297607422e+00 -4.156876564025878906e+00 2.689130604267120361e-01
-9.704701423645019531e+00 -6.395123004913330078e+00 1.237420290708541870e-01
-5.645063400268554688e+00 -4.019713401794433594e+00 8.466590195894241333e-03
-9.859446525573730469e+00 -6.410676956176757812e+00 1.252112239599227905e-01
-5.678620815277099609e+00 -3.991325616836547852e+00 8.480030111968517303e-03
-1.060052776336669922e+01 -6.800356864929199219e+00 1.340902447700500488e-01
-5.732583045959472656e+00 -3.976927042007446289e+00 8.524011820554733276e-03
-1.089215850830078125e+01 -6.893471717834472656e+00 1.372415572404861450e-01
-5.766778945922851562e+00 -3.948457241058349609e+00 8.538672700524330139e-03
-1.086215305328369141e+01 -6.781497001647949219e+00 1.363366246223449707e-01
-5.745326042175292969e+00 -3.882205247879028320e+00 8.471477776765823364e-03
-1.059959411621093750e+01 -6.527530193328857422e+00 1.325358897447586060e-01
-5.741582870483398438e+00 -3.828571796417236328e+00 8.431160822510719299e-03
-1.071123695373535156e+01 -6.505974769592285156e+00 1.334301829338073730e-01
-5.759954452514648438e+00 -3.789971828460693359e+00 8.423830382525920868e-03
-1.081958007812500000e+01 -6.481237411499023438e+00 1.342818886041641235e-01
-5.783939361572265625e+00 -3.755102634429931641e+00 8.425051346421241760e-03
-1.094610023498535156e+01 -6.466094493865966797e+00 1.353571563959121704e-01
-5.790872097015380859e+00 -3.709294080734252930e+00 8.401839062571525574e-03
-1.118862152099609375e+01 -6.517081260681152344e+00 1.378590315580368042e-01
-5.784780979156494141e+00 -3.655529499053955078e+00 8.360300213098526001e-03
-9.005576133728027344e+00 -4.339537143707275391e+00 2.966921329498291016e-01
-1.104370212554931641e+01 -6.342237472534179688e+00 1.355913877487182617e-01
-5.803707122802734375e+00 -3.617849826812744141e+00 8.355412632226943970e-03
-9.450851440429687500e+00 -5.350641250610351562e+00 1.156295463442802429e-01
-5.838574409484863281e+00 -3.590027570724487305e+00 8.373738266527652740e-03
-9.653773307800292969e+00 -5.387574672698974609e+00 1.177055835723876953e-01
-5.712569236755371094e+00 -3.464426279067993164e+00 8.162379264831542969e-03
-1.068019580841064453e+01 -5.874749660491943359e+00 1.297784894704818726e-01
-5.714838504791259766e+00 -3.418016910552978516e+00 8.135501295328140259e-03
-1.058154201507568359e+01 -5.736195087432861328e+00 1.281496137380599976e-01
-5.800304412841796875e+00 -3.420988321304321289e+00 8.227131329476833344e-03
-8.963250160217285156e+00 -4.379478454589843750e+00 2.019989937543869019e-01
-1.123746109008789062e+01 -6.002845287322998047e+00 1.356445997953414917e-01
-5.712265491485595703e+00 -3.321990966796875000e+00 8.073193021118640900e-03
-8.977339744567871094e+00 -4.318331241607666016e+00 2.017155736684799194e-01
-9.133590698242187500e+00 -4.807195663452148438e+00 1.098911911249160767e-01
-5.922527313232421875e+00 -3.395811080932617188e+00 8.340751752257347107e-03
-8.981077194213867188e+00 -4.252469539642333984e+00 2.012094557285308838e-01
-1.132448291778564453e+01 -5.871857166290283203e+00 1.358149498701095581e-01
-5.970239162445068359e+00 -3.374661684036254883e+00 8.378625847399234772e-03
-1.142263507843017578e+01 -5.834098815917968750e+00 1.365601867437362671e-01
-6.027522563934326172e+00 -3.358407735824584961e+00 8.429937995970249176e-03
-1.223269844055175781e+01 -6.153492927551269531e+00 1.457905322313308716e-01
-6.109372615814208984e+00 -3.355055332183837891e+00 8.515459485352039337e-03
-1.119678211212158203e+01 -5.546566009521484375e+00 1.330362558364868164e-01
-5.919652938842773438e+00 -3.203749179840087891e+00 8.223466575145721436e-03
-8.957700729370117188e+00 -4.369143962860107422e+00 1.061117425560951233e-01
-5.919786930084228516e+00 -3.157014131546020508e+00 8.196587674319744110e-03
-8.963608741760253906e+00 -4.304143428802490234e+00 1.058668792247772217e-01
-5.520329952239990234e+00 -2.900619745254516602e+00 7.618709467351436615e-03
-8.978097915649414062e+00 -4.243507862091064453e+00 1.057284846901893616e-01
-5.879932403564453125e+00 -3.043677806854248047e+00 8.089075796306133270e-03
-1.059695434570312500e+01 -4.929343700408935547e+00 1.244340464472770691e-01
-6.073109149932861328e+00 -3.096573591232299805e+00 8.328534662723541260e-03
-1.050789260864257812e+01 -4.809710025787353516e+00 1.230393722653388977e-01
-6.118804454803466797e+00 -3.072714328765869141e+00 8.365186862647533417e-03
-1.053082370758056641e+01 -4.742270469665527344e+00 1.229648515582084656e-01
-6.219113826751708984e+00 -3.075450420379638672e+00 8.476364426314830780e-03
-1.153341293334960938e+01 -5.108873367309570312e+00 1.343031674623489380e-01
-6.217188835144042969e+00 -3.027164220809936523e+00 8.448264561593532562e-03
-1.132619380950927734e+01 -4.934174060821533203e+00 1.315351277589797974e-01
-6.276225090026855469e+00 -3.008410215377807617e+00 8.503242395818233490e-03
-1.131765079498291016e+01 -4.848048210144042969e+00 1.310879886150360107e-01
-6.189656734466552734e+00 -2.920346021652221680e+00 8.361522108316421509e-03
-1.097118854522705078e+01 -4.620173931121826172e+00 1.267443001270294189e-01
-6.343508243560791016e+00 -2.945483684539794922e+00 8.544781245291233063e-03
-1.208679103851318359e+01 -5.002882957458496094e+00 1.392749994993209839e-01
-6.379652976989746094e+00 -2.914816617965698242e+00 8.569216355681419373e-03
-1.110486412048339844e+01 -4.516839504241943359e+00 1.276385784149169922e-01
-6.382823944091796875e+00 -2.869057178497314453e+00 8.549667894840240479e-03
-1.218118953704833984e+01 -3.873974800109863281e+00 3.793719708919525146e-01
-1.177028274536132812e+01 -4.703533172607421875e+00 1.349526047706604004e-01
-6.405795574188232422e+00 -2.832265138626098633e+00 8.556998334825038910e-03
-1.220186614990234375e+01 -3.798268079757690430e+00 3.792829513549804688e-01
-1.190503406524658203e+01 -4.672873973846435547e+00 1.361662745475769043e-01
-6.394625186920166016e+00 -2.780545234680175781e+00 8.519125171005725861e-03
-1.264258575439453125e+01 -4.873060703277587891e+00 1.442574709653854370e-01
-6.401451587677001953e+00 -2.736931800842285156e+00 8.505686186254024506e-03
-1.196054553985595703e+01 -4.526074886322021484e+00 1.361556351184844971e-01
-6.438405513763427734e+00 -2.706125974655151367e+00 8.532564155757427216e-03
-1.197403049468994141e+01 -4.447378635406494141e+00 1.359959244728088379e-01
-6.464131832122802734e+00 -2.670387983322143555e+00 8.544781245291233063e-03
-1.187144374847412109e+01 -4.326572418212890625e+00 1.345267444849014282e-01
-6.476688861846923828e+00 -2.629169940948486328e+00 8.539894595742225647e-03
-1.219529247283935547e+01 -3.869233369827270508e+00 2.590680718421936035e-01
-1.246648025512695312e+01 -4.456973552703857422e+00 1.409571170806884766e-01
-6.554932117462158203e+00 -2.614199638366699219e+00 8.621750399470329285e-03
-1.221975803375244141e+01 -3.794627904891967773e+00 2.590883076190948486e-01
-1.257097053527832031e+01 -4.407526016235351562e+00 1.418301165103912354e-01
-6.589471340179443359e+00 -2.581224918365478516e+00 8.646184578537940979e-03
-1.251456165313720703e+01 -4.301704406738281250e+00 1.408932358026504517e-01
-6.609852313995361328e+00 -2.542539119720458984e+00 8.652293123304843903e-03
-1.112309074401855469e+01 -3.747251272201538086e+00 1.249663680791854858e-01
-6.294155597686767578e+00 -2.376872539520263672e+00 8.219800889492034912e-03
-1.300320243835449219e+01 -4.291981220245361328e+00 1.457905322313308716e-01
-6.634929656982421875e+00 -2.459149360656738281e+00 8.644962683320045471e-03
-1.197412490844726562e+01 -3.870999097824096680e+00 1.339837908744812012e-01
-6.666809558868408203e+00 -2.424543857574462891e+00 8.666954003274440765e-03
-1.210537719726562500e+01 -3.831551551818847656e+00 1.351868212223052979e-01
-6.706991195678710938e+00 -2.392663478851318359e+00 8.699940517544746399e-03
-1.216304492950439453e+01 -3.767853975296020508e+00 1.355700790882110596e-01
-6.726265430450439453e+00 -2.353116273880004883e+00 8.706049993634223938e-03
-1.217827987670898438e+01 -3.690831899642944336e+00 1.354849189519882202e-01
-6.752874374389648438e+00 -2.316017866134643555e+00 8.721931837499141693e-03
-1.240874004364013672e+01 -3.677697658538818359e+00 1.377951651811599731e-01
-6.784019947052001953e+00 -2.280274391174316406e+00 8.743923157453536987e-03
-1.206226062774658203e+01 -3.494638919830322266e+00 1.337069869041442871e-01
-6.792184829711914062e+00 -2.236728668212890625e+00 8.736592717468738556e-03
-1.181888771057128906e+01 -3.345661401748657227e+00 1.307792365550994873e-01
-6.797215461730957031e+00 -2.192247867584228516e+00 8.725597523152828217e-03
-1.226422500610351562e+01 -3.390583753585815430e+00 1.354742646217346191e-01
-6.718994617462158203e+00 -2.121593475341796875e+00 8.608311414718627930e-03
-1.186291599273681641e+01 -3.201415538787841797e+00 1.308218240737915039e-01
-6.737618446350097656e+00 -2.082098245620727539e+00 8.615641854703426361e-03
-1.347786521911621094e+01 -3.548661470413208008e+00 1.483882367610931396e-01
-6.785684108734130859e+00 -2.051424741744995117e+00 8.660845458507537842e-03
-1.331439590454101562e+01 -3.418401002883911133e+00 1.463547945022583008e-01
-6.831707954406738281e+00 -2.019672632217407227e+00 8.703606203198432922e-03
-1.243201446533203125e+01 -3.110671043395996094e+00 1.364430785179138184e-01
-6.884320259094238281e+00 -1.989375710487365723e+00 8.754919283092021942e-03
-1.282392692565917969e+01 -3.125247240066528320e+00 1.405312716960906982e-01
-6.983973979949951172e+00 -1.971822857856750488e+00 8.866096846759319305e-03
-1.380996704101562500e+01 -3.275913000106811523e+00 1.511136889457702637e-01
-6.934243679046630859e+00 -1.911921381950378418e+00 8.787905797362327576e-03
-1.325104904174804688e+01 -3.057570934295654297e+00 1.447897851467132568e-01
-6.976744651794433594e+00 -1.877653956413269043e+00 8.827000856399536133e-03
-1.276024436950683594e+01 -2.861972808837890625e+00 1.392324119806289673e-01
-7.108069419860839844e+00 -1.866300344467163086e+00 8.978495374321937561e-03
-1.024901771545410156e+01 -2.232773542404174805e+00 1.116797700524330139e-01
-7.105824470520019531e+00 -1.819178700447082520e+00 8.961391635239124298e-03
-1.386859416961669922e+01 -2.932289600372314453e+00 1.509220600128173828e-01
-7.183800697326660156e+00 -1.792246341705322266e+00 9.045690298080444336e-03
-1.330152416229248047e+01 -2.727235555648803711e+00 1.445662081241607666e-01
-7.185916900634765625e+00 -1.746008753776550293e+00 9.034695103764533997e-03
-7.161461353302001953e+00 -1.693598866462707520e+00 8.990712463855743408e-03
-1.330551242828369141e+01 -2.558324575424194336e+00 1.442574709653854370e-01
-7.156125545501708984e+00 -1.646038413047790527e+00 8.971164934337139130e-03
-1.299457168579101562e+01 -2.415953159332275391e+00 1.407229006290435791e-01
-7.203175067901611328e+00 -1.610389232635498047e+00 9.017591364681720734e-03
-1.301013565063476562e+01 -2.336351394653320312e+00 1.407335400581359863e-01
-7.192398548126220703e+00 -1.561704993247985840e+00 8.991934359073638916e-03
-1.291486167907714844e+01 -2.237530946731567383e+00 1.395518034696578979e-01
-1.367990493774414062e+01 -2.283708810806274414e+00 1.476642936468124390e-01
-7.307037830352783203e+00 -1.492943286895751953e+00 9.111664257943630219e-03
-1.367391395568847656e+01 -2.196555376052856445e+00 1.474513560533523560e-01
-7.288593769073486328e+00 -1.442643404006958008e+00 9.077455848455429077e-03
-1.188458347320556641e+01 -1.834388494491577148e+00 1.280325055122375488e-01
-7.333648204803466797e+00 -1.404855608940124512e+00 9.122659452259540558e-03
-1.494617843627929688e+01 -2.213140487670898438e+00 1.608657091856002808e-01
-7.412926197052001953e+00 -1.372942805290222168e+00 9.210624732077121735e-03
-1.339125633239746094e+01 -1.899002909660339355e+00 1.440019607543945312e-01
-7.345413684844970703e+00 -1.313874244689941406e+00 9.116550907492637634e-03
-1.378513622283935547e+01 -1.868647098541259766e+00 1.481114327907562256e-01
-7.378958702087402344e+00 -1.273199796676635742e+00 9.148316457867622375e-03
-1.358213901519775391e+01 -1.756328821182250977e+00 1.458118408918380737e-01
-7.377753734588623047e+00 -1.226423501968383789e+00 9.137320332229137421e-03
-1.463175964355468750e+01 -1.800847649574279785e+00 1.569585204124450684e-01
-7.552018642425537109e+00 -1.207820892333984375e+00 9.343792684376239777e-03
-1.463756752014160156e+01 -1.710454702377319336e+00 1.569052934646606445e-01
-7.396201610565185547e+00 -1.136402249336242676e+00 9.142206981778144836e-03
-1.384373950958251953e+01 -1.531649470329284668e+00 1.482924222946166992e-01
-7.576165199279785156e+00 -1.116513013839721680e+00 9.356009773910045624e-03
-1.436108398437500000e+01 -1.499749898910522461e+00 1.537326872348785400e-01
-7.538314819335937500e+00 -1.063717961311340332e+00 9.301031939685344696e-03
-1.460885238647460938e+01 -1.435065269470214844e+00 1.562877893447875977e-01
-7.534789562225341797e+00 -1.016107201576232910e+00 9.288814850151538849e-03
-9.357095718383789062e+00 -1.827286630868911743e-01 2.777650654315948486e-01
-1.460244750976562500e+01 -1.344025373458862305e+00 1.561281085014343262e-01
-7.449634075164794922e+00 -9.581198096275329590e-01 9.176415391266345978e-03
-9.288077354431152344e+00 -1.243743002414703369e-01 2.756884098052978516e-01
-1.308611297607421875e+01 -1.123529314994812012e+00 1.398392468690872192e-01
-7.508973121643066406e+00 -9.189513325691223145e-01 9.242389351129531860e-03
-7.419111251831054688e+00 -8.617832064628601074e-01 9.125103242695331573e-03
-7.572367191314697266e+00 -8.325275182723999023e-01 9.307141415774822235e-03
-7.676798820495605469e+00 -7.963669896125793457e-01 9.429314173758029938e-03
-6.370798110961914062e+00 7.106120884418487549e-02 1.890926361083984375e-01
-1.328440856933593750e+01 -8.127273917198181152e-01 1.417023539543151855e-01
-7.694479465484619141e+00 -7.505100369453430176e-01 9.445196017622947693e-03
-6.365245819091796875e+00 1.100639477372169495e-01 1.889443248510360718e-01
-9.388409614562988281e+00 -1.768858581781387329e-01 1.901357471942901611e-01
-1.494255065917968750e+01 -8.221748471260070801e-01 1.593326479196548462e-01
-7.701926708221435547e+00 -7.035563588142395020e-01 9.448861703276634216e-03
-9.362325668334960938e+00 -1.189334467053413391e-01 1.895891577005386353e-01
-7.704106330871582031e+00 -6.561152935028076172e-01 9.446417912840843201e-03
-7.702005863189697266e+00 -6.083589792251586914e-01 9.439087472856044769e-03
-7.664701938629150391e+00 -5.581113696098327637e-01 9.388997219502925873e-03
-6.372590065002441406e+00 3.635630756616592407e-02 1.290380358695983887e-01
-7.587161540985107422e+00 -5.056844353675842285e-01 9.290036745369434357e-03
-6.342255592346191406e+00 7.510195672512054443e-02 1.284307092428207397e-01
-9.363707542419433594e+00 -2.274643331766128540e-01 9.972396492958068848e-02
-7.605093955993652344e+00 -4.600266516208648682e-01 9.308362379670143127e-03
-6.321682929992675781e+00 1.136564463376998901e-01 1.280258148908615112e-01
-9.355929374694824219e+00 -1.698420941829681396e-01 9.962815046310424805e-02
-7.674674987792968750e+00 -4.169889688491821289e-01 9.390218183398246765e-03
-9.383790969848632812e+00 -1.127563789486885071e-01 9.991559386253356934e-02
-7.614161968231201172e+00 -3.668583035469055176e-01 9.313249029219150543e-03
-7.748153209686279297e+00 -3.256751894950866699e-01 9.474517777562141418e-03
-7.764996051788330078e+00 -2.786652445793151855e-01 9.492844343185424805e-03
-6.377508640289306641e+00 4.076730087399482727e-02 6.790214776992797852e-02
-7.994458198547363281e+00 -2.377936840057373047e-01 9.771398268640041351e-03
-6.349142074584960938e+00 7.954743504524230957e-02 6.760405749082565308e-02
-7.787825107574462891e+00 -1.838277727365493774e-01 9.517278522253036499e-03
-6.334537982940673828e+00 1.182422712445259094e-01 6.745500862598419189e-02
-8.020771026611328125e+00 -1.400905996561050415e-01 9.800720028579235077e-03
-6.347687721252441406e+00 1.574551761150360107e-01 6.760405749082565308e-02
-7.956483840942382812e+00 -9.013711661100387573e-02 9.721307083964347839e-03
-7.774889945983886719e+00 -4.037034884095191956e-02 9.498952887952327728e-03
-6.523992538452148438e+00 6.155836395919322968e-03 7.970567792654037476e-03
-6.386835098266601562e+00 4.521630331873893738e-02 7.803190499544143677e-03
-6.394965171813964844e+00 8.228439837694168091e-02 2.401009500026702881e-01
-6.352440834045410156e+00 8.395502716302871704e-02 7.761652115732431412e-03
-6.352377414703369141e+00 1.207241341471672058e-01 2.385253012180328369e-01
-6.343807697296142578e+00 1.227764934301376343e-01 7.751878350973129272e-03
-6.343934535980224609e+00 1.617245376110076904e-01 7.753099780529737473e-03
-8.101941108703613281e+00 2.562946081161499023e-01 9.903344325721263885e-03
-8.103214263916015625e+00 3.061156272888183594e-01 9.907010011374950409e-03
-8.352940559387207031e+00 3.668882250785827637e-01 1.021488569676876068e-02
-3.846509695053100586e+00 6.144973039627075195e-01 1.156093552708625793e-01
-8.370507240295410156e+00 4.191342294216156006e-01 1.023932080715894699e-02
-3.836750745773315430e+00 6.371051073074340820e-01 1.154313609004020691e-01
-8.215019226074218750e+00 4.618978202342987061e-01 1.005239691585302353e-02
-3.880050659179687500e+00 6.687846183776855469e-01 1.168553382158279419e-01
-8.213027954101562500e+00 5.123577713966369629e-01 1.005361787974834442e-02
-8.255622863769531250e+00 5.658880472183227539e-01 1.010981760919094086e-02
-8.444458007812500000e+00 6.309124827384948730e-01 1.034561172127723694e-02
-8.385606765747070312e+00 6.782805323600769043e-01 1.027841586619615555e-02
-3.950326442718505859e+00 6.324525475502014160e-01 2.257715314626693726e-01
-3.874632358551025391e+00 6.217210292816162109e-01 7.945941388607025146e-02
-8.394238471984863281e+00 7.308485507965087891e-01 1.029429957270622253e-02
-3.897128343582153320e+00 6.484852433204650879e-01 2.229543328285217285e-01
-3.864827394485473633e+00 6.444968581199645996e-01 7.933794707059860229e-02
-8.441371917724609375e+00 7.871689796447753906e-01 1.035782881081104279e-02
-3.855874538421630859e+00 6.673464179039001465e-01 7.923673093318939209e-02
-8.474196434020996094e+00 8.427097797393798828e-01 1.040425524115562439e-02
-8.522566795349121094e+00 9.003638029098510742e-01 1.047022826969623566e-02
-3.912811756134033203e+00 5.814359188079833984e-01 4.211679100990295410e-02
-8.469179153442382812e+00 9.473046660423278809e-01 1.041158474981784821e-02
-3.921195745468139648e+00 6.051937341690063477e-01 1.864143460988998413e-01
-3.904229640960693359e+00 6.046683192253112793e-01 4.206356406211853027e-02
-8.473138809204101562e+00 1.000425338745117188e+00 1.042380277067422867e-02
-3.916422128677368164e+00 6.290839314460754395e-01 1.863674223423004150e-01
-3.892548322677612305e+00 6.273400187492370605e-01 4.197838902473449707e-02
-8.460886001586914062e+00 1.051656484603881836e+00 1.041647139936685562e-02
-3.915444374084472656e+00 6.535962224006652832e-01 1.865082234144210815e-01
-3.863970518112182617e+00 6.470835804939270020e-01 4.171223565936088562e-02
-8.509802818298339844e+00 1.110800147056579590e+00 1.048488914966583252e-02
-3.886754274368286133e+00 6.733458638191223145e-01 1.853349059820175171e-01
-3.839238643646240234e+00 6.671849489212036133e-01 4.148865863680839539e-02
-8.616765975952148438e+00 1.178578615188598633e+00 1.062538754194974899e-02
-3.833104372024536133e+00 6.903750300407409668e-01 4.146736860275268555e-02
-8.648968696594238281e+00 1.237091660499572754e+00 1.067425683140754700e-02
-3.928454637527465820e+00 5.865200757980346680e-01 4.852712620049715042e-03
-3.917865037918090820e+00 6.095374822616577148e-01 4.844160284847021103e-03
-3.858247995376586914e+00 6.231507062911987305e-01 1.467241942882537842e-01
-3.904179811477661133e+00 6.319676637649536133e-01 4.831943195313215256e-03
-3.859279394149780273e+00 6.476396322250366211e-01 1.469117701053619385e-01
-3.876561164855957031e+00 6.519311070442199707e-01 4.802621435374021530e-03
-3.876428365707397461e+00 6.763925552368164062e-01 4.807508550584316254e-03
-3.848588228225708008e+00 6.958947777748107910e-01 4.778186790645122528e-03
-8.751040458679199219e+00 1.637861013412475586e+00 1.087706442922353745e-02
-8.802678108215332031e+00 1.703495144844055176e+00 1.095403358340263367e-02
-8.842070579528808594e+00 1.767472028732299805e+00 1.101634092628955841e-02
-8.816369056701660156e+00 1.818662405014038086e+00 1.099801622331142426e-02
-8.807977676391601562e+00 1.873348355293273926e+00 1.100168004631996155e-02
-8.805109024047851562e+00 1.929284214973449707e+00 1.101267710328102112e-02
-8.828223228454589844e+00 1.991195678710937500e+00 1.105665788054466248e-02
-8.961958885192871094e+00 2.079227685928344727e+00 1.123991888016462326e-02
-9.148439407348632812e+00 2.181733131408691406e+00 1.149037294089794159e-02
-8.941596031188964844e+00 2.190475702285766602e+00 1.124724838882684708e-02
-8.858161926269531250e+00 2.227738857269287109e+00 1.115928404033184052e-02
-8.938249588012695312e+00 2.306284189224243164e+00 1.127779204398393631e-02
-8.927796363830566406e+00 2.362107753753662109e+00 1.128267869353294373e-02
-9.087826728820800781e+00 2.464211702346801758e+00 1.150381192564964294e-02
-9.089878082275390625e+00 2.524744272232055664e+00 1.152580231428146362e-02
-9.057865142822265625e+00 2.575821399688720703e+00 1.150503382086753845e-02
-9.371226310729980469e+00 2.727193832397460938e+00 1.192408706992864609e-02
-9.280516624450683594e+00 2.762674331665039062e+00 1.183001417666673660e-02
-9.337053298950195312e+00 2.841987848281860352e+00 1.192408706992864609e-02
-9.596348762512207031e+00 2.985370397567749023e+00 1.227838825434446335e-02
-9.436803817749023438e+00 2.999366521835327148e+00 1.209757290780544281e-02
-1.003931903839111328e+01 3.258824825286865234e+00 1.289536245167255402e-02
-9.974520683288574219e+00 3.305578470230102539e+00 1.283794082701206207e-02
-9.599766731262207031e+00 3.246890783309936523e+00 1.238101441413164139e-02
-8.900938034057617188e+00 3.071519613265991211e+00 1.150381192564964294e-02
-9.561085700988769531e+00 3.365114212036132812e+00 1.238345820456743240e-02
-9.977927207946777344e+00 3.580783367156982422e+00 1.295156218111515045e-02
-1.016049957275390625e+01 3.716832399368286133e+00 1.321789901703596115e-02
-9.311059951782226562e+00 3.471021175384521484e+00 1.214033272117376328e-02
-9.537322044372558594e+00 3.622174501419067383e+00 1.246409211307764053e-02
-9.636161804199218750e+00 3.727527141571044922e+00 1.262291707098484039e-02
-9.444702148437500000e+00 3.720248222351074219e+00 1.240178290754556656e-02
-9.408703804016113281e+00 3.772918939590454102e+00 1.238467916846275330e-02
-5.508969306945800781e+00 2.971547365188598633e+00 1.344163060188293457e+00
-5.550697326660156250e+00 2.995306491851806641e+00 1.114418387413024902e+00
-9.828860282897949219e+00 4.011583805084228516e+00 1.296988781541585922e-02
-5.520649909973144531e+00 3.021723985671997070e+00 1.351511716842651367e+00
-5.501983165740966797e+00 3.012754917144775391e+00 1.108328700065612793e+00
-5.523365497589111328e+00 3.028223514556884766e+00 6.453856825828552246e-01
-5.561950206756591797e+00 3.051903486251831055e+00 4.180476963520050049e-01
-5.607826232910156250e+00 3.078349828720092773e+00 1.898639649152755737e-01
-1.051332187652587891e+01 4.366387367248535156e+00 1.390817761421203613e-02
-5.507133483886718750e+00 3.058389186859130859e+00 1.352771401405334473e+00
-5.551398277282714844e+00 3.084239482879638672e+00 1.122074007987976074e+00
-5.523200988769531250e+00 3.069835424423217773e+00 8.802049756050109863e-01
-5.500333786010742188e+00 3.059639215469360352e+00 6.448760628700256348e-01
-5.528297901153564453e+00 3.077722072601318359e+00 4.169299006462097168e-01
-5.580100059509277344e+00 3.107837200164794922e+00 1.895673125982284546e-01
-9.422408103942871094e+00 3.981271028518676758e+00 1.249707769602537155e-02
-5.500189304351806641e+00 3.098841667175292969e+00 1.355710864067077637e+00
-5.519501209259033203e+00 3.110991477966308594e+00 1.119464159011840820e+00
-5.477516651153564453e+00 3.088587045669555664e+00 8.759281635284423828e-01
-5.472793579101562500e+00 3.088442087173461914e+00 6.438568234443664551e-01
-5.499752521514892578e+00 3.106187582015991211e+00 4.162066578865051270e-01
-5.566147327423095703e+00 3.144967794418334961e+00 1.897453069686889648e-01
-9.489676475524902344e+00 4.078496932983398438e+00 1.261925138533115387e-02
-5.492106437683105469e+00 3.138838529586791992e+00 1.358440399169921875e+00
-5.453289985656738281e+00 3.117917060852050781e+00 1.109894514083862305e+00
-5.462760448455810547e+00 3.124596834182739258e+00 8.766179084777832031e-01
-5.458920001983642578e+00 3.124929666519165039e+00 6.444683670997619629e-01
-5.482321262359619141e+00 3.140866756439208984e+00 4.163381457328796387e-01
-1.007363796234130859e+01 5.773605823516845703e+00 3.446030914783477783e-01
-9.345353126525878906e+00 4.084584236145019531e+00 1.246042642742395401e-02
-5.486777782440185547e+00 3.181893348693847656e+00 1.610827207565307617e+00
-5.483739852905273438e+00 3.178852796554565430e+00 1.361169815063476562e+00
-5.423833847045898438e+00 3.145390748977661133e+00 1.107806682586669922e+00
-5.452052593231201172e+00 3.163027286529541016e+00 8.779975771903991699e-01
-5.452547550201416016e+00 3.165858745574951172e+00 6.459972262382507324e-01
-5.618734836578369141e+00 3.266285419464111328e+00 1.928899288177490234e-01
