-5.149592399597167969e+00 -5.609220504760742188e+00 8.107163012027740479e-02
-3.906428337097167969e+00 -4.576467514038085938e+00 7.351150736212730408e-03
-6.848921775817871094e+00 -6.854826450347900391e+00 1.962090879678726196e-01
-5.190040111541748047e+00 -5.584109783172607422e+00 8.116745203733444214e-02
-3.731730699539184570e+00 -4.317868709564208984e+00 6.972414441406726837e-03
-6.948442935943603516e+00 -6.869609832763671875e+00 1.978488862514495850e-01
-5.133069515228271484e+00 -5.455301761627197266e+00 7.975149154663085938e-02
-3.434822559356689453e+00 -3.925380229949951172e+00 6.372544448822736740e-03
-6.981880187988281250e+00 -6.818462848663330078e+00 1.976059526205062866e-01
-5.343006134033203125e+00 -5.609055042266845703e+00 8.247694373130798340e-02
-3.747301816940307617e+00 -4.229833126068115234e+00 6.903997622430324554e-03
-7.116408348083496094e+00 -6.865038394927978516e+00 2.002174854278564453e-01
-5.244051456451416016e+00 -5.437966823577880859e+00 8.043285459280014038e-02
-3.951461315155029297e+00 -4.405522346496582031e+00 7.230199407786130905e-03
-7.203273296356201172e+00 -6.864006042480468750e+00 2.014726400375366211e-01
-4.896625995635986328e+00 -5.015733718872070312e+00 7.463061809539794922e-02
-3.986485958099365234e+00 -4.390077590942382812e+00 7.244860287755727768e-03
-7.250350475311279297e+00 -6.824474811553955078e+00 2.016143500804901123e-01
-5.425663948059082031e+00 -5.489843368530273438e+00 8.217885345220565796e-02
-3.991014003753662109e+00 -4.341240406036376953e+00 7.204543333500623703e-03
-7.212277412414550781e+00 -6.705654621124267578e+00 1.994077116250991821e-01
-5.433786392211914062e+00 -5.431001186370849609e+00 8.179558813571929932e-02
-3.871098279953002930e+00 -4.159287929534912109e+00 6.941871251910924911e-03
-7.307778358459472656e+00 -6.711318969726562500e+00 2.009057998657226562e-01
-5.444237709045410156e+00 -5.375076770782470703e+00 8.145490288734436035e-02
-3.939064264297485352e+00 -4.180581569671630859e+00 7.017618510872125626e-03
-7.293282985687255859e+00 -6.615972518920898438e+00 1.993874758481979370e-01
-5.474968433380126953e+00 -5.339475631713867188e+00 8.142296224832534790e-02
-4.006055355072021484e+00 -4.199748992919921875e+00 7.090922445058822632e-03
-7.362780094146728516e+00 -6.597116947174072266e+00 2.001769989728927612e-01
-5.557317256927490234e+00 -5.353650093078613281e+00 8.215755969285964966e-02
-3.990069866180419922e+00 -4.131928443908691406e+00 7.017618510872125626e-03
-7.438309192657470703e+00 -6.582957744598388672e+00 2.011284828186035156e-01
-5.347393989562988281e+00 -5.088529586791992188e+00 7.859104871749877930e-02
-3.958025455474853516e+00 -4.048732280731201172e+00 6.917436607182025909e-03
-7.702127933502197266e+00 -6.732618331909179688e+00 2.071410715579986572e-01
-5.679427146911621094e+00 -5.338469028472900391e+00 8.298797160387039185e-02
-3.745035886764526367e+00 -3.784130334854125977e+00 6.504491902887821198e-03
-7.431503772735595703e+00 -6.416045665740966797e+00 1.988003700971603394e-01
-5.615348815917968750e+00 -5.213710784912109375e+00 8.158265799283981323e-02
-3.802157402038574219e+00 -3.794989109039306641e+00 6.563134957104921341e-03
-7.650272846221923828e+00 -6.523421764373779297e+00 2.035780698060989380e-01
-5.759986400604248047e+00 -5.282565116882324219e+00 8.321154117584228516e-02
-3.885187625885009766e+00 -3.830563068389892578e+00 6.665760185569524765e-03
-7.583858013153076172e+00 -6.386837482452392578e+00 2.007640898227691650e-01
-5.808595180511474609e+00 -5.261892318725585938e+00 8.344575762748718262e-02
-3.867784023284912109e+00 -3.766882896423339844e+00 6.596121471375226974e-03
-7.639814376831054688e+00 -6.354248523712158203e+00 2.012094557285308838e-01
-5.840772151947021484e+00 -5.226152420043945312e+00 8.344575762748718262e-02
-4.067385196685791016e+00 -3.912935972213745117e+00 6.895445287227630615e-03
-7.649301528930664062e+00 -6.283137321472167969e+00 2.004401683807373047e-01
-5.880971431732177734e+00 -5.197499752044677734e+00 8.356287330389022827e-02
-4.166707038879394531e+00 -3.959546327590942383e+00 7.022505160421133041e-03
-8.039445877075195312e+00 -6.521402835845947266e+00 2.096108943223953247e-01
-5.920284748077392578e+00 -5.167892456054687500e+00 8.366933465003967285e-02
-4.041456699371337891e+00 -3.793604373931884766e+00 6.772050634026527405e-03
-8.010642051696777344e+00 -6.416945457458496094e+00 2.078294008970260620e-01
-5.812533378601074219e+00 -5.011327743530273438e+00 8.171041309833526611e-02
-3.871800899505615234e+00 -3.589919090270996094e+00 6.450735498219728470e-03
-9.453211784362792969e+00 -6.937726497650146484e+00 3.480147421360015869e-01
-7.907937049865722656e+00 -6.255403518676757812e+00 2.041651457548141479e-01
-5.868296623229980469e+00 -4.996961593627929688e+00 8.206173777580261230e-02
-3.898180007934570312e+00 -3.570147037506103516e+00 6.458065938204526901e-03
-9.438941955566406250e+00 -6.838540554046630859e+00 3.459380865097045898e-01
-7.986355304718017578e+00 -6.238151550292968750e+00 2.051976174116134644e-01
-5.864409446716308594e+00 -4.931898593902587891e+00 8.158265799283981323e-02
-4.097250938415527344e+00 -3.706496238708496094e+00 6.750059314072132111e-03
-9.275029182434082031e+00 -6.633384227752685547e+00 3.384325504302978516e-01
-8.142441749572753906e+00 -6.280010223388671875e+00 2.082140445709228516e-01
-5.768407821655273438e+00 -4.791044235229492188e+00 7.983666658401489258e-02
-3.755276203155517578e+00 -3.355467319488525391e+00 6.152633577585220337e-03
-9.142439842224121094e+00 -6.454137325286865234e+00 3.321432769298553467e-01
-8.551484107971191406e+00 -6.512200355529785156e+00 2.176479399204254150e-01
-6.212866783142089844e+00 -5.096103191375732422e+00 8.555372804403305054e-02
-4.305875301361083984e+00 -3.800190210342407227e+00 7.016397081315517426e-03
-9.172029495239257812e+00 -6.391061782836914062e+00 3.317872881889343262e-01
-8.494587898254394531e+00 -6.386905670166015625e+00 2.151983529329299927e-01
-6.109596729278564453e+00 -4.948998928070068359e+00 8.371192216873168945e-02
-4.356248378753662109e+00 -3.797353506088256836e+00 7.060378789901733398e-03
-9.160831451416015625e+00 -6.300112247467041016e+00 3.299776315689086914e-01
-8.449325561523437500e+00 -6.272091865539550781e+00 2.130727022886276245e-01
-6.274155616760253906e+00 -5.018853664398193359e+00 8.554308861494064331e-02
-4.468889713287353516e+00 -3.847542524337768555e+00 7.204543333500623703e-03
-1.020770835876464844e+01 -6.941221714019775391e+00 3.637761354446411133e+00
-9.097588539123535156e+00 -6.174739360809326172e+00 3.263287246227264404e-01
-8.492489814758300781e+00 -6.223675251007080078e+00 2.131941616535186768e-01
-6.260105609893798828e+00 -4.944931507110595703e+00 8.493623882532119751e-02
-4.474130153656005859e+00 -3.804502487182617188e+00 7.175221573561429977e-03
-1.022939777374267578e+01 -6.864560604095458984e+00 3.630411863327026367e+00
-9.082154273986816406e+00 -6.083200931549072266e+00 3.244300782680511475e-01
-8.601800918579101562e+00 -6.223019599914550781e+00 2.149756699800491333e-01
-6.408598423004150391e+00 -4.998676300048828125e+00 8.653318881988525391e-02
-4.302117347717285156e+00 -3.612985134124755859e+00 6.863680202513933182e-03
-1.025133132934570312e+01 -6.788424968719482422e+00 3.623345136642456055e+00
-9.099295616149902344e+00 -6.014131546020507812e+00 3.237180709838867188e-01
-8.589378356933593750e+00 -6.134098052978515625e+00 2.137205153703689575e-01
-6.510448932647705078e+00 -5.014173030853271484e+00 8.749135583639144897e-02
-4.206440448760986328e+00 -3.488845109939575195e+00 6.676755379885435104e-03
-1.027833747863769531e+01 -6.715951919555664062e+00 3.618256807327270508e+00
-1.032443809509277344e+01 -6.748645782470703125e+00 3.132546901702880859e+00
-1.014548015594482422e+01 -6.619039535522460938e+00 7.982225418090820312e-01
-9.024672508239746094e+00 -5.885565280914306641e+00 3.197724521160125732e-01
-8.648100852966308594e+00 -6.096256256103515625e+00 2.142468690872192383e-01
-6.358025074005126953e+00 -4.834918498992919922e+00 8.504270762205123901e-02
-3.998780488967895508e+00 -3.275404930114746094e+00 6.315123289823532104e-03
-1.034192657470703125e+01 -6.667312145233154297e+00 3.626171827316284180e+00
-1.031840991973876953e+01 -6.654700756072998047e+00 3.118269920349121094e+00
-1.029166698455810547e+01 -6.639997005462646484e+00 2.630167245864868164e+00
-1.026180744171142578e+01 -6.618196010589599609e+00 2.157500028610229492e+00
-1.025983333587646484e+01 -6.614387512207031250e+00 1.700396060943603516e+00
-1.024370384216308594e+01 -6.598928451538085938e+00 1.248472690582275391e+00
-1.018002986907958984e+01 -6.552882671356201172e+00 7.977622747421264648e-01
-9.053050994873046875e+00 -5.825212478637695312e+00 3.195054531097412109e-01
-8.679599761962890625e+00 -6.039080619812011719e+00 2.141051590442657471e-01
-6.547501087188720703e+00 -4.915891170501708984e+00 8.717197179794311523e-02
-4.353120326995849609e+00 -3.521236181259155273e+00 6.840467918664216995e-03
-1.039154434204101562e+01 -6.609392166137695312e+00 3.629281282424926758e+00
-1.033778667449951172e+01 -6.577734947204589844e+00 3.111870050430297852e+00
-1.031489467620849609e+01 -6.565698146820068359e+00 2.625758171081542969e+00
-1.027895927429199219e+01 -6.540304183959960938e+00 2.152628183364868164e+00
-1.023921775817871094e+01 -6.512506961822509766e+00 1.690324664115905762e+00
-1.025125789642333984e+01 -6.515140533447265625e+00 1.244497656822204590e+00
-1.018551063537597656e+01 -6.468364238739013672e+00 7.950665354728698730e-01
-9.096218109130859375e+00 -5.774375438690185547e+00 3.197724521160125732e-01
-8.672810554504394531e+00 -5.955713748931884766e+00 2.130322158336639404e-01
-6.366269111633300781e+00 -4.719017505645751953e+00 8.437198400497436523e-02
-4.079302787780761719e+00 -3.258541345596313477e+00 6.378653459250926971e-03
-1.047009181976318359e+01 -6.569467544555664062e+00 3.642566919326782227e+00
-1.035660839080810547e+01 -6.500782489776611328e+00 3.105469942092895508e+00
-1.027881050109863281e+01 -6.454450130462646484e+00 2.606441736221313477e+00
-1.026384925842285156e+01 -6.442557811737060547e+00 2.141144752502441406e+00
-1.026891708374023438e+01 -6.443240642547607422e+00 1.688669085502624512e+00
-1.025985622406005859e+01 -6.432564735412597656e+00 1.240726470947265625e+00
-1.019202899932861328e+01 -6.385084629058837891e+00 7.925021648406982422e-01
-9.075565338134765625e+00 -5.683439254760742188e+00 3.178144693374633789e-01
-8.652083396911621094e+00 -5.863683700561523438e+00 2.116353511810302734e-01
-6.462081909179687500e+00 -4.728879451751708984e+00 8.525563031435012817e-02
-4.241330623626708984e+00 -3.345546245574951172e+00 6.599786691367626190e-03
-1.085358333587646484e+01 -6.717629432678222656e+00 3.761573553085327148e+00
-1.021998405456542969e+01 -6.871347904205322266e+00 3.489486217498779297e+00
-1.034768295288085938e+01 -6.407009124755859375e+00 3.090946912765502930e+00
-1.028913021087646484e+01 -6.373239517211914062e+00 2.599093198776245117e+00
-1.028225517272949219e+01 -6.366498470306396484e+00 2.136794805526733398e+00
-1.032426071166992188e+01 -6.390014171600341797e+00 1.691290497779846191e+00
-1.025852203369140625e+01 -6.344375133514404297e+00 1.235834121704101562e+00
-1.024374771118164062e+01 -6.330296039581298828e+00 7.934885025024414062e-01
-9.138330459594726562e+00 -5.644980907440185547e+00 3.187934756278991699e-01
-8.661306381225585938e+00 -5.792699337005615234e+00 2.109875380992889404e-01
-6.687942504882812500e+00 -4.831429958343505859e+00 8.784268796443939209e-02
-4.648352146148681641e+00 -3.620557546615600586e+00 7.198434323072433472e-03
-1.026435852050781250e+01 -6.810105800628662109e+00 3.490304231643676758e+00
-1.038183784484863281e+01 -6.340365409851074219e+00 3.089470148086547852e+00
-1.031719493865966797e+01 -6.303359508514404297e+00 2.596363782882690430e+00
-1.031860542297363281e+01 -6.301748275756835938e+00 2.136273145675659180e+00
-1.038271713256835938e+01 -6.338415145874023438e+00 1.694463610649108887e+00
-1.035076045989990234e+01 -6.313947200775146484e+00 1.242255330085754395e+00
-1.030029010772705078e+01 -6.278228282928466797e+00 7.948692440986633301e-01
-9.198404312133789062e+00 -5.604405403137207031e+00 3.196834623813629150e-01
-8.687506675720214844e+00 -5.733387470245361328e+00 2.107648253440856934e-01
-6.732115745544433594e+00 -4.800752639770507812e+00 8.803431689739227295e-02
-4.609443187713623047e+00 -3.545025587081909180e+00 7.104360964149236679e-03
-1.029629230499267578e+01 -6.740672588348388672e+00 3.487032651901245117e+00
-1.047368240356445312e+01 -6.308549880981445312e+00 3.105223894119262695e+00
-1.027076721191406250e+01 -6.718841552734375000e+00 2.985076904296875000e+00
-1.036656475067138672e+01 -6.246496200561523438e+00 2.599093198776245117e+00
-1.045745944976806641e+01 -6.298778057098388672e+00 2.156977891921997070e+00
-1.045535469055175781e+01 -6.295023918151855469e+00 1.699982047080993652e+00
-1.043278026580810547e+01 -6.276471138000488281e+00 1.247453451156616211e+00
-1.044380950927734375e+01 -6.278142452239990234e+00 8.029567003250122070e-01
-1.018567371368408203e+01 -6.637820243835449219e+00 6.861043572425842285e-01
-9.340572357177734375e+00 -5.612728595733642578e+00 3.234214186668395996e-01
-8.709956169128417969e+00 -5.671790599822998047e+00 2.104611694812774658e-01
-6.601179599761962891e+00 -4.646543979644775391e+00 8.594764024019241333e-02
-4.596066951751708984e+00 -3.490066766738891602e+00 7.050605490803718567e-03
-1.031482887268066406e+01 -6.662751674652099609e+00 3.479399442672729492e+00
-1.053552627563476562e+01 -6.258025169372558594e+00 3.112116336822509766e+00
-1.029465579986572266e+01 -6.644629478454589844e+00 2.980113983154296875e+00
-1.041310214996337891e+01 -6.187765121459960938e+00 2.601192951202392578e+00
-1.029822063446044922e+01 -6.641839504241943359e+00 2.506528139114379883e+00
-1.028957080841064453e+01 -6.631175994873046875e+00 2.039695501327514648e+00
-1.024979114532470703e+01 -6.600477218627929688e+00 1.579028844833374023e+00
-1.021968364715576172e+01 -6.576043128967285156e+00 1.129504203796386719e+00
-1.012123680114746094e+01 -6.507700920104980469e+00 6.790612936019897461e-01
-9.391174316406250000e+00 -5.564991950988769531e+00 3.239850699901580811e-01
-8.731975555419921875e+00 -5.610134124755859375e+00 2.101574987173080444e-01
-6.605751514434814453e+00 -4.589407444000244141e+00 8.563890308141708374e-02
-4.619794845581054688e+00 -3.463599443435668945e+00 7.054270245134830475e-03
-1.037823486328125000e+01 -6.613813877105712891e+00 3.487032651901245117e+00
-1.062223339080810547e+01 -6.221673965454101562e+00 3.126393079757690430e+00
-1.030080890655517578e+01 -6.559417247772216797e+00 2.970188140869140625e+00
-1.029249286651611328e+01 -6.549072742462158203e+00 2.495306253433227539e+00
-1.026513862609863281e+01 -6.526634216308593750e+00 2.026875495910644531e+00
-1.023568916320800781e+01 -6.502894401550292969e+00 1.570679664611816406e+00
-1.021276473999023438e+01 -6.483327388763427734e+00 1.124321579933166504e+00
-1.016772079467773438e+01 -6.449753761291503906e+00 6.795120239257812500e-01
-9.421690940856933594e+00 -5.505247116088867188e+00 3.238663971424102783e-01
-8.703744888305664062e+00 -5.516841411590576172e+00 2.086594104766845703e-01
-6.806971549987792969e+00 -4.667541503906250000e+00 8.787462860345840454e-02
-4.116099357604980469e+00 -3.046691656112670898e+00 6.256480701267719269e-03
-1.070480060577392578e+01 -6.179641246795654297e+00 3.642566919326782227e+00
-1.045690441131591797e+01 -6.574077129364013672e+00 3.499845743179321289e+00
-1.067531776428222656e+01 -6.165105342864990234e+00 3.130823850631713867e+00
-1.031864738464355469e+01 -6.482133388519287109e+00 2.963807344436645508e+00
-1.028684520721435547e+01 -6.457148551940917969e+00 2.484284400939941406e+00
-1.028660774230957031e+01 -6.451994895935058594e+00 2.023259401321411133e+00
-1.025018787384033203e+01 -6.424167156219482422e+00 1.566826224327087402e+00
-1.023885154724121094e+01 -6.412085533142089844e+00 1.122840881347656250e+00
-1.018171405792236328e+01 -6.371356010437011719e+00 6.778216958045959473e-01
-9.448364257812500000e+00 -5.443341255187988281e+00 3.236290812492370605e-01
-8.678939819335937500e+00 -5.426758289337158203e+00 2.072625607252120972e-01
-6.934859752655029297e+00 -4.692936897277832031e+00 8.915217965841293335e-02
-4.180738449096679688e+00 -3.055008172988891602e+00 6.326119415462017059e-03
-1.074668502807617188e+01 -6.116213798522949219e+00 3.643980503082275391e+00
-1.076360034942626953e+01 -6.675096511840820312e+00 3.588718652725219727e+00
-1.034501171112060547e+01 -6.410508155822753906e+00 2.960026025772094727e+00
-1.031127834320068359e+01 -6.384624481201171875e+00 2.480677366256713867e+00
-1.032432460784912109e+01 -6.387718200683593750e+00 2.022930860519409180e+00
-1.028941345214843750e+01 -6.361152648925781250e+00 1.566826224327087402e+00
-1.026783752441406250e+01 -6.342860698699951172e+00 1.121730327606201172e+00
-1.022061634063720703e+01 -6.308762073516845703e+00 6.778216958045959473e-01
-9.487669944763183594e+00 -5.388720035552978516e+00 3.238367438316345215e-01
-8.680588722229003906e+00 -5.353983402252197266e+00 2.065134942531585693e-01
-6.981819152832031250e+00 -4.662514209747314453e+00 8.938640356063842773e-02
-4.527863025665283203e+00 -3.266236305236816406e+00 6.820919923484325409e-03
-1.079823303222656250e+01 -6.058136940002441406e+00 3.648786067962646484e+00
-1.025206089019775391e+01 -6.807262897491455078e+00 3.357374191284179688e+00
-1.038415145874023438e+01 -6.346911907196044922e+00 2.960026025772094727e+00
-1.037116241455078125e+01 -6.334001541137695312e+00 2.485687255859375000e+00
-1.039953136444091797e+01 -6.346343994140625000e+00 2.029998302459716797e+00
-1.035449886322021484e+01 -6.313903808593750000e+00 1.570808172225952148e+00
-1.033717441558837891e+01 -6.298390388488769531e+00 1.125061988830566406e+00
-1.028898143768310547e+01 -6.264102935791015625e+00 6.797937750816345215e-01
-9.578991889953613281e+00 -5.363120555877685547e+00 3.258243799209594727e-01
-8.688506126403808594e+00 -5.285551071166992188e+00 2.059264183044433594e-01
-7.039519786834716797e+00 -4.638844013214111328e+00 8.975902199745178223e-02
-4.390604972839355469e+00 -3.126443624496459961e+00 6.585126277059316635e-03
-1.087633228302001953e+01 -6.014511108398437500e+00 3.662636995315551758e+00
-1.028718090057373047e+01 -6.739999294281005859e+00 3.355268478393554688e+00
-1.047033309936523438e+01 -6.311670303344726562e+00 2.973496913909912109e+00
-1.025146389007568359e+01 -6.708929538726806641e+00 2.855550527572631836e+00
-1.042913436889648438e+01 -6.281872749328613281e+00 2.490296363830566406e+00
-1.050842189788818359e+01 -6.324632644653320312e+00 2.043640136718750000e+00
-1.048483085632324219e+01 -6.305449485778808594e+00 1.584680676460266113e+00
-1.042683410644531250e+01 -6.265615940093994141e+00 1.130614638328552246e+00
-1.040939617156982422e+01 -6.250192165374755859e+00 6.852027773857116699e-01
-1.011283874511718750e+01 -6.582970142364501953e+00 5.669399499893188477e-01
-9.611719131469726562e+00 -5.304244041442871094e+00 3.258243799209594727e-01
-8.685623168945312500e+00 -5.211050510406494141e+00 2.050963938236236572e-01
-7.055275917053222656e+00 -4.587386608123779297e+00 8.959932625293731689e-02
-4.625690937042236328e+00 -3.251254081726074219e+00 6.907662842422723770e-03
-1.032591342926025391e+01 -6.675180435180664062e+00 3.354479074478149414e+00
-1.054310798645019531e+01 -6.267663955688476562e+00 2.983186244964599609e+00
-1.028834533691406250e+01 -6.643259525299072266e+00 2.854415416717529297e+00
-1.053234195709228516e+01 -6.256288528442382812e+00 2.505726814270019531e+00
-1.029725551605224609e+01 -6.638831138610839844e+00 2.385954856872558594e+00
-1.026451110839843750e+01 -6.615184307098388672e+00 1.916638016700744629e+00
-1.023161888122558594e+01 -6.581356048583984375e+00 1.461420893669128418e+00
-1.021395015716552734e+01 -6.564951419830322266e+00 1.013173580169677734e+00
-1.014295482635498047e+01 -6.514317512512207031e+00 5.663767457008361816e-01
-9.706428527832031250e+00 -5.279075622558593750e+00 3.279306888580322266e-01
-8.726899147033691406e+00 -5.163258552551269531e+00 2.053190767765045166e-01
-7.233945369720458984e+00 -4.640656471252441406e+00 9.150501340627670288e-02
-4.471365928649902344e+00 -3.101969003677368164e+00 6.648655980825424194e-03
-1.063206577301025391e+01 -6.237561702728271484e+00 3.492757558822631836e+00
-1.036260986328125000e+01 -6.609102249145507812e+00 3.353163003921508789e+00
-1.065345764160156250e+01 -6.245114803314208984e+00 3.003510713577270508e+00
-1.028866672515869141e+01 -6.554367065429687500e+00 2.843292951583862305e+00
-1.029390144348144531e+01 -6.547603607177734375e+00 2.375823736190795898e+00
-1.027656269073486328e+01 -6.534055709838867188e+00 1.911365985870361328e+00
-1.023911476135253906e+01 -6.497704982757568359e+00 1.456769347190856934e+00
-1.023468208312988281e+01 -6.489881515502929688e+00 1.011260986328125000e+00
-1.015995216369628906e+01 -6.437523365020751953e+00 5.651095509529113770e-01
-9.721016883850097656e+00 -5.209974765777587891e+00 3.273373544216156006e-01
-8.773961067199707031e+00 -5.118682861328125000e+00 2.056834846735000610e-01
-7.204827785491943359e+00 -4.559819698333740234e+00 9.078107029199600220e-02
-4.504341602325439453e+00 -3.084079027175903320e+00 6.669424939900636673e-03
-1.067763423919677734e+01 -6.176543712615966797e+00 3.495211362838745117e+00
-1.044624423980712891e+01 -6.572623729705810547e+00 3.367112398147583008e+00
-1.026437282562255859e+01 -6.450693130493164062e+00 2.825587511062622070e+00
-1.031143379211425781e+01 -6.470231533050537109e+00 2.370662689208984375e+00
-1.028465938568115234e+01 -6.450929164886474609e+00 1.905473947525024414e+00
-1.025270271301269531e+01 -6.418424606323242188e+00 1.453071951866149902e+00
-1.025150012969970703e+01 -6.412691593170166016e+00 1.009015798568725586e+00
-1.020095539093017578e+01 -6.376121044158935547e+00 5.652034282684326172e-01
-9.686511039733886719e+00 -5.115222930908203125e+00 3.251123726367950439e-01
-8.786136627197265625e+00 -5.053783416748046875e+00 2.052381038665771484e-01
-7.082537651062011719e+00 -4.421794414520263672e+00 8.889666944742202759e-02
-4.896038532257080078e+00 -3.308328628540039062e+00 7.219204213470220566e-03
-1.073873329162597656e+01 -6.124256134033203125e+00 3.502844572067260742e+00
-1.061015129089355469e+01 -6.585223674774169922e+00 3.406855583190917969e+00
-1.029630947113037109e+01 -6.382971763610839844e+00 2.823544502258300781e+00
-1.032172966003417969e+01 -6.388759136199951172e+00 2.363972425460815430e+00
-1.033664989471435547e+01 -6.395499229431152344e+00 1.907799839973449707e+00
-1.028935813903808594e+01 -6.353828907012939453e+00 1.452714085578918457e+00
-1.026012325286865234e+01 -6.330830097198486328e+00 1.006022214889526367e+00
-1.023818588256835938e+01 -6.312360763549804688e+00 5.651095509529113770e-01
-9.900382041931152344e+00 -5.150724887847900391e+00 3.312236368656158447e-01
-8.791759490966796875e+00 -4.985475540161132812e+00 2.046510130167007446e-01
-7.040568828582763672e+00 -4.335781574249267578e+00 8.803431689739227295e-02
-4.916245937347412109e+00 -3.278224945068359375e+00 7.219204213470220566e-03
-1.080126857757568359e+01 -6.072393894195556641e+00 3.511023044586181641e+00
-1.028750705718994141e+01 -6.833548069000244141e+00 3.246956110000610352e+00
-1.033195781707763672e+01 -6.317642688751220703e+00 2.822636604309082031e+00
-1.037330245971679688e+01 -6.332978248596191406e+00 2.366839647293090820e+00
-1.037401103973388672e+01 -6.330925464630126953e+00 1.907489657402038574e+00
-1.036291694641113281e+01 -6.311750411987304688e+00 1.457604289054870605e+00
-1.030473423004150391e+01 -6.271382808685302734e+00 1.006604313850402832e+00
-1.028355312347412109e+01 -6.253573894500732422e+00 5.654850602149963379e-01
-9.854981422424316406e+00 -6.489374637603759766e+00 4.429862797260284424e-01
-4.211118698120117188e+00 -2.158127307891845703e+00 1.404400020837783813e-01
-8.850111961364746094e+00 -4.947047233581542969e+00 2.052988409996032715e-01
-7.140539646148681641e+00 -4.337143421173095703e+00 8.894990384578704834e-02
-4.937938690185546875e+00 -3.249096870422363281e+00 7.221647538244724274e-03
-1.084505748748779297e+01 -6.009735107421875000e+00 3.513204097747802734e+00
-1.032115459442138672e+01 -6.764994621276855469e+00 3.244413375854492188e+00
-1.041806411743164062e+01 -6.282795906066894531e+00 2.835575103759765625e+00
-1.045737361907958984e+01 -6.296550750732421875e+00 2.377161979675292969e+00
-1.041943168640136719e+01 -6.271227836608886719e+00 1.908730030059814453e+00
-1.043889904022216797e+01 -6.270541191101074219e+00 1.462852120399475098e+00
-1.043615531921386719e+01 -6.263936519622802734e+00 1.015668272972106934e+00
-1.021149539947509766e+01 -6.642275810241699219e+00 9.009830355644226074e-01
-1.041510486602783203e+01 -6.246357917785644531e+00 5.706006288528442383e-01
-9.928132057189941406e+00 -6.450561046600341797e+00 4.444868862628936768e-01
-4.231420040130615234e+00 -2.135851144790649414e+00 1.406773328781127930e-01
-8.941596984863281250e+00 -4.926423072814941406e+00 2.067159414291381836e-01
-7.083809852600097656e+00 -4.243404388427734375e+00 8.791720867156982422e-02
-4.954426765441894531e+00 -3.216558933258056641e+00 7.216760423034429550e-03
-1.055217647552490234e+01 -6.283185482025146484e+00 3.350531101226806641e+00
-1.029344081878662109e+01 -6.656895637512207031e+00 3.222800970077514648e+00
-1.052422046661376953e+01 -6.259077072143554688e+00 2.853961467742919922e+00
-1.029273509979248047e+01 -6.643707752227783203e+00 2.738352298736572266e+00
-1.028818798065185547e+01 -6.628061294555664062e+00 2.263831615447998047e+00
-1.027802276611328125e+01 -6.611363410949707031e+00 1.802430868148803711e+00
-1.026284885406494141e+01 -6.594008445739746094e+00 1.348898410797119141e+00
-1.022184467315673828e+01 -6.560103416442871094e+00 8.983277082443237305e-01
-9.972572326660156250e+00 -6.392757415771484375e+00 4.447119832038879395e-01
-4.231914520263671875e+00 -2.103618383407592773e+00 1.402620077133178711e-01
-8.916303634643554688e+00 -4.841409683227539062e+00 2.054405510425567627e-01
-7.077858448028564453e+00 -4.181041717529296875e+00 8.752329647541046143e-02
-4.968175888061523438e+00 -3.182322978973388672e+00 7.208208087831735611e-03
-1.062380886077880859e+01 -6.237859249114990234e+00 3.361058950424194336e+00
-1.032104778289794922e+01 -6.585288047790527344e+00 3.218732833862304688e+00
-1.060443115234375000e+01 -6.219017028808593750e+00 2.865310907363891602e+00
-1.028144645690917969e+01 -6.547402381896972656e+00 2.724609136581420898e+00
-1.027970027923583984e+01 -6.533689022064208984e+00 2.253099918365478516e+00
-1.025992488861083984e+01 -6.511067867279052734e+00 1.792217135429382324e+00
-1.025190734863281250e+01 -6.498452186584472656e+00 1.342193961143493652e+00
-1.019365406036376953e+01 -6.454047679901123047e+00 8.923531174659729004e-01
-1.008255481719970703e+01 -6.376312732696533203e+00 4.478633403778076172e-01
-4.223195552825927734e+00 -2.067065954208374023e+00 1.395500153303146362e-01
-8.939671516418457031e+00 -4.783307075500488281e+00 2.052988409996032715e-01
-7.487018585205078125e+00 -4.360993862152099609e+00 9.225025027990341187e-02
-4.971546649932861328e+00 -3.141628980636596680e+00 7.184995338320732117e-03
-1.067774677276611328e+01 -6.181739330291748047e+00 3.366059780120849609e+00
-1.036617183685302734e+01 -6.524926662445068359e+00 3.220258474349975586e+00
-1.029002475738525391e+01 -6.464465618133544922e+00 2.716319799423217773e+00
-1.030210113525390625e+01 -6.459520816802978516e+00 2.249280214309692383e+00
-1.028626632690429688e+01 -6.439591884613037109e+00 1.789882540702819824e+00
-1.026967620849609375e+01 -6.421724319458007812e+00 1.339336395263671875e+00
-1.021783924102783203e+01 -6.381870269775390625e+00 8.910254240036010742e-01
-1.015625095367431641e+01 -6.336013793945312500e+00 4.494014978408813477e-01
-1.022120761871337891e+01 -4.925315856933593750e+00 3.367415666580200195e-01
-9.044028282165527344e+00 -4.767996788024902344e+00 2.070196270942687988e-01
-7.373162269592285156e+00 -4.234300136566162109e+00 9.052555263042449951e-02
-4.966119766235351562e+00 -3.095724105834960938e+00 7.149565033614635468e-03
-1.072888183593750000e+01 -6.123757362365722656e+00 3.370270967483520508e+00
-1.042080211639404297e+01 -6.470380783081054688e+00 3.224835157394409180e+00
-1.028304195404052734e+01 -6.372417926788330078e+00 2.704103708267211914e+00
-1.032816123962402344e+01 -6.387910842895507812e+00 2.246369838714599609e+00
-1.031632614135742188e+01 -6.370637893676757812e+00 1.788277506828308105e+00
-1.032072925567626953e+01 -6.365894794464111328e+00 1.340875148773193359e+00
-1.027548408508300781e+01 -6.330562114715576172e+00 8.926481604576110840e-01
-1.013621330261230469e+01 -6.237440586090087891e+00 4.468128979206085205e-01
-1.028736114501953125e+01 -4.879642009735107422e+00 3.379282057285308838e-01
-9.054481506347656250e+00 -4.702736377716064453e+00 2.065944969654083252e-01
-7.354626655578613281e+00 -4.163854598999023438e+00 8.998259902000427246e-02
-4.980762004852294922e+00 -3.062575340270996094e+00 7.143456488847732544e-03
-1.078138923645019531e+01 -6.066326618194580078e+00 3.375008583068847656e+00
-1.054773044586181641e+01 -6.459859848022460938e+00 3.251787185668945312e+00
-1.031445503234863281e+01 -6.304621696472167969e+00 2.702140569686889648e+00
-1.036212635040283203e+01 -6.321345806121826172e+00 2.245278596878051758e+00
-1.038141345977783203e+01 -6.323171615600585938e+00 1.792800784111022949e+00
-1.036044406890869141e+01 -6.302964687347412109e+00 1.340984940528869629e+00
-1.032691860198974609e+01 -6.275162220001220703e+00 8.937545418739318848e-01
-1.020077705383300781e+01 -6.191201210021972656e+00 4.479758739471435547e-01
-1.030805110931396484e+01 -4.812200069427490234e+00 3.376315534114837646e-01
-4.233173370361328125e+00 -2.165758132934570312e+00 9.628254175186157227e-02
-7.274383068084716797e+00 -4.059685707092285156e+00 8.869438618421554565e-02
-4.983213901519775391e+00 -3.022103786468505859e+00 7.120243739336729050e-03
-1.049527931213378906e+01 -6.339514255523681641e+00 3.223563909530639648e+00
-1.039139080047607422e+01 -6.264391422271728516e+00 2.712175130844116211e+00
-1.048581790924072266e+01 -6.308846950531005859e+00 2.263649702072143555e+00
-1.047005176544189453e+01 -6.289409637451171875e+00 1.801409482955932617e+00
-1.046966457366943359e+01 -6.281719684600830078e+00 1.350107312202453613e+00
-1.045248126983642578e+01 -6.263968944549560547e+00 9.012781381607055664e-01
-4.245999813079833984e+00 -2.141409158706665039e+00 2.683677971363067627e-01
-1.032088661193847656e+01 -6.177763938903808594e+00 4.515773952007293701e-01
-1.039460659027099609e+01 -4.775147438049316406e+00 3.395005166530609131e-01
-4.243704319000244141e+00 -2.138393640518188477e+00 9.622181206941604614e-02
-7.588283538818359375e+00 -4.174012184143066406e+00 9.220767021179199219e-02
-4.860916614532470703e+00 -2.907290458679199219e+00 6.919879931956529617e-03
-1.054395103454589844e+01 -6.280936241149902344e+00 3.226614952087402344e+00
-1.049087047576904297e+01 -6.236919403076171875e+00 2.728099584579467773e+00
-4.240281105041503906e+00 -2.105989456176757812e+00 2.671845853328704834e-01
-1.034052658081054688e+01 -6.103652954101562500e+00 4.507895708084106445e-01
-1.073613071441650391e+01 -4.852484226226806641e+00 3.496760427951812744e-01
-4.246893882751464844e+00 -2.107425689697265625e+00 9.599912166595458984e-02
-7.529360294342041016e+00 -4.081624031066894531e+00 9.118562936782836914e-02
-4.902781963348388672e+00 -2.891634464263916016e+00 6.954088807106018066e-03
-1.061731624603271484e+01 -6.236695289611816406e+00 3.237293958663940430e+00
-1.015409469604492188e+01 -5.909898281097412109e+00 4.410729706287384033e-01
-1.061499977111816406e+01 -4.719513416290283203e+00 3.447811007499694824e-01
-4.291185379028320312e+00 -2.096689701080322266e+00 9.670767933130264282e-02
-7.384038448333740234e+00 -3.944417476654052734e+00 8.913089334964752197e-02
-5.085541725158691406e+00 -2.957517147064208984e+00 7.187439128756523132e-03
-1.068049144744873047e+01 -6.185973167419433594e+00 3.244922161102294922e+00
-1.086355686187744141e+01 -4.750405788421630859e+00 3.519009947776794434e-01
-9.579193115234375000e+00 -4.607838153839111328e+00 2.152388691902160645e-01
-7.465617656707763672e+00 -3.929307460784912109e+00 8.982289582490921021e-02
-5.170391559600830078e+00 -2.964557647705078125e+00 7.281512487679719925e-03
-1.075519943237304688e+01 -6.141423225402832031e+00 3.256109714508056641e+00
-1.121481227874755859e+01 -4.822249412536621094e+00 3.623138368129730225e-01
-9.649756431579589844e+00 -4.569083690643310547e+00 2.161903530359268188e-01
-4.214834690093994141e+00 -2.185433626174926758e+00 5.054866895079612732e-02
-4.867250919342041016e+00 -2.751200437545776367e+00 6.830693688243627548e-03
-4.302656173706054688e+00 -2.200418472290039062e+00 2.270575612783432007e-01
-1.039032554626464844e+01 -5.794023036956787109e+00 4.466252923011779785e-01
-1.089893722534179688e+01 -4.607394218444824219e+00 3.511890172958374023e-01
-9.786356925964355469e+00 -4.560464382171630859e+00 2.186196893453598022e-01
-4.212135314941406250e+00 -2.151343584060668945e+00 5.035703256726264954e-02
-4.891902446746826172e+00 -2.725664377212524414e+00 6.841689348220825195e-03
-4.270578384399414062e+00 -2.151059389114379883e+00 2.246640175580978394e-01
-1.044757461547851562e+01 -5.742192745208740234e+00 4.475631713867187500e-01
-1.072024059295654297e+01 -4.454518318176269531e+00 3.445437550544738770e-01
-9.845963478088378906e+00 -4.514916419982910156e+00 2.193282395601272583e-01
-4.229722976684570312e+00 -2.127704858779907227e+00 5.041026696562767029e-02
-5.104876041412353516e+00 -2.803420782089233398e+00 7.115357089787721634e-03
-4.229110240936279297e+00 -2.097738981246948242e+00 2.218011766672134399e-01
-9.869835853576660156e+00 -4.452773094177246094e+00 2.192472666501998901e-01
-4.248075008392333984e+00 -2.104374885559082031e+00 5.047414451837539673e-02
-5.208168983459472656e+00 -2.818690061569213867e+00 7.235086522996425629e-03
-1.015559101104736328e+01 -4.506900310516357422e+00 2.249764353036880493e-01
-4.247426509857177734e+00 -2.071694374084472656e+00 5.031445249915122986e-02
-4.969480037689208984e+00 -2.650216817855834961e+00 6.880784872919321060e-03
-1.025452613830566406e+01 -4.475697040557861328e+00 2.265555113554000854e-01
-7.715157508850097656e+00 -3.704662322998046875e+00 9.112174808979034424e-02
-4.943156242370605469e+00 -2.597347736358642578e+00 6.822141353040933609e-03
-1.030752086639404297e+01 -4.423732757568359375e+00 2.271223515272140503e-01
-7.803739070892333984e+00 -3.688446044921875000e+00 9.189892560243606567e-02
-4.264527320861816406e+00 -2.207482337951660156e+00 5.866748280823230743e-03
-4.207465648651123047e+00 -2.147164821624755859e+00 1.773370653390884399e-01
-1.049198722839355469e+01 -4.426865100860595703e+00 2.305841296911239624e-01
-7.784518241882324219e+00 -3.621093750000000000e+00 9.140919893980026245e-02
-4.224539279937744141e+00 -2.154019594192504883e+00 5.793444812297821045e-03
-4.247346878051757812e+00 -2.134770870208740234e+00 1.784625500440597534e-01
-1.065471172332763672e+01 -4.418705463409423828e+00 2.335600703954696655e-01
-7.875691890716552734e+00 -3.604889869689941406e+00 9.221832454204559326e-02
-4.245719432830810547e+00 -2.132096767425537109e+00 5.804440472275018692e-03
-4.248723030090332031e+00 -2.102906942367553711e+00 1.779748499393463135e-01
-1.077698707580566406e+01 -4.392110824584960938e+00 2.356452494859695435e-01
-7.493753433227539062e+00 -3.374608039855957031e+00 8.750201016664505005e-02
-4.256032466888427734e+00 -2.104675531387329102e+00 5.800775252282619476e-03
-1.076939201354980469e+01 -4.312151432037353516e+00 2.348962128162384033e-01
-7.530774593353271484e+00 -3.335853338241577148e+00 8.769363909959793091e-02
-4.261673927307128906e+00 -2.075019359588623047e+00 5.791001487523317337e-03
-1.085426425933837891e+01 -4.269044399261474609e+00 2.361716032028198242e-01
-7.560268878936767578e+00 -3.293576240539550781e+00 8.780010044574737549e-02
-5.314952373504638672e+00 -2.547639131546020508e+00 7.200877647846937180e-03
-1.108450317382812500e+01 -4.281252384185791016e+00 2.406051307916641235e-01
-7.639162063598632812e+00 -3.272324323654174805e+00 8.848147094249725342e-02
-5.348572731018066406e+00 -2.523513555526733398e+00 7.225312758237123489e-03
-1.114141368865966797e+01 -4.224856853485107422e+00 2.412731945514678955e-01
-7.941094398498535156e+00 -3.344144344329833984e+00 9.173923730850219727e-02
-5.388444900512695312e+00 -2.502018690109252930e+00 7.258299738168716431e-03
-1.143323516845703125e+01 -4.255460262298583984e+00 2.470226287841796875e-01
-7.997497081756591797e+00 -3.310270071029663086e+00 9.215443581342697144e-02
-5.417338848114013672e+00 -2.475142240524291992e+00 7.276625372469425201e-03
-1.185825634002685547e+01 -4.331000328063964844e+00 2.556264996528625488e-01
-8.068602561950683594e+00 -3.281857252120971680e+00 9.273998439311981201e-02
-5.021070003509521484e+00 -2.256953239440917969e+00 6.725624669343233109e-03
-1.188084220886230469e+01 -4.256808757781982422e+00 2.555455267429351807e-01
-8.165657043457031250e+00 -3.263085365295410156e+00 9.362363070249557495e-02
-5.087870121002197266e+00 -2.249556064605712891e+00 6.796485278755426407e-03
-1.204728317260742188e+01 -4.233214378356933594e+00 2.585619390010833740e-01
-7.842056751251220703e+00 -3.078104734420776367e+00 8.969514071941375732e-02
-5.173107624053955078e+00 -2.249398469924926758e+00 6.891780067235231400e-03
-1.363367748260498047e+01 -4.696863651275634766e+00 2.919855117797851562e-01
-7.885988235473632812e+00 -3.039639234542846680e+00 8.998259902000427246e-02
-5.151871681213378906e+00 -2.202675580978393555e+00 6.845354568213224411e-03
-1.470043087005615234e+01 -4.963670730590820312e+00 3.141734302043914795e-01
-8.187862396240234375e+00 -3.098427057266235352e+00 9.320842474699020386e-02
-5.168977737426757812e+00 -2.172572851181030273e+00 6.850241683423519135e-03
-1.461670684814453125e+01 -4.835693836212158203e+00 3.117440938949584961e-01
-7.764278411865234375e+00 -2.883798122406005859e+00 8.818336576223373413e-02
-5.450240612030029297e+00 -2.251540899276733398e+00 7.204543333500623703e-03
-1.235678672790527344e+01 -4.004087448120117188e+00 2.630157172679901123e-01
-8.377467155456542969e+00 -3.053185224533081055e+00 9.493312984704971313e-02
-5.212854385375976562e+00 -2.116124629974365234e+00 6.873454432934522629e-03
-1.389350318908691406e+01 -4.408029556274414062e+00 2.951436340808868408e-01
-8.458187103271484375e+00 -3.023942232131958008e+00 9.563578665256500244e-02
-5.491393089294433594e+00 -2.190045118331909180e+00 7.222868967801332474e-03
-1.497440719604492188e+01 -4.650035381317138672e+00 3.174934983253479004e-01
-8.288801193237304688e+00 -2.906148433685302734e+00 9.351716935634613037e-02
-5.398581027984619141e+00 -2.114729642868041992e+00 7.083592005074024200e-03
-8.356595993041992188e+00 -2.872462272644042969e+00 9.408142417669296265e-02
-5.540254592895507812e+00 -2.131108760833740234e+00 7.252190727740526199e-03
-7.916365623474121094e+00 -2.666939496994018555e+00 8.893924951553344727e-02
-5.507386207580566406e+00 -2.079763412475585938e+00 7.192325778305530548e-03
-8.351333618164062500e+00 -2.756533861160278320e+00 9.363427013158798218e-02
-5.569739818572998047e+00 -2.064350843429565430e+00 7.257077377289533615e-03
-8.525081634521484375e+00 -2.755991220474243164e+00 9.539091587066650391e-02
-5.567265510559082031e+00 -2.024668455123901367e+00 7.237529847770929337e-03
-8.548504829406738281e+00 -2.705742597579956055e+00 9.546543657779693604e-02
-5.790560722351074219e+00 -2.065734386444091797e+00 7.511197589337825775e-03
-8.546797752380371094e+00 -2.647617101669311523e+00 9.526316076517105103e-02
-5.842770576477050781e+00 -2.044034481048583984e+00 7.562509737908840179e-03
-8.530345916748046875e+00 -2.585264444351196289e+00 9.490118920803070068e-02
-5.047392845153808594e+00 -1.731092810630798340e+00 6.519152782857418060e-03
-8.526873588562011719e+00 -2.527191638946533203e+00 9.468825906515121460e-02
-5.939453601837158203e+00 -1.996394872665405273e+00 7.655361667275428772e-03
-8.754479408264160156e+00 -2.536319255828857422e+00 9.704110026359558105e-02
-5.892702579498291016e+00 -1.940520882606506348e+00 7.579614408314228058e-03
-8.671738624572753906e+00 -2.454774379730224609e+00 9.595517069101333618e-02
-5.823601722717285156e+00 -1.878236532211303711e+00 7.475767284631729126e-03
-8.721334457397460938e+00 -2.411111593246459961e+00 9.633844345808029175e-02
-5.963751316070556641e+00 -1.883117437362670898e+00 7.640700787305831909e-03
-8.858571052551269531e+00 -2.390640497207641602e+00 9.769052267074584961e-02
-5.978060245513916016e+00 -1.847374916076660156e+00 7.644366007298231125e-03
-8.649699211120605469e+00 -2.277426958084106445e+00 9.523122757673263550e-02
-6.006512165069580078e+00 -1.815868258476257324e+00 7.666356861591339111e-03
-8.883366584777832031e+00 -2.280757665634155273e+00 9.764794260263442993e-02
-6.003156661987304688e+00 -1.774726271629333496e+00 7.648031227290630341e-03
-8.815710067749023438e+00 -2.205818891525268555e+00 9.675364196300506592e-02
-5.963977336883544922e+00 -1.723422288894653320e+00 7.584501057863235474e-03
-9.013666152954101562e+00 -2.196670055389404297e+00 9.877644479274749756e-02
-5.862803936004638672e+00 -1.655277013778686523e+00 7.442780770361423492e-03
-9.122323036193847656e+00 -2.163939714431762695e+00 9.981977939605712891e-02
-5.647267818450927734e+00 -1.557074308395385742e+00 7.156895473599433899e-03
-9.151019096374511719e+00 -2.111522674560546875e+00 9.999012202024459839e-02
-5.929026126861572266e+00 -1.595681071281433105e+00 7.501423824578523636e-03
-9.161850929260253906e+00 -2.054895639419555664e+00 9.996882826089859009e-02
-6.025754928588867188e+00 -1.582126975059509277e+00 7.611379493027925491e-03
-9.314979553222656250e+00 -2.029290914535522461e+00 1.015018969774246216e-01
-6.141911983489990234e+00 -1.572405219078063965e+00 7.745769340544939041e-03
-9.272470474243164062e+00 -1.960513591766357422e+00 1.009057089686393738e-01
-6.055388927459716797e+00 -1.510725259780883789e+00 7.624818012118339539e-03
-9.353874206542968750e+00 -1.917841672897338867e+00 1.016615927219390869e-01
-5.564105510711669922e+00 -1.351946711540222168e+00 6.995627190917730331e-03
-9.419407844543457031e+00 -1.871126770973205566e+00 1.022471338510513306e-01
-5.583974361419677734e+00 -1.320542216300964355e+00 7.010288070887327194e-03
-9.460170745849609375e+00 -1.818959474563598633e+00 1.025665327906608582e-01
-6.024672031402587891e+00 -1.385783672332763672e+00 7.552735973149538040e-03
-9.582243919372558594e+00 -1.781532526016235352e+00 1.037695631384849548e-01
-5.818362236022949219e+00 -1.300791263580322266e+00 7.283955812454223633e-03
-9.687478065490722656e+00 -1.739670634269714355e+00 1.047916039824485779e-01
-5.755873680114746094e+00 -1.249788403511047363e+00 7.195990998297929764e-03
-9.730483055114746094e+00 -1.685829639434814453e+00 1.051429361104965210e-01
-6.041331291198730469e+00 -1.273004889488220215e+00 7.542962208390235901e-03
-9.729795455932617188e+00 -1.624281764030456543e+00 1.050258278846740723e-01
-6.319441795349121094e+00 -1.291161775588989258e+00 7.880159653723239899e-03
-9.668493270874023438e+00 -1.553131222724914551e+00 1.042592898011207581e-01
-6.325283527374267578e+00 -1.251973748207092285e+00 7.877716794610023499e-03
-9.588899612426757812e+00 -1.480049014091491699e+00 1.033011227846145630e-01
-5.949810981750488281e+00 -1.139763593673706055e+00 7.401241455227136612e-03
-9.599779129028320312e+00 -1.421477913856506348e+00 1.033224239945411682e-01
-6.125816345214843750e+00 -1.134558081626892090e+00 7.611379493027925491e-03
-9.633071899414062500e+00 -1.366057872772216797e+00 1.035885736346244812e-01
-6.533303260803222656e+00 -1.168612003326416016e+00 8.108623325824737549e-03
-1.011094951629638672e+01 -1.370591878890991211e+00 1.086349263787269592e-01
-6.359030246734619141e+00 -1.097216606140136719e+00 7.883825339376926422e-03
-9.723485946655273438e+00 -1.257360100746154785e+00 1.043870449066162109e-01
-6.343940734863281250e+00 -1.054570078849792480e+00 7.856947369873523712e-03
-1.033740806579589844e+01 -1.272307515144348145e+00 1.108919382095336914e-01
-6.442124843597412109e+00 -1.030311703681945801e+00 7.970567792654037476e-03
-9.977540969848632812e+00 -1.165913105010986328e+00 1.069528087973594666e-01
-6.116222858428955078e+00 -9.397376775741577148e-01 7.560066413134336472e-03
-1.030851268768310547e+01 -1.140517473220825195e+00 1.104235053062438965e-01
-6.479016304016113281e+00 -9.548242092132568359e-01 8.001111447811126709e-03
-1.056494426727294922e+01 -1.103313207626342773e+00 1.130957230925559998e-01
-6.567928791046142578e+00 -9.267885684967041016e-01 8.103736676275730133e-03
-1.036253261566162109e+01 -1.017938256263732910e+00 1.108599975705146790e-01
-6.382223606109619141e+00 -8.606774806976318359e-01 7.867942564189434052e-03
-1.037754631042480469e+01 -9.551607370376586914e-01 1.109558269381523132e-01
-6.604595184326171875e+00 -8.494368195533752441e-01 8.135501295328140259e-03
-1.080662918090820312e+01 -9.278205037117004395e-01 1.154804974794387817e-01
-6.607697963714599609e+00 -8.086528778076171875e-01 8.133058436214923859e-03
-1.093970680236816406e+01 -8.716608881950378418e-01 1.168432235717773438e-01
-6.609555244445800781e+00 -7.677474021911621094e-01 8.129392750561237335e-03
-1.124302768707275391e+01 -8.264378309249877930e-01 1.200264692306518555e-01
-6.631039619445800781e+00 -7.290353178977966309e-01 8.150162175297737122e-03
-1.107828044891357422e+01 -7.460150122642517090e-01 1.182165965437889099e-01
-6.230560779571533203e+00 -6.463388204574584961e-01 7.652918342500925064e-03
-1.109861946105957031e+01 -6.790029406547546387e-01 1.183869466185569763e-01
-6.227442741394042969e+00 -6.074171066284179688e-01 7.644366007298231125e-03
-1.110756969451904297e+01 -6.111649870872497559e-01 1.184401810169219971e-01
-6.470057010650634766e+00 -5.910273790359497070e-01 7.937581278383731842e-03
-1.085043525695800781e+01 -5.302595496177673340e-01 1.156614869832992554e-01
-6.749562263488769531e+00 -5.748221278190612793e-01 8.276000618934631348e-03
-1.114120578765869141e+01 -4.759643375873565674e-01 1.187276244163513184e-01
-6.769909381866455078e+00 -5.347354412078857422e-01 8.296770043671131134e-03
-1.156061458587646484e+01 -4.228351414203643799e-01 1.231671348214149475e-01
-6.737157821655273438e+00 -4.905714988708496094e-01 8.252787403762340546e-03
-1.158697891235351562e+01 -3.526225984096527100e-01 1.234226450324058533e-01
-5.970748901367187500e+00 -3.979505002498626709e-01 7.310833781957626343e-03
-1.161291599273681641e+01 -2.821024060249328613e-01 1.236781552433967590e-01
-6.769621849060058594e+00 -4.094895422458648682e-01 8.285774849355220795e-03
-1.176139640808105469e+01 -2.135095447301864624e-01 1.252431720495223999e-01
-6.697117328643798828e+00 -3.638752102851867676e-01 8.194144815206527710e-03
-8.315221786499023438e+00 5.015251636505126953e-01 2.472385019063949585e-01
-1.216043376922607422e+01 -1.461207270622253418e-01 1.294803917407989502e-01
-6.694229602813720703e+00 -3.225350081920623779e-01 8.188035339117050171e-03
-8.321961402893066406e+00 5.532000064849853516e-01 2.475351691246032715e-01
-1.225709342956542969e+01 -7.206736505031585693e-02 1.305024325847625732e-01
-6.917886734008789062e+00 -2.907769083976745605e-01 8.459259755909442902e-03
-1.227930450439453125e+01 3.147741314023733139e-03 1.307366639375686646e-01
-6.339914321899414062e+00 -2.275228202342987061e-01 7.750656455755233765e-03
-1.203607273101806641e+01 7.693885266780853271e-02 1.281496137380599976e-01
-6.961915969848632812e+00 -2.070809006690979004e-01 8.509350940585136414e-03
-1.228833961486816406e+01 1.539587378501892090e-01 1.308431327342987061e-01
-6.979051113128662109e+00 -1.647370606660842896e-01 8.528898470103740692e-03
-1.270406723022460938e+01 2.371377050876617432e-01 1.352826356887817383e-01
-6.992928504943847656e+00 -1.221383288502693176e-01 8.544781245291233063e-03
-8.315833091735839844e+00 5.072979331016540527e-01 1.686968952417373657e-01
