-8.331830501556396484e-01 2.916337251663208008e+00 5.358951687812805176e-01
-8.987255096435546875e-01 2.760356426239013672e+00 4.837085604667663574e-01
-8.486338853836059570e-01 2.972383022308349609e+00 4.305830299854278564e-01
-8.915587067604064941e-01 2.741595029830932617e+00 3.734025061130523682e-01
-8.565056920051574707e-01 3.003926038742065430e+00 3.200427889823913574e-01
-9.074137806892395020e-01 2.793665647506713867e+00 2.730059027671813965e-01
-8.646331429481506348e-01 3.036449670791625977e+00 2.080375701189041138e-01
-8.950346112251281738e-01 2.758831024169921875e+00 1.636801511049270630e-01
-1.013557910919189453e+00 2.776525974273681641e+00 1.388721168041229248e-01
-8.738033175468444824e-01 3.070688247680664062e+00 9.475398808717727661e-02
-9.011662602424621582e-01 2.781037807464599609e+00 5.919473245739936829e-02
-9.957006573677062988e-01 2.732048034667968750e+00 3.095946460962295532e-02
-7.936386466026306152e-01 2.845789670944213867e+00 8.706430792808532715e-01
-8.977844715118408203e-01 2.805890083312988281e+00 8.347505331039428711e-01
-1.025492668151855469e+00 2.837097883224487305e+00 8.230251669883728027e-01
-7.982587218284606934e-01 2.860426902770996094e+00 7.542137503623962402e-01
-9.210877418518066406e-01 2.882186889648437500e+00 7.359297871589660645e-01
-1.006286740303039551e+00 2.788529396057128906e+00 6.909614801406860352e-01
-8.133718967437744141e-01 2.912618875503540039e+00 6.494058966636657715e-01
-8.874789476394653320e-01 2.780367851257324219e+00 5.969737172126770020e-01
-9.976114034652709961e-01 2.770545482635498047e+00 5.734549760818481445e-01
-8.144789338111877441e-01 2.918549299240112305e+00 5.353732109069824219e-01
-8.820710182189941406e-01 2.766758918762207031e+00 4.838729500770568848e-01
-9.948760867118835449e-01 2.764462709426879883e+00 4.611343145370483398e-01
-8.330402970314025879e-01 2.987074375152587891e+00 4.319626390933990479e-01
-8.735162615776062012e-01 2.743234157562255859e+00 3.728887140750885010e-01
-8.383247256278991699e-01 3.010083198547363281e+00 3.201447129249572754e-01
-8.929711580276489258e-01 2.807720899581909180e+00 2.738388180732727051e-01
-9.957880973815917969e-01 2.777643203735351562e+00 2.462251335382461548e-01
-8.441138863563537598e-01 3.034968376159667969e+00 2.075773179531097412e-01
-8.786943554878234863e-01 2.766173839569091797e+00 1.637928187847137451e-01
-9.941449761390686035e-01 2.776109933853149414e+00 1.385435909032821655e-01
-8.557484745979309082e-01 3.078881263732910156e+00 9.484299272298812866e-02
-8.849922418594360352e-01 2.789373874664306641e+00 5.925546586513519287e-02
-9.762253165245056152e-01 2.730573415756225586e+00 3.087429143488407135e-02
-7.776742577552795410e-01 2.856158971786499023e+00 8.723391294479370117e-01
-8.799757957458496094e-01 2.809509754180908203e+00 8.342053294181823730e-01
-1.009677171707153320e+00 2.847883224487304688e+00 8.243411779403686523e-01
-7.738130092620849609e-01 2.840022325515747070e+00 7.475675940513610840e-01
-9.100580811500549316e-01 2.909113407135009766e+00 7.413653731346130371e-01
-9.885077476501464844e-01 2.792815208435058594e+00 6.905074715614318848e-01
-7.996001243591308594e-01 2.932647228240966797e+00 6.527652740478515625e-01
-8.774145841598510742e-01 2.808204174041748047e+00 6.017832159996032715e-01
-9.815734624862670898e-01 2.779391288757324219e+00 5.740284323692321777e-01
-7.975912094116210938e-01 2.927292108535766602e+00 5.360691547393798828e-01
-8.694854974746704102e-01 2.786243200302124023e+00 4.863383173942565918e-01
-9.772372841835021973e-01 2.768651962280273438e+00 4.608241915702819824e-01
-8.120942711830139160e-01 2.982573032379150391e+00 4.305830299854278564e-01
-8.602088093757629395e-01 2.759903907775878906e+00 3.744301199913024902e-01
-9.793815612792968750e-01 2.782460927963256836e+00 3.543525338172912598e-01
-8.143581748008728027e-01 2.995011568069458008e+00 3.180043101310729980e-01
-8.748386502265930176e-01 2.810295104980468750e+00 2.735611796379089355e-01
-9.721152782440185547e-01 2.764898538589477539e+00 2.445620149374008179e-01
-8.223381638526916504e-01 3.028535127639770508e+00 2.067883014678955078e-01
-8.679298162460327148e-01 2.791534662246704102e+00 1.649760603904724121e-01
-9.777544140815734863e-01 2.784042596817016602e+00 1.386374682188034058e-01
-8.376259207725524902e-01 3.086967945098876953e+00 9.493198245763778687e-02
-8.740868568420410156e-01 2.814802885055541992e+00 5.968060344457626343e-02
-9.630917906761169434e-01 2.746892213821411133e+00 3.099140338599681854e-02
-7.690019607543945312e-01 2.894250869750976562e+00 8.825154900550842285e-01
-8.635662198066711426e-01 2.817615985870361328e+00 8.350231647491455078e-01
-9.953517913818359375e-01 2.863137245178222656e+00 8.269731998443603516e-01
-1.094887852668762207e+00 2.809736490249633789e+00 7.927963137626647949e-01
-7.608553171157836914e-01 2.861577033996582031e+00 7.519983053207397461e-01
-8.944662213325500488e-01 2.922075748443603516e+00 7.432560324668884277e-01
-9.739072918891906738e-01 2.806188583374023438e+00 6.923234462738037109e-01
-7.848588228225708008e-01 2.949781179428100586e+00 6.554947495460510254e-01
-8.658959269523620605e-01 2.832273244857788086e+00 6.057910919189453125e-01
-9.612891077995300293e-01 2.776086330413818359e+00 5.721168518066406250e-01
-7.796146869659423828e-01 2.932131052017211914e+00 5.360691547393798828e-01
-8.552536964416503906e-01 2.800959825515747070e+00 4.879819154739379883e-01
-9.569998383522033691e-01 2.765260219573974609e+00 4.592736363410949707e-01
-7.953042984008789062e-01 2.993243217468261719e+00 4.314107894897460938e-01
-8.502009510993957520e-01 2.787895917892456055e+00 3.775129020214080811e-01
-9.593751430511474609e-01 2.779970884323120117e+00 3.532790839672088623e-01
-7.936697006225585938e-01 2.991298198699951172e+00 3.170869946479797363e-01
-8.601895570755004883e-01 2.824182748794555664e+00 2.743940651416778564e-01
-9.564309716224670410e-01 2.774579763412475586e+00 2.448946386575698853e-01
-8.045065999031066895e-01 3.036417484283447266e+00 2.069855630397796631e-01
-8.592114448547363281e-01 2.824508428573608398e+00 1.666100472211837769e-01
-9.567509889602661133e-01 2.778655767440795898e+00 1.380742788314819336e-01
-8.150872588157653809e-01 3.078521728515625000e+00 9.451665729284286499e-02
-8.536020517349243164e-01 2.809590339660644531e+00 5.945790931582450867e-02
-9.465440511703491211e-01 2.753695487976074219e+00 3.100204840302467346e-02
-7.550787329673767090e-01 2.913771629333496094e+00 8.870382905006408691e-01
-8.459850549697875977e-01 2.821939945220947266e+00 8.347505331039428711e-01
-9.656286835670471191e-01 2.833576917648315430e+00 8.167083859443664551e-01
-1.078318357467651367e+00 2.818208217620849609e+00 7.933048605918884277e-01
-7.454723715782165527e-01 2.874635457992553711e+00 7.542137503623962402e-01
-8.670439720153808594e-01 2.895860195159912109e+00 7.352207899093627930e-01
-9.569841623306274414e-01 2.813033342361450195e+00 6.925504207611083984e-01
-7.701828479766845703e-01 2.967790365219116211e+00 6.584341526031494141e-01
-8.543954491615295410e-01 2.857244491577148438e+00 6.099993586540222168e-01
-9.426598548889160156e-01 2.777285099029541016e+00 5.711610913276672363e-01
-7.603728175163269043e-01 2.932093381881713867e+00 5.351992249488830566e-01
-8.592212796211242676e-01 2.877041339874267578e+00 5.003088712692260742e-01
-9.371582865715026855e-01 2.762660264968872070e+00 4.578781425952911377e-01
-7.759292721748352051e-01 2.994231939315795898e+00 4.308589696884155273e-01
-8.719123005867004395e-01 2.923257350921630859e+00 3.951104879379272461e-01
-9.378457665443420410e-01 2.772638082504272461e+00 3.516093194484710693e-01
-7.755497694015502930e-01 2.997075080871582031e+00 3.171889185905456543e-01
-8.522252440452575684e-01 2.860898494720458984e+00 2.774480283260345459e-01
-9.416212439537048340e-01 2.787004709243774414e+00 2.454767227172851562e-01
-7.861099839210510254e-01 3.042262792587280273e+00 2.070513069629669189e-01
-9.050682783126831055e-01 3.042171955108642578e+00 1.791184693574905396e-01
-9.390445947647094727e-01 2.782581090927124023e+00 1.379804015159606934e-01
-7.899349927902221680e-01 3.059269666671752930e+00 9.377500414848327637e-02
-8.995639085769653320e-01 3.027536392211914062e+00 6.395217776298522949e-02
-9.254797697067260742e-01 2.747132539749145508e+00 3.086364641785621643e-02
-7.395351529121398926e-01 2.927649736404418945e+00 8.898651003837585449e-01
-8.254066109657287598e-01 2.815998554229736328e+00 8.314791917800903320e-01
-9.442514181137084961e-01 2.827552795410156250e+00 8.132867813110351562e-01
-1.052844285964965820e+00 2.803042650222778320e+00 7.872025370597839355e-01
-7.301952838897705078e-01 2.888552188873291016e+00 7.566752433776855469e-01
-8.473480939865112305e-01 2.894598007202148438e+00 7.335665225982666016e-01
-9.397056698799133301e-01 2.818852424621582031e+00 6.925504207611083984e-01
-1.042818069458007812e+00 2.783726930618286133e+00 6.644643545150756836e-01
-7.512390017509460449e-01 2.969616651535034180e+00 6.578042507171630859e-01
-8.390469551086425781e-01 2.869956016540527344e+00 6.116024851799011230e-01
-9.237424135208129883e-01 2.777428388595581055e+00 5.700141787528991699e-01
-7.399541139602661133e-01 2.927156686782836914e+00 5.334593057632446289e-01
-8.611807823181152344e-01 2.949486732482910156e+00 5.119783282279968262e-01
-9.208124876022338867e-01 2.770233631134033203e+00 4.581882655620574951e-01
-7.556018829345703125e-01 2.991254329681396484e+00 4.297552704811096191e-01
-8.667296171188354492e-01 2.972347259521484375e+00 4.010191559791564941e-01
-9.233142733573913574e-01 2.785879850387573242e+00 3.525634706020355225e-01
-7.551990747451782227e-01 2.994060516357421875e+00 3.163735270500183105e-01
-8.753020167350769043e-01 3.005648851394653320e+00 2.909595072269439697e-01
-9.254423379898071289e-01 2.795568227767944336e+00 2.457261979579925537e-01
-7.664533853530883789e-01 3.043158531188964844e+00 2.067883014678955078e-01
-8.894519209861755371e-01 3.058213472366333008e+00 1.797382533550262451e-01
-9.219533205032348633e-01 2.788290500640869141e+00 1.379804015159606934e-01
-7.755399942398071289e-01 3.081506967544555664e+00 9.430899471044540405e-02
-8.974240422248840332e-01 3.089645862579345703e+00 6.514660269021987915e-02
-9.142478108406066895e-01 2.769851207733154297e+00 3.105527907609939575e-02
-7.208698987960815430e-01 2.929338216781616211e+00 8.890170454978942871e-01
-8.094371557235717773e-01 2.825634479522705078e+00 8.328422307968139648e-01
-9.226846098899841309e-01 2.820456504821777344e+00 8.096020221710205078e-01
-1.042315363883972168e+00 2.827599048614501953e+00 7.922878265380859375e-01
-7.157024741172790527e-01 2.906153678894042969e+00 7.601214051246643066e-01
-8.341146111488342285e-01 2.915624141693115234e+00 7.375841140747070312e-01
-9.278337359428405762e-01 2.841229438781738281e+00 6.966362595558166504e-01
-1.027064681053161621e+00 2.793736934661865234e+00 6.653369069099426270e-01
-7.301960587501525879e-01 2.962778568267822266e+00 6.552847623825073242e-01
-8.265351057052612305e-01 2.892948627471923828e+00 6.154099702835083008e-01
-9.051628112792968750e-01 2.778377771377563477e+00 5.690584778785705566e-01
-7.224503755569458008e-01 2.933554172515869141e+00 5.338072776794433594e-01
-8.330528140068054199e-01 2.919619083404541016e+00 5.058970451354980469e-01
-9.056324958801269531e-01 2.781467676162719727e+00 4.591186046600341797e-01
-7.343935966491699219e-01 2.984293222427368164e+00 4.280996918678283691e-01
-8.533672094345092773e-01 2.994776964187622070e+00 4.033312201499938965e-01
-9.049768447875976562e-01 2.787715435028076172e+00 3.520863950252532959e-01
-7.344398498535156250e-01 2.988977432250976562e+00 3.153542876243591309e-01
-8.562982082366943359e-01 3.009047746658325195e+00 2.907744348049163818e-01
-9.098084568977355957e-01 2.805933475494384766e+00 2.461419701576232910e-01
-7.430112361907958984e-01 3.028422355651855469e+00 2.054732739925384521e-01
-8.706703186035156250e-01 3.063613414764404297e+00 1.797382533550262451e-01
-9.088283181190490723e-01 2.806248903274536133e+00 1.385905295610427856e-01
-1.001311898231506348e+00 2.750334978103637695e+00 1.098837032914161682e-01
-8.817252516746520996e-01 3.106635808944702148e+00 6.538953632116317749e-02
-9.009261727333068848e-01 2.786826372146606445e+00 3.118303604423999786e-02
-7.174091339111328125e-01 2.994338989257812500e+00 9.073909521102905273e-01
-7.923434972763061523e-01 2.831474781036376953e+00 8.331148624420166016e-01
-9.027122855186462402e-01 2.817796230316162109e+00 8.072332143783569336e-01
-1.022643446922302246e+00 2.827574968338012695e+00 7.905079722404479980e-01
-6.987611651420593262e-01 2.914260864257812500e+00 7.611060142517089844e-01
-8.146398663520812988e-01 2.915072441101074219e+00 7.361661791801452637e-01
-9.145357012748718262e-01 2.859855651855468750e+00 6.998141407966613770e-01
-1.011227726936340332e+00 2.803658246994018555e+00 6.662095189094543457e-01
-7.138281464576721191e-01 2.974809169769287109e+00 6.569644212722778320e-01
-8.061352372169494629e-01 2.888529062271118164e+00 6.134060621261596680e-01
-8.943626284599304199e-01 2.803517103195190430e+00 5.730726122856140137e-01
-9.987922310829162598e-01 2.776770353317260742e+00 5.458588004112243652e-01
-7.067329287528991699e-01 2.947507858276367188e+00 5.355471968650817871e-01
-8.148579001426696777e-01 2.923725605010986328e+00 5.057327151298522949e-01
-8.906492590904235840e-01 2.793560743331909180e+00 4.602039754390716553e-01
-9.989047646522521973e-01 2.783182382583618164e+00 4.361260831356048584e-01
-7.091454863548278809e-01 2.959847927093505859e+00 4.239608049392700195e-01
-8.304550051689147949e-01 2.983715057373046875e+00 4.011476039886474609e-01
-8.929676413536071777e-01 2.809301376342773438e+00 3.541139662265777588e-01
-9.870423674583435059e-01 2.754666566848754883e+00 3.235685527324676514e-01
-8.426185846328735352e-01 3.031513452529907227e+00 2.924402356147766113e-01
-8.895589709281921387e-01 2.801964998245239258e+00 2.453104108572006226e-01
-9.909214973449707031e-01 2.770059108734130859e+00 2.175931185483932495e-01
-8.491855263710021973e-01 3.059277772903442383e+00 1.791748106479644775e-01
-8.843461275100708008e-01 2.788920402526855469e+00 1.374641656875610352e-01
-9.881142377853393555e-01 2.766778945922851562e+00 1.102963760495185852e-01
-8.650503158569335938e-01 3.120658636093139648e+00 6.557173281908035278e-02
-8.832060694694519043e-01 2.790395259857177734e+00 3.116174228489398956e-02
-9.804511070251464844e-01 2.748350143432617188e+00 3.565008984878659248e-03
-7.007648944854736328e-01 3.006158113479614258e+00 9.096524119377136230e-01
-7.736870050430297852e-01 2.831642389297485352e+00 8.317517638206481934e-01
-8.819413185119628906e-01 2.812235593795776367e+00 8.040747642517089844e-01
-1.015298128128051758e+00 2.862052440643310547e+00 7.983901500701904297e-01
-6.826280951499938965e-01 2.926044464111328125e+00 7.630752325057983398e-01
-7.893205285072326660e-01 2.892831325531005859e+00 7.293125987052917480e-01
-9.039533138275146484e-01 2.887719392776489258e+00 7.052619457244873047e-01
-9.914020299911499023e-01 2.802450180053710938e+00 6.644643545150756836e-01
-7.004520893096923828e-01 3.000079393386840820e+00 6.615836024284362793e-01
-7.932900190353393555e-01 2.911381006240844727e+00 6.172135472297668457e-01
-8.847507238388061523e-01 2.833312511444091797e+00 5.780425667762756348e-01
-9.804269671440124512e-01 2.779137372970581055e+00 5.451312661170959473e-01
-6.893052458763122559e-01 2.954665660858154297e+00 5.360691547393798828e-01
-7.984568476676940918e-01 2.934381246566772461e+00 5.067188739776611328e-01
-8.729028701782226562e-01 2.797086715698242188e+00 4.598938524723052979e-01
-9.781954884529113770e-01 2.778994321823120117e+00 4.345210790634155273e-01
-6.882726550102233887e-01 2.952568531036376953e+00 4.223052263259887695e-01
-8.108313679695129395e-01 2.983969211578369141e+00 4.005053341388702393e-01
-8.692243099212646484e-01 2.793870687484741211e+00 3.514900207519531250e-01
-9.763823747634887695e-01 2.778487682342529297e+00 3.256567716598510742e-01
-8.146143555641174316e-01 3.002032041549682617e+00 2.891086339950561523e-01
-8.770810961723327637e-01 2.822597026824951172e+00 2.466409057378768921e-01
-9.748964905738830566e-01 2.778910398483276367e+00 2.178144007921218872e-01
-8.324872851371765137e-01 3.072140216827392578e+00 1.796255707740783691e-01
-8.719542622566223145e-01 2.809558391571044922e+00 1.382150799036026001e-01
-9.724403619766235352e-01 2.776562452316284180e+00 1.104464456439018250e-01
-8.477141261100769043e-01 3.132663249969482422e+00 6.571344286203384399e-02
-8.657720088958740234e-01 2.794806718826293945e+00 3.115109726786613464e-02
-9.579553604125976562e-01 2.738267660140991211e+00 3.544239327311515808e-03
-6.784896850585937500e-01 2.993562459945678711e+00 9.045642018318176270e-01
-7.664611339569091797e-01 2.874451875686645508e+00 8.429290652275085449e-01
-8.643861413002014160e-01 2.816671848297119141e+00 8.038116097450256348e-01
-1.003754973411560059e+00 2.885583877563476562e+00 8.032211661338806152e-01
-6.614452004432678223e-01 2.915999412536621094e+00 7.593829035758972168e-01
-7.740557789802551270e-01 2.907009601593017578e+00 7.316759228706359863e-01
-8.813686370849609375e-01 2.877381563186645508e+00 7.014030814170837402e-01
-9.719490408897399902e-01 2.802026033401489258e+00 6.629373431205749512e-01
-6.790004372596740723e-01 2.990972280502319336e+00 6.586440801620483398e-01
-7.817051410675048828e-01 2.939864158630371094e+00 6.222234368324279785e-01
-8.705042004585266113e-01 2.849013805389404297e+00 5.801452398300170898e-01
-9.639989137649536133e-01 2.786959409713745117e+00 5.454949736595153809e-01
-6.661524772644042969e-01 2.936751604080200195e+00 5.320673584938049316e-01
-7.809430360794067383e-01 2.941131830215454102e+00 5.070475339889526367e-01
-8.663988113403320312e-01 2.837349414825439453e+00 4.656309187412261963e-01
-9.546706676483154297e-01 2.766240835189819336e+00 4.316028952598571777e-01
-7.935235500335693359e-01 2.992722749710083008e+00 4.010191559791564941e-01
-8.685455322265625000e-01 2.853291988372802734e+00 3.582884371280670166e-01
-9.515451788902282715e-01 2.761873006820678711e+00 3.230189979076385498e-01
-7.949046492576599121e-01 3.002161264419555664e+00 2.886459231376647949e-01
-8.594555854797363281e-01 2.826972007751464844e+00 2.465577572584152222e-01
-9.565296769142150879e-01 2.781067848205566406e+00 2.175193727016448975e-01
-8.082617521286010742e-01 3.056920051574707031e+00 1.784423440694808960e-01
-8.683390617370605469e-01 2.859778642654418945e+00 1.404208838939666748e-01
-9.518156051635742188e-01 2.772080183029174805e+00 1.100337654352188110e-01
-8.203091621398925781e-01 3.106872558593750000e+00 6.506562232971191406e-02
-8.584678769111633301e-01 2.832602977752685547e+00 3.151306882500648499e-02
-9.424333572387695312e-01 2.747877836227416992e+00 3.549126442521810532e-03
-7.446923255920410156e-01 2.863270998001098633e+00 8.382945656776428223e-01
-8.451455235481262207e-01 2.815454483032226562e+00 8.019692301750183105e-01
-9.726086854934692383e-01 2.852327108383178711e+00 7.922878265380859375e-01
-7.491207718849182129e-01 2.884430646896362305e+00 7.248223423957824707e-01
-8.650943040847778320e-01 2.887399673461914062e+00 7.025380134582519531e-01
-9.578794836997985840e-01 2.817177057266235352e+00 6.651188135147094727e-01
-6.494739055633544922e-01 2.944480180740356445e+00 6.475162506103515625e-01
-7.661111950874328613e-01 2.954088687896728516e+00 6.242273449897766113e-01
-8.560982942581176758e-01 2.864646673202514648e+00 5.822479128837585449e-01
-9.440387487411499023e-01 2.784440755844116211e+00 5.438579916954040527e-01
-7.628819346427917480e-01 2.945868253707885742e+00 5.070475339889526367e-01
-8.645217418670654297e-01 2.894674301147460938e+00 4.741589426994323730e-01
-9.341922998428344727e-01 2.761737823486328125e+00 4.299978613853454590e-01
-7.741523981094360352e-01 2.993694543838500977e+00 4.005053341388702393e-01
-8.722689151763916016e-01 2.929936647415161133e+00 3.672337532043457031e-01
-9.383966922760009766e-01 2.778959989547729492e+00 3.243378996849060059e-01
-7.769666314125061035e-01 3.008910179138183594e+00 2.888309955596923828e-01
-8.875352740287780762e-01 2.985025882720947266e+00 2.598627507686614990e-01
-9.391288161277770996e-01 2.785939693450927734e+00 2.174456119537353516e-01
-7.874953746795654297e-01 3.054087638854980469e+00 1.779915839433670044e-01
-8.999680280685424805e-01 3.030712842941284180e+00 1.485401391983032227e-01
-9.382944107055664062e-01 2.788286685943603516e+00 1.104464456439018250e-01
-7.964937090873718262e-01 3.093451261520385742e+00 6.468097865581512451e-02
-9.106869101524353027e-01 3.072704315185546875e+00 3.412141650915145874e-02
-9.296968579292297363e-01 2.765931367874145508e+00 3.565008984878659248e-03
-7.353857159614562988e-01 2.900428056716918945e+00 8.478361368179321289e-01
-8.259524703025817871e-01 2.814107418060302734e+00 8.001268506050109863e-01
-9.504911303520202637e-01 2.844481945037841797e+00 7.884738445281982422e-01
-7.318851351737976074e-01 2.890856981277465820e+00 7.252950072288513184e-01
-8.484564423561096191e-01 2.896392107009887695e+00 7.034460306167602539e-01
-9.408840537071228027e-01 2.823927164077758789e+00 6.653369069099426270e-01
-7.515725493431091309e-01 2.972981214523315430e+00 6.272332668304443359e-01
-8.437352776527404785e-01 2.887746810913085938e+00 5.858798027038574219e-01
-9.241458177566528320e-01 2.781782388687133789e+00 5.422209501266479492e-01
-7.445506453514099121e-01 2.949537277221679688e+00 5.068832039833068848e-01
-8.567122817039489746e-01 2.934063673019409180e+00 4.797409176826477051e-01
-9.150503277778625488e-01 2.760844469070434570e+00 4.289764761924743652e-01
-7.543146014213562012e-01 2.992618799209594727e+00 3.997346460819244385e-01
-8.717542290687561035e-01 2.995291948318481445e+00 3.747477829456329346e-01
-9.228886365890502930e-01 2.789383649826049805e+00 3.248874247074127197e-01
-7.572745680809020996e-01 3.008793115615844727e+00 2.883682847023010254e-01
-8.842226266860961914e-01 3.042089700698852539e+00 2.643531560897827148e-01
-9.195147752761840820e-01 2.784073829650878906e+00 2.168555259704589844e-01
-7.653341293334960938e-01 3.045306205749511719e+00 1.772027760744094849e-01
-8.966708183288574219e-01 3.088939189910888672e+00 1.511214077472686768e-01
-9.230454564094543457e-01 2.799685478210449219e+00 1.106715351343154907e-01
-8.976593613624572754e-01 3.098403453826904297e+00 3.434498980641365051e-02
-9.064522385597229004e-01 2.752587318420410156e+00 3.540574340149760246e-03
-7.247278094291687012e-01 2.933840990066528320e+00 8.562871813774108887e-01
-8.110640048980712891e-01 2.827468633651733398e+00 8.024956583976745605e-01
-9.309136867523193359e-01 2.843826532363891602e+00 7.866939902305603027e-01
-7.215794920921325684e-01 2.925481796264648438e+00 7.328575253486633301e-01
-8.306685686111450195e-01 2.901543617248535156e+00 7.034460306167602539e-01
-9.268698096275329590e-01 2.839852571487426758e+00 6.677364706993103027e-01
-7.319108247756958008e-01 2.971829175949096680e+00 6.260308623313903809e-01
-8.265395760536193848e-01 2.894757270812988281e+00 5.862621068954467773e-01
-9.104068279266357422e-01 2.797685861587524414e+00 5.442217588424682617e-01
-7.269096970558166504e-01 2.955965995788574219e+00 5.072119235992431641e-01
-8.392352461814880371e-01 2.941165208816528320e+00 4.800510406494140625e-01
-8.974819779396057129e-01 2.764525413513183594e+00 4.286846816539764404e-01
-7.359380125999450684e-01 2.997190713882446289e+00 3.997346460819244385e-01
-8.533590435981750488e-01 3.000584602355957031e+00 3.747477829456329346e-01
-9.039174318313598633e-01 2.789320707321166992e+00 3.242279887199401855e-01
-7.380874156951904297e-01 3.010481834411621094e+00 2.880906462669372559e-01
-8.622727990150451660e-01 3.035954475402832031e+00 2.633552849292755127e-01
-9.042564034461975098e-01 2.795356512069702148e+00 2.172980904579162598e-01
-7.449722886085510254e-01 3.043156385421752930e+00 1.768083572387695312e-01
-8.820617198944091797e-01 3.109758615493774414e+00 1.518723070621490479e-01
-9.086131453514099121e-01 2.813855171203613281e+00 1.110091805458068848e-01
-8.816270232200622559e-01 3.114436864852905273e+00 3.446209803223609924e-02
-8.877038955688476562e-01 2.752387046813964844e+00 3.533243900164961815e-03
-7.091874480247497559e-01 2.948522567749023438e+00 8.592860102653503418e-01
-7.921378016471862793e-01 2.826818227767944336e+00 8.009164333343505859e-01
-9.119706749916076660e-01 2.844880104064941406e+00 7.854226827621459961e-01
-7.047500610351562500e-01 2.934578418731689453e+00 7.340391874313354492e-01
-8.141608238220214844e-01 2.911275386810302734e+00 7.045809626579284668e-01
-9.100216031074523926e-01 2.847345352172851562e+00 6.681727766990661621e-01
-7.084079980850219727e-01 2.954351902008056641e+00 6.214218139648437500e-01
-8.132449388504028320e-01 2.915847301483154297e+00 5.895116925239562988e-01
-8.935219049453735352e-01 2.804156303405761719e+00 5.444036126136779785e-01
-7.099068760871887207e-01 2.965167045593261719e+00 5.080336928367614746e-01
-8.219684958457946777e-01 2.949114084243774414e+00 4.805162250995635986e-01
-8.808019757270812988e-01 2.770922899246215820e+00 4.288305938243865967e-01
-7.099249362945556641e-01 2.969820261001586914e+00 3.954958319664001465e-01
-8.389177322387695312e-01 3.020113706588745117e+00 3.765368163585662842e-01
-8.870861530303955078e-01 2.795762062072753906e+00 3.243378996849060059e-01
-8.412309288978576660e-01 3.032545804977416992e+00 2.626068890094757080e-01
-8.931096792221069336e-01 2.819866895675659180e+00 2.187732905149459839e-01
-8.565638065338134766e-01 3.092008829116821289e+00 1.507459431886672974e-01
-8.847035765647888184e-01 2.798415422439575195e+00 1.101838275790214539e-01
-8.606354594230651855e-01 3.113041162490844727e+00 3.438757359981536865e-02
-8.801330924034118652e-01 2.787343263626098633e+00 3.571117296814918518e-03
-5.995362401008605957e-01 3.080757856369018555e+00 9.249168634414672852e-01
-7.022641301155090332e-01 3.000595808029174805e+00 8.731893897056579590e-01
-7.757962942123413086e-01 2.835347414016723633e+00 8.019692301750183105e-01
-8.878374099731445312e-01 2.829198837280273438e+00 7.795746326446533203e-01
-6.865094304084777832e-01 2.937901496887207031e+00 7.338028550148010254e-01
-8.055174946784973145e-01 2.950038194656372070e+00 7.127526402473449707e-01
-8.861228823661804199e-01 2.832384824752807617e+00 6.633736491203308105e-01
-6.949416399002075195e-01 2.978678941726684570e+00 6.256301403045654297e-01
-7.955961823463439941e-01 2.921729326248168945e+00 5.897027850151062012e-01
-8.765919208526611328e-01 2.810524940490722656e+00 5.445855855941772461e-01
-6.905807256698608398e-01 2.964663743972778320e+00 5.072119235992431641e-01
-8.064515590667724609e-01 2.963634490966796875e+00 4.820667803287506104e-01
-8.658406138420104980e-01 2.782887697219848633e+00 4.298519492149353027e-01
-8.156934380531311035e-01 3.007955789566040039e+00 3.743899464607238770e-01
-8.808220624923706055e-01 2.836273670196533203e+00 3.284044861793518066e-01
-8.220867514610290527e-01 3.035726547241210938e+00 2.624405622482299805e-01
-8.802196979522705078e-01 2.839582443237304688e+00 2.198797017335891724e-01
-8.367931842803955078e-01 3.094313621520996094e+00 1.506051421165466309e-01
-8.660393357276916504e-01 2.799017906188964844e+00 1.099962517619132996e-01
-8.436022400856018066e-01 3.125986576080322266e+00 3.447274491190910339e-02
-8.736426830291748047e-01 2.827086210250854492e+00 3.615099703893065453e-03
-5.809766650199890137e-01 3.086264133453369141e+00 9.254822731018066406e-01
-6.748726367950439453e-01 2.965446710586547852e+00 8.617395758628845215e-01
-7.608732581138610840e-01 2.849375247955322266e+00 8.046011924743652344e-01
-8.715966939926147461e-01 2.838291168212890625e+00 7.805916666984558105e-01
-6.680393218994140625e-01 2.940163373947143555e+00 7.333301901817321777e-01
-7.909119129180908203e-01 2.968100070953369141e+00 7.159305214881896973e-01
-8.738691210746765137e-01 2.854565858840942383e+00 6.673002243041992188e-01
-6.773019433021545410e-01 2.985753297805786133e+00 6.262313127517700195e-01
-7.806787490844726562e-01 2.937939882278442383e+00 5.919966697692871094e-01
-8.696630001068115234e-01 2.849708557128906250e+00 5.511336922645568848e-01
-6.558180451393127441e-01 2.895730495452880859e+00 4.947206676006317139e-01
-7.882518768310546875e-01 2.968527078628540039e+00 4.820667803287506104e-01
-8.496131896972656250e-01 2.790987253189086914e+00 4.302896857261657715e-01
-7.962057590484619141e-01 3.009064912796020508e+00 3.739128708839416504e-01
-8.691815733909606934e-01 2.860645055770874023e+00 3.306026458740234375e-01
-8.047173023223876953e-01 3.045531034469604492e+00 2.628563642501831055e-01
-8.598855137825012207e-01 2.835386276245117188e+00 2.191421091556549072e-01
-8.152426481246948242e-01 3.089731454849243164e+00 1.501358300447463989e-01
-8.662192821502685547e-01 2.861665487289428711e+00 1.122471988201141357e-01
-8.193135857582092285e-01 3.111764192581176758e+00 3.425981849431991577e-02
-9.300718903541564941e-01 3.076483011245727539e+00 3.926640842109918594e-03
-5.508705973625183105e-01 3.028428316116333008e+00 9.071083068847656250e-01
-7.455640435218811035e-01 2.862392425537109375e+00 8.069700002670288086e-01
-8.511043787002563477e-01 2.833397150039672852e+00 7.777947783470153809e-01
-7.756249308586120605e-01 2.984208106994628906e+00 7.186543941497802734e-01
-8.650155067443847656e-01 2.888855934143066406e+00 6.740626692771911621e-01
-6.513776183128356934e-01 2.955409765243530273e+00 6.190171241760253906e-01
-7.653459310531616211e-01 2.953126430511474609e+00 5.940992832183837891e-01
-8.665044307708740234e-01 2.903045415878295898e+00 5.604102015495300293e-01
-7.712607979774475098e-01 2.978089570999145508e+00 4.828420281410217285e-01
-8.782029151916503906e-01 2.949751138687133789e+00 4.539271593093872070e-01
-7.764870524406433105e-01 3.009086847305297852e+00 3.733165264129638672e-01
-8.578411936759948730e-01 2.886885404586791992e+00 3.330206274986267090e-01
-7.837771773338317871e-01 3.041726112365722656e+00 2.621079385280609131e-01
-9.008860588073730469e-01 3.037568092346191406e+00 2.343367338180541992e-01
-7.950245141983032227e-01 3.089838743209838867e+00 1.499011665582656860e-01
-9.045207500457763672e-01 3.055691480636596680e+00 1.196378022432327271e-01
-9.196825027465820312e-01 3.110901117324829102e+00 3.963293042033910751e-03
-5.249798893928527832e-01 2.990181684494018555e+00 8.946705460548400879e-01
-7.353472709655761719e-01 2.895900249481201172e+00 8.151291608810424805e-01
-8.307049274444580078e-01 2.828358650207519531e+00 7.749978303909301758e-01
-7.623227238655090332e-01 3.008736371994018555e+00 7.234212160110473633e-01
-8.453541398048400879e-01 2.887552976608276367e+00 6.725356578826904297e-01
-7.464902997016906738e-01 2.954912185668945312e+00 5.935258865356445312e-01
-8.533580899238586426e-01 2.924354553222656250e+00 5.635023117065429688e-01
-7.517641186714172363e-01 2.977976560592651367e+00 4.820667803287506104e-01
-8.617458343505859375e-01 2.960783481597900391e+00 4.548026323318481445e-01
-7.609151601791381836e-01 3.025349140167236328e+00 3.747477829456329346e-01
-8.708877563476562500e-01 2.998042583465576172e+00 3.452203571796417236e-01
-7.704389095306396484e-01 3.067741632461547852e+00 2.639373838901519775e-01
-8.866740465164184570e-01 3.058363914489746094e+00 2.355168908834457397e-01
-7.748357653617858887e-01 3.089814186096191406e+00 1.496665030717849731e-01
-8.929759263992309570e-01 3.086142063140869141e+00 1.206132173538208008e-01
-8.958576321601867676e-01 3.100153923034667969e+00 3.942523617297410965e-03
-4.934968054294586182e-01 2.915793895721435547e+00 8.714910745620727539e-01
-7.240520715713500977e-01 2.926579952239990234e+00 8.224987983703613281e-01
-8.122674822807312012e-01 2.829684019088745117e+00 7.739807963371276855e-01
-7.422133088111877441e-01 3.006738662719726562e+00 7.218322753906250000e-01
-8.284258842468261719e-01 2.895500421524047852e+00 6.731901168823242188e-01
-7.285798192024230957e-01 2.960389852523803711e+00 5.937170386314392090e-01
-8.324323296546936035e-01 2.919133901596069336e+00 5.615015625953674316e-01
-7.356006503105163574e-01 2.991167068481445312e+00 4.834622442722320557e-01
-8.478927612304687500e-01 2.981240272521972656e+00 4.571371972560882568e-01
-7.395024299621582031e-01 3.018388986587524414e+00 3.733165264129638672e-01
-8.527471423149108887e-01 3.004286050796508789e+00 3.453302979469299316e-01
-7.489962577819824219e-01 3.061763048171997070e+00 2.630226612091064453e-01
-8.668043613433837891e-01 3.059908866882324219e+00 2.352218627929687500e-01
-8.745666146278381348e-01 3.093486309051513672e+00 1.206882521510124207e-01
-8.681237101554870605e-01 3.074796199798583984e+00 3.903428092598915100e-03
-4.695802330970764160e-01 2.881844520568847656e+00 8.604667186737060547e-01
-7.067591547966003418e-01 2.933781385421752930e+00 8.232883810997009277e-01
-7.956729531288146973e-01 2.837408542633056641e+00 7.747435569763183594e-01
-7.178328633308410645e-01 2.986616134643554688e+00 7.159305214881896973e-01
-8.145840764045715332e-01 2.914627552032470703e+00 6.764622330665588379e-01
-7.101727724075317383e-01 2.963850259780883789e+00 5.935258865356445312e-01
-8.142413496971130371e-01 2.923239469528198242e+00 5.613196492195129395e-01
-7.206838130950927734e-01 3.010035753250122070e+00 4.857880771160125732e-01
-8.287898302078247070e-01 2.983526945114135742e+00 4.566994607448577881e-01
-7.193556427955627441e-01 3.016109228134155273e+00 3.724816441535949707e-01
-8.313762545585632324e-01 2.998925685882568359e+00 3.441212773323059082e-01
-8.429603576660156250e-01 3.046907663345336914e+00 2.338204085826873779e-01
-8.539731502532958984e-01 3.093014717102050781e+00 1.204631552100181580e-01
-8.619993925094604492e-01 3.126338481903076172e+00 3.962071146816015244e-03
-4.498103857040405273e-01 2.871404409408569336e+00 8.565092682838439941e-01
-6.984326839447021484e-01 2.979390859603881836e+00 8.348691463470458984e-01
-7.774817347526550293e-01 2.839438915252685547e+00 7.739807963371276855e-01
-6.908444762229919434e-01 2.953980684280395508e+00 7.070778608322143555e-01
-8.110719919204711914e-01 2.972294330596923828e+00 6.886782050132751465e-01
-6.955392360687255859e-01 2.983446598052978516e+00 5.965842604637145996e-01
-7.986115813255310059e-01 2.936720132827758789e+00 5.629566311836242676e-01
-6.954771280288696289e-01 2.985536575317382812e+00 4.811364412307739258e-01
-8.146106600761413574e-01 3.003833293914794922e+00 4.590340256690979004e-01
-8.121806383132934570e-01 3.001092433929443359e+00 3.437916040420532227e-01
-8.237289786338806152e-01 3.050097227096557617e+00 2.336729019880294800e-01
-8.349786996841430664e-01 3.098196506500244141e+00 1.204631552100181580e-01
-8.394218087196350098e-01 3.119015455245971680e+00 3.946188837289810181e-03
-4.330391287803649902e-01 2.879801750183105469e+00 8.582053184509277344e-01
-6.820681095123291016e-01 2.992085933685302734e+00 8.372379541397094727e-01
-7.632905244827270508e-01 2.856302499771118164e+00 7.772862315177917480e-01
-6.705465912818908691e-01 2.948667526245117188e+00 7.048079967498779297e-01
-7.933213710784912109e-01 2.979101181030273438e+00 6.891145110130310059e-01
-6.765691041946411133e-01 2.984786272048950195e+00 5.960108041763305664e-01
-7.793161869049072266e-01 2.936812877655029297e+00 5.620472431182861328e-01
-7.936334013938903809e-01 2.999211311340332031e+00 4.575749337673187256e-01
-7.960347533226013184e-01 3.014668226242065430e+00 3.447807431221008301e-01
-8.055065870285034180e-01 3.057022571563720703e+00 2.338204085826873779e-01
-8.159528374671936035e-01 3.103261470794677734e+00 1.204631552100181580e-01
-8.164587616920471191e-01 3.109598875045776367e+00 3.927862737327814102e-03
-4.118037521839141846e-01 2.857719898223876953e+00 8.508557081222534180e-01
-6.609838008880615234e-01 2.983969926834106445e+00 8.338164091110229492e-01
-7.472139596939086914e-01 2.866547346115112305e+00 7.788118124008178711e-01
-7.733096480369567871e-01 2.977300882339477539e+00 6.875875592231750488e-01
-7.634989023208618164e-01 2.950107097625732422e+00 5.636842846870422363e-01
-7.744740843772888184e-01 3.001150608062744141e+00 4.571371972560882568e-01
-7.804964184761047363e-01 3.031046390533447266e+00 3.460996448993682861e-01
-7.857412099838256836e-01 3.058043956756591797e+00 2.335253655910491943e-01
-7.929253578186035156e-01 3.092721939086914062e+00 1.198628991842269897e-01
-3.926895260810852051e-01 2.848790168762207031e+00 8.474636077880859375e-01
-7.305638790130615234e-01 2.874827623367309570e+00 7.798288464546203613e-01
-7.545475959777832031e-01 2.980097532272338867e+00 6.871512532234191895e-01
-7.444208860397338867e-01 2.950922250747680664e+00 5.629566311836242676e-01
-7.548382282257080078e-01 3.001049280166625977e+00 4.564076662063598633e-01
-7.594641447067260742e-01 3.026138067245483398e+00 3.450005650520324707e-01
-7.638133764266967773e-01 3.050231456756591797e+00 2.325664907693862915e-01
-7.698159217834472656e-01 3.081047534942626953e+00 1.192251369357109070e-01
-7.182567715644836426e-01 2.900848150253295898e+00 7.856769561767578125e-01
-7.367153167724609375e-01 2.986566543579101562e+00 6.875875592231750488e-01
-7.239536643028259277e-01 2.945885419845581055e+00 5.611377358436584473e-01
-7.328785061836242676e-01 2.991211175918579102e+00 4.542189836502075195e-01
-7.420619130134582520e-01 3.035568475723266602e+00 3.455500900745391846e-01
-7.384665012359619141e-01 3.027732372283935547e+00 2.305012047290802002e-01
-4.718461930751800537e-01 2.879718542098999023e+00 8.268446922302246094e-01
-7.063376307487487793e-01 2.929645776748657227e+00 7.922878265380859375e-01
-7.208832502365112305e-01 3.001468896865844727e+00 6.899871230125427246e-01
-7.054068446159362793e-01 2.948359489440917969e+00 5.607739686965942383e-01
-7.170357704162597656e-01 3.006237030029296875e+00 4.558239877223968506e-01
-4.550661146640777588e-01 2.888261795043945312e+00 8.284803628921508789e-01
-6.923246979713439941e-01 2.950872659683227539e+00 7.968645691871643066e-01
-7.042297124862670898e-01 3.013438224792480469e+00 6.917322874069213867e-01
-6.919843554496765137e-01 2.972744226455688477e+00 5.645936727523803711e-01
-6.965638399124145508e-01 3.001906871795654297e+00 4.545108377933502197e-01
-4.354647397994995117e-01 2.878633022308349609e+00 8.249363899230957031e-01
-6.813046336174011230e-01 2.986181020736694336e+00 8.052552938461303711e-01
-6.647501587867736816e-01 2.925391674041748047e+00 6.705723404884338379e-01
-6.672193408012390137e-01 2.948162317276000977e+00 5.591369271278381348e-01
-4.108901619911193848e-01 2.833642244338989258e+00 8.113055825233459473e-01
-6.631783246994018555e-01 2.991249561309814453e+00 8.055095672607421875e-01
-3.904543817043304443e-01 2.814191341400146484e+00 8.050354123115539551e-01
-1.138566657900810242e-01 6.571722030639648438e-01 7.101087365299463272e-03
-8.919809758663177490e-02 6.860841512680053711e-01 1.400915067642927170e-02
-4.321924746036529541e-01 2.850064277648925781e+00 7.864404320716857910e-01
-4.135863780975341797e-01 2.845024824142456055e+00 7.843348979949951172e-01
-3.943938016891479492e-01 2.835087060928344727e+00 7.809132933616638184e-01
-1.376011520624160767e-01 2.181222438812255859e+00 2.239280343055725098e-01
-1.264856755733489990e-01 2.208331346511840820e+00 6.518515348434448242e-01
-1.248367577791213989e-01 2.192950963973999023e+00 2.250492125749588013e-01
-1.102886572480201721e-01 2.157335758209228516e+00 6.365870833396911621e-01
-1.174688115715980530e-01 2.297785520553588867e+00 3.204884529113769531e-01
-1.112778186798095703e-01 2.191688537597656250e+00 2.248453646898269653e-01
-6.086350232362747192e-02 7.032264471054077148e-01 1.429257262498140335e-02
-9.252446144819259644e-02 2.057355880737304688e+00 6.069060564041137695e-01
-9.752532839775085449e-02 2.160153865814208984e+00 5.491680502891540527e-01
-9.948629885911941528e-02 2.203588724136352539e+00 3.897419273853302002e-01
-1.008757948875427246e-01 2.243054628372192383e+00 3.127624988555908203e-01
-9.738431870937347412e-02 2.182391881942749023e+00 2.238261103630065918e-01
-7.934081554412841797e-02 2.043507575988769531e+00 6.026659607887268066e-01
-8.585545420646667480e-02 2.201388359069824219e+00 5.595064163208007812e-01
-8.703239262104034424e-02 2.221608638763427734e+00 4.774487614631652832e-01
-8.638560771942138672e-02 2.214982032775878906e+00 3.916558623313903809e-01
-8.645752817392349243e-02 2.226806402206420898e+00 3.104171156883239746e-01
-8.387683331966400146e-02 2.179966211318969727e+00 2.235203385353088379e-01
-6.654992699623107910e-02 2.036286354064941406e+00 6.004045009613037109e-01
-7.027751952409744263e-02 2.138907909393310547e+00 5.435065031051635742e-01
-7.294733077287673950e-02 2.208420038223266602e+00 4.745092689990997314e-01
-7.243738323450088501e-02 2.204643726348876953e+00 3.897419273853302002e-01
-7.263071835041046143e-02 2.222345352172851562e+00 3.097273111343383789e-01
-7.085285335779190063e-02 2.191376686096191406e+00 2.246415019035339355e-01
-5.382521450519561768e-02 2.028026342391967773e+00 5.978603959083557129e-01
-5.681560933589935303e-02 2.126703262329101562e+00 5.403065085411071777e-01
-5.871203914284706116e-02 2.183415174484252930e+00 4.690503776073455811e-01
-5.869819968938827515e-02 2.197171688079833984e+00 3.883500099182128906e-01
-5.862541124224662781e-02 2.208888053894042969e+00 3.077958226203918457e-01
-5.724921450018882751e-02 2.185803651809692383e+00 2.240299731492996216e-01
-4.089133813977241516e-02 2.004343271255493164e+00 5.907934904098510742e-01
-4.292790964245796204e-02 2.086312770843505859e+00 5.299680829048156738e-01
-4.500949382781982422e-02 2.169071674346923828e+00 4.659009575843811035e-01
-4.533704742789268494e-02 2.203397750854492188e+00 3.893939554691314697e-01
-4.492941126227378845e-02 2.202274560928344727e+00 3.068300783634185791e-01
-1.306124031543731689e-01 2.301044225692749023e+00 2.985164821147918701e-01
-4.395595565438270569e-02 2.192081212997436523e+00 2.246415019035339355e-01
-2.849638648331165314e-02 1.997842550277709961e+00 5.888147950172424316e-01
-1.098364219069480896e-01 2.111891984939575195e+00 5.992102622985839844e-01
-2.937013842165470123e-02 2.034203767776489258e+00 5.166758298873901367e-01
-3.178518638014793396e-02 2.175172567367553711e+00 4.671607315540313721e-01
-3.170266747474670410e-02 2.195757150650024414e+00 3.880020081996917725e-01
-3.137328475713729858e-02 2.199537754058837891e+00 3.064161837100982666e-01
-1.144859939813613892e-01 2.262184619903564453e+00 2.933785319328308105e-01
-3.065701946616172791e-02 2.203251361846923828e+00 2.257626801729202271e-01
-6.329742819070816040e-02 7.372457981109619141e-01 7.878267206251621246e-03
-1.616716198623180389e-02 1.989347100257873535e+00 5.862706899642944336e-01
-9.947643429040908813e-02 2.169231891632080078e+00 6.152946352958679199e-01
-1.668680086731910706e-02 2.010115861892700195e+00 5.105219483375549316e-01
-1.811479590833187103e-02 2.137197494506835938e+00 4.589722752571105957e-01
-1.818828657269477844e-02 2.190986871719360352e+00 3.871320784091949463e-01
-9.873031824827194214e-02 2.203380823135375977e+00 3.675067424774169922e-01
-1.783633604645729065e-02 2.194736719131469727e+00 3.057263791561126709e-01
-9.981048107147216797e-02 2.245011091232299805e+00 2.910664081573486328e-01
-1.722265407443046570e-02 2.214340448379516602e+00 2.268838435411453247e-01
-5.561339668929576874e-03 7.666422724723815918e-01 2.275400981307029724e-02
-3.950905054807662964e-03 1.984612703323364258e+00 5.848572850227355957e-01
-8.391198515892028809e-02 2.113080739974975586e+00 5.992102622985839844e-01
-4.329563118517398834e-03 1.999518871307373047e+00 5.078142881393432617e-01
-8.625475317239761353e-02 2.191369295120239258e+00 5.333955287933349609e-01
-4.801830742508172989e-03 2.052207946777343750e+00 4.407058060169219971e-01
-8.661749958992004395e-02 2.220305681228637695e+00 4.544936120510101318e-01
-4.699523560702800751e-03 2.170377492904663086e+00 3.834782242774963379e-01
-8.547551929950714111e-02 2.210844755172729492e+00 3.686572611331939697e-01
-4.367377609014511108e-03 2.193814516067504883e+00 3.055884242057800293e-01
-8.561584353446960449e-02 2.234680414199829102e+00 2.896534800529479980e-01
-3.646823577582836151e-03 2.221367835998535156e+00 2.275973111391067505e-01
-2.758228406310081482e-02 7.333138585090637207e-01 4.141304641962051392e-02
-8.437950164079666138e-04 7.546672821044921875e-01 2.239801548421382904e-02
-6.862084567546844482e-02 2.044322013854980469e+00 5.795819163322448730e-01
-7.135550677776336670e-02 2.148155927658081055e+00 5.227606892585754395e-01
-7.267048954963684082e-02 2.211003541946411133e+00 4.524896740913391113e-01
-7.197254151105880737e-02 2.213299512863159180e+00 3.689859807491302490e-01
-7.155174762010574341e-02 2.224260568618774414e+00 2.882405519485473633e-01
-4.823836684226989746e-02 7.163370251655578613e-01 7.644049357622861862e-03
-5.539004504680633545e-02 2.019698858261108398e+00 5.724938511848449707e-01
-5.683207884430885315e-02 2.099016189575195312e+00 5.107078552246093750e-01
-5.876239016652107239e-02 2.198676109313964844e+00 4.498845636844635010e-01
-5.833861604332923889e-02 2.211727380752563477e+00 3.686572611331939697e-01
-5.792839825153350830e-02 2.225648880004882812e+00 2.883689999580383301e-01
-4.275067150592803955e-02 2.008457660675048828e+00 5.692224502563476562e-01
-4.378898069262504578e-02 2.091553688049316406e+00 5.088172554969787598e-01
-4.508897289633750916e-02 2.190179586410522461e+00 4.480809867382049561e-01
-4.476661607623100281e-02 2.212043523788452148e+00 3.686572611331939697e-01
-4.417238011956214905e-02 2.221004724502563477e+00 2.877267301082611084e-01
-1.252888143062591553e-01 2.227439880371093750e+00 2.680007219314575195e-01
-3.019304946064949036e-02 1.993289947509765625e+00 5.648605823516845703e-01
-3.033639304339885712e-02 2.050005674362182617e+00 4.986550807952880859e-01
-3.184759989380836487e-02 2.204129457473754883e+00 4.508864879608154297e-01
-3.117902204394340515e-02 2.211290359497070312e+00 3.684929013252258301e-01
-3.032555244863033295e-02 2.205368280410766602e+00 2.856715619564056396e-01
-1.129603609442710876e-01 2.254940271377563477e+00 2.712210118770599365e-01
-9.577554650604724884e-03 7.337698936462402344e-01 4.141304641962051392e-02
-1.785785704851150513e-02 1.981892824172973633e+00 5.615892410278320312e-01
-1.750475168228149414e-02 2.021004199981689453e+00 4.915652275085449219e-01
-1.806212589144706726e-02 2.172933816909790039e+00 4.444739222526550293e-01
-1.750024780631065369e-02 2.197630882263183594e+00 3.661918938159942627e-01
-9.917044639587402344e-02 2.212663650512695312e+00 3.476338684558868408e-01
-1.677044294774532318e-02 2.202537775039672852e+00 2.852862179279327393e-01
-9.877345710992813110e-02 2.247655630111694336e+00 2.702668309211730957e-01
-5.663669668138027191e-03 1.970419645309448242e+00 5.583178400993347168e-01
-8.787739276885986328e-02 2.193026781082153320e+00 5.987790822982788086e-01
-5.079236347228288651e-03 2.011356830596923828e+00 4.892019331455230713e-01
-8.789853006601333618e-02 2.222643136978149414e+00 5.184481143951416016e-01
-4.707593936473131180e-03 2.163206577301025391e+00 4.424699842929840088e-01
-8.611182123422622681e-02 2.216654777526855469e+00 4.320026934146881104e-01
-4.013705532997846603e-03 2.196710348129272461e+00 3.660275042057037354e-01
-8.585916459560394287e-02 2.220140695571899414e+00 3.487192392349243164e-01
-3.240952501073479652e-03 2.192682027816772461e+00 2.840017080307006836e-01
-8.460521697998046875e-02 2.238297939300537109e+00 2.690741419792175293e-01
-7.288211584091186523e-02 2.148208141326904297e+00 5.864087343215942383e-01
-7.422647625207901001e-02 2.222167015075683594e+00 5.182210803031921387e-01
-7.250905781984329224e-02 2.217141389846801758e+00 4.320026934146881104e-01
-7.236349582672119141e-02 2.224575042724609375e+00 3.493394553661346436e-01
-7.071262598037719727e-02 2.233813047409057617e+00 2.684777975082397461e-01
-5.750238895416259766e-02 2.069536447525024414e+00 5.648263692855834961e-01
-5.976739153265953064e-02 2.192401170730590820e+00 5.111843943595886230e-01
-5.887750908732414246e-02 2.216563463211059570e+00 4.318115711212158203e-01
