-1.698175631463527679e-02 -7.590895295143127441e-01 1.553053557872772217e-01
-6.484336405992507935e-02 -6.293562054634094238e-01 6.482395529747009277e-02
-3.074624389410018921e-02 -7.258242368698120117e-01 6.062077730894088745e-02
-4.295167326927185059e-02 -7.062360644340515137e-01 5.904081091284751892e-02
-4.541296511888504028e-02 -7.320761084556579590e-01 2.753657847642898560e-02
-1.269465535879135132e-01 -7.104293704032897949e-01 2.141902968287467957e-02
-1.104370728135108948e-01 -7.467229366302490234e-01 1.528455037623643875e-02
-9.363508224487304688e-02 -7.241660356521606445e-01 3.430737182497978210e-02
-1.212029159069061279e-01 -7.268124222755432129e-01 1.492015086114406586e-02
-1.240437999367713928e-01 -7.182070612907409668e-01 4.113132506608963013e-02
-9.423711895942687988e-02 -7.581652998924255371e-01 9.334019268862903118e-04
-1.002253741025924683e-01 -7.346727252006530762e-01 2.783670462667942047e-02
-1.021907031536102295e-01 -7.162369489669799805e-01 2.716142125427722931e-02
-1.095278188586235046e-01 -7.353642582893371582e-01 2.791173569858074188e-02
-7.586309432983398438e+00 -6.613006591796875000e+00 1.229549292474985123e-02
-8.101123809814453125e+00 -6.888656616210937500e+00 1.299188006669282913e-02
-8.192249298095703125e+00 -6.879978179931640625e+00 1.307007018476724625e-02
-8.514202117919921875e+00 -6.887132644653320312e+00 1.337916776537895203e-02
-8.322683334350585938e+00 -6.648148536682128906e+00 1.301387045532464981e-02
-8.839324951171875000e+00 -6.712224960327148438e+00 1.355998404324054718e-02
-9.077969551086425781e+00 -6.806027412414550781e+00 1.386175118386745453e-02
-9.358279228210449219e+00 -6.926895141601562500e+00 1.422460470348596573e-02
-8.348557472229003906e+00 -6.100575923919677734e+00 1.263269037008285522e-02
-9.398783683776855469e+00 -6.779941558837890625e+00 1.415863167494535446e-02
-9.612084388732910156e+00 -6.844532966613769531e+00 1.441641617566347122e-02
-9.487003326416015625e+00 -6.668118476867675781e+00 1.416718401014804840e-02
-8.525338172912597656e+00 -5.914375305175781250e+00 1.267667300999164581e-02
-9.145653724670410156e+00 -6.261940479278564453e+00 1.354165840893983841e-02
-9.183904647827148438e+00 -6.205705642700195312e+00 1.354165840893983841e-02
-9.463087081909179688e+00 -6.310125350952148438e+00 1.389595959335565567e-02
-9.604378700256347656e+00 -6.319551467895507812e+00 1.404623221606016159e-02
-9.624522209167480469e+00 -6.248521327972412109e+00 1.401935424655675888e-02
-9.659313201904296875e+00 -6.187191009521484375e+00 1.401446759700775146e-02
-9.692022323608398438e+00 -6.124600887298583984e+00 1.400713622570037842e-02
-9.573273658752441406e+00 -5.967679977416992188e+00 1.378233823925256729e-02
-9.654006958007812500e+00 -5.936063766479492188e+00 1.384586840867996216e-02
-1.019558143615722656e+01 -6.183178901672363281e+00 1.456791162490844727e-02
-9.347652435302734375e+00 -5.590785503387451172e+00 1.330708526074886322e-02
-9.735795021057128906e+00 -5.742119312286376953e+00 1.380921714007854462e-02
-9.737995147705078125e+00 -5.663169860839843750e+00 1.376279070973396301e-02
-1.011522960662841797e+01 -5.799788951873779297e+00 1.424537505954504013e-02
-1.000959587097167969e+01 -5.657896995544433594e+00 1.404745411127805710e-02
-9.953274726867675781e+00 -5.545753955841064453e+00 1.392039470374584198e-02
-9.937153816223144531e+00 -5.457139968872070312e+00 1.385075598955154419e-02
-9.899214744567871094e+00 -5.357510089874267578e+00 1.375179551541805267e-02
-1.000954914093017578e+01 -5.338078498840332031e+00 1.385930832475423813e-02
-9.612774848937988281e+00 -5.050967216491699219e+00 1.326676830649375916e-02
-9.634706497192382812e+00 -4.987292289733886719e+00 1.325455214828252792e-02
-9.965351104736328125e+00 -5.081161022186279297e+00 1.366627495735883713e-02
-9.521814346313476562e+00 -4.781622886657714844e+00 1.301753614097833633e-02
-1.015513706207275391e+01 -5.021876335144042969e+00 1.384098175913095474e-02
-9.982566833496093750e+00 -4.860535621643066406e+00 1.356487069278955460e-02
-1.005548667907714844e+01 -4.819940090179443359e+00 1.362351421266794205e-02
-9.701409339904785156e+00 -4.577228069305419922e+00 1.310549955815076828e-02
-9.421841621398925781e+00 -4.374847412109375000e+00 1.269133388996124268e-02
-9.805964469909667969e+00 -4.480273246765136719e+00 1.317147351801395416e-02
-9.834182739257812500e+00 -4.420430660247802734e+00 1.317269541323184967e-02
-9.434922218322753906e+00 -4.171566009521484375e+00 1.260336954146623611e-02
-9.064172744750976562e+00 -3.941332101821899414e+00 1.207558158785104752e-02
-9.827450752258300781e+00 -4.201713085174560547e+00 1.305785309523344040e-02
-9.830922126770019531e+00 -4.132034301757812500e+00 1.302853133529424667e-02
-1.003262042999267578e+01 -4.144561290740966797e+00 1.326188165694475174e-02
-9.500069618225097656e+00 -3.856492042541503906e+00 1.252639945596456528e-02
-9.457605361938476562e+00 -3.771826744079589844e+00 1.243965700268745422e-02
-9.476846694946289062e+00 -3.712265968322753906e+00 1.243477035313844681e-02
-9.697312355041503906e+00 -3.730158329010009766e+00 1.269377674907445908e-02
-9.762115478515625000e+00 -3.686484098434448242e+00 1.274875458329916000e-02
-9.425425529479980469e+00 -3.493410110473632812e+00 1.228083204478025436e-02
-9.582011222839355469e+00 -3.484726428985595703e+00 1.245676074177026749e-02
-9.552352905273437500e+00 -3.407722711563110352e+00 1.239078771322965622e-02
-9.649538993835449219e+00 -3.375793933868408203e+00 1.248974818736314774e-02
-9.603857040405273438e+00 -3.293812751770019531e+00 1.240422762930393219e-02
-9.624834060668945312e+00 -3.235141038894653320e+00 1.240544859319925308e-02
-9.539072990417480469e+00 -3.141304016113281250e+00 1.226983685046434402e-02
-9.558168411254882812e+00 -3.082714319229125977e+00 1.226983685046434402e-02
-9.208817481994628906e+00 -2.907781600952148438e+00 1.179824862629175186e-02
-9.211199760437011719e+00 -2.846498727798461914e+00 1.177870109677314758e-02
-9.484067916870117188e+00 -2.867191076278686523e+00 1.210490334779024124e-02
-9.519701957702636719e+00 -2.814330339431762695e+00 1.212811563163995743e-02
-9.520460128784179688e+00 -2.751146316528320312e+00 1.210734713822603226e-02
-9.225351333618164062e+00 -2.604642868041992188e+00 1.171150617301464081e-02
-9.270079612731933594e+00 -2.555962085723876953e+00 1.174815744161605835e-02
-9.179368019104003906e+00 -2.470446825027465820e+00 1.161376759409904480e-02
-9.341370582580566406e+00 -2.452677488327026367e+00 1.179946959018707275e-02
-3.271170377731323242e+00 -4.684692919254302979e-01 9.807661175727844238e-02
-8.990055084228515625e+00 -2.301564931869506836e+00 1.133765652775764465e-02
-3.266060590744018555e+00 -4.473038911819458008e-01 9.783927351236343384e-02
-8.961315155029296875e+00 -2.235708713531494141e+00 1.128389965742826462e-02
-3.268743753433227539e+00 -4.272553026676177979e-01 9.783927351236343384e-02
-9.433520317077636719e+00 -2.292123317718505859e+00 1.186055690050125122e-02
-3.264360427856445312e+00 -4.063263833522796631e-01 9.763161092996597290e-02
-9.174922943115234375e+00 -2.169758081436157227e+00 1.151847280561923981e-02
-3.272747993469238281e+00 -3.869932591915130615e-01 9.780961275100708008e-02
-9.114972114562988281e+00 -2.096608638763427734e+00 1.142684277147054672e-02
-9.149134635925292969e+00 -2.045440673828125000e+00 1.145372074097394943e-02
-3.264342784881591797e+00 -4.652023911476135254e-01 6.676615029573440552e-02
-9.134150505065917969e+00 -1.983322858810424805e+00 1.141951233148574829e-02
-3.272351026535034180e+00 -4.470381438732147217e-01 1.863868832588195801e-01
-3.253266811370849609e+00 -4.432742893695831299e-01 6.648273020982742310e-02
-9.058082580566406250e+00 -1.908682465553283691e+00 1.130955573171377182e-02
-3.277012586593627930e+00 -4.272091090679168701e-01 1.864995807409286499e-01
-3.255925416946411133e+00 -4.233042895793914795e-01 6.648273020982742310e-02
-9.024554252624511719e+00 -1.843859076499938965e+00 1.125335693359375000e-02
-3.285516977310180664e+00 -4.078316390514373779e-01 1.868376433849334717e-01
-3.253500223159790039e+00 -4.027042388916015625e-01 6.638150662183761597e-02
-9.242683410644531250e+00 -1.829419493675231934e+00 1.151114236563444138e-02
-3.253924131393432617e+00 -3.825001418590545654e-01 6.634102016687393188e-02
-8.973823547363281250e+00 -1.719052433967590332e+00 1.116294879466295242e-02
-3.258286714553833008e+00 -4.824675917625427246e-01 3.506893664598464966e-02
-9.054015159606933594e+00 -1.676887750625610352e+00 1.124969124794006348e-02
-3.299069643020629883e+00 -4.696005582809448242e-01 1.565655320882797241e-01
-3.273066282272338867e+00 -4.641507863998413086e-01 3.519669547677040100e-02
-9.022789955139160156e+00 -1.613906621932983398e+00 1.119837909936904907e-02
-3.291991233825683594e+00 -4.480020403861999512e-01 1.560962051153182983e-01
-3.273870706558227539e+00 -4.437902569770812988e-01 3.517540171742439270e-02
-8.826566696166992188e+00 -1.522976875305175781e+00 1.094303838908672333e-02
-3.300621509552001953e+00 -4.285660684108734131e-01 1.563778072595596313e-01
-3.263640165328979492e+00 -4.220267236232757568e-01 3.503699973225593567e-02
-8.829826354980468750e+00 -1.467805385589599609e+00 1.093570701777935028e-02
-3.289309978485107422e+00 -4.065901637077331543e-01 1.557207405567169189e-01
-3.258228778839111328e+00 -4.010162949562072754e-01 3.495182842016220093e-02
-8.830767631530761719e+00 -1.412335634231567383e+00 1.092593371868133545e-02
-3.234805107116699219e+00 -3.779991269111633301e-01 3.467502444982528687e-02
-8.829382896423339844e+00 -1.356605768203735352e+00 1.091371662914752960e-02
-3.343880653381347656e+00 -4.927936792373657227e-01 4.129447974264621735e-03
-3.285945653915405273e+00 -4.648437798023223877e-01 1.245898827910423279e-01
-3.340900182723999023e+00 -4.714283943176269531e-01 4.122117534279823303e-03
-3.282794237136840820e+00 -4.438694417476654053e-01 1.243647933006286621e-01
-3.287241458892822266e+00 -4.433023631572723389e-01 4.052479285746812820e-03
-3.283473968505859375e+00 -4.234626293182373047e-01 1.242897659540176392e-01
-3.241299867630004883e+00 -4.168733358383178711e-01 3.992614336311817169e-03
-3.265181541442871094e+00 -4.007511734962463379e-01 1.235019266605377197e-01
-3.280522823333740234e+00 -4.014717638492584229e-01 4.037818405777215958e-03
-3.279944419860839844e+00 -3.809891641139984131e-01 4.034153185784816742e-03
-8.555442810058593750e+00 -9.406096339225769043e-01 1.051543187350034714e-02
-8.571993827819824219e+00 -8.892316818237304688e-01 1.052887085825204849e-02
-8.569327354431152344e+00 -8.358416557312011719e-01 1.051909755915403366e-02
-8.452800750732421875e+00 -7.721472382545471191e-01 1.037004683166742325e-02
-8.473321914672851562e+00 -7.216250300407409668e-01 1.038959436118602753e-02
-8.366934776306152344e+00 -6.608797907829284668e-01 1.025398168712854385e-02
-8.420700073242187500e+00 -6.131599545478820801e-01 1.031506899744272232e-02
-8.518095970153808594e+00 -5.677312016487121582e-01 1.042991131544113159e-02
-8.391655921936035156e+00 -5.076051950454711914e-01 1.027108635753393173e-02
-7.963249206542968750e+00 -4.326680898666381836e-01 9.743298403918743134e-03
-8.302363395690917969e+00 -4.000165462493896484e-01 1.015502121299505234e-02
-8.032900810241699219e+00 -3.376438915729522705e-01 9.822710417211055756e-03
-8.259676933288574219e+00 -2.964180409908294678e-01 1.009760051965713501e-02
-8.221358299255371094e+00 -2.445427775382995605e-01 1.004873123019933701e-02
-8.046752929687500000e+00 -1.899396479129791260e-01 9.833707474172115326e-03
-8.233738899230957031e+00 -1.438102871179580688e-01 1.006094831973314285e-02
-8.485448837280273438e+00 -9.612964093685150146e-02 1.036760210990905762e-02
-8.461880683898925781e+00 -4.393747821450233459e-02 1.033828221261501312e-02
-8.003991127014160156e+00 7.552317343652248383e-03 9.778728708624839783e-03
-8.042792320251464844e+00 5.693983659148216248e-02 9.826376102864742279e-03
-8.691234588623046875e+00 1.148649603128433228e-01 1.061927899718284607e-02
-8.918323516845703125e+00 1.726030409336090088e-01 1.089783292263746262e-02
-8.387269020080566406e+00 2.138148248195648193e-01 1.025031693279743195e-02
-8.901540756225585938e+00 2.815889418125152588e-01 1.088072918355464935e-02
-8.662815093994140625e+00 3.272556960582733154e-01 1.059118006378412247e-02
-8.560739517211914062e+00 3.760154843330383301e-01 1.046900637447834015e-02
-8.287611007690429688e+00 4.149833917617797852e-01 1.013791747391223907e-02
-8.844025611877441406e+00 4.972643256187438965e-01 1.082208659499883652e-02
-8.436593055725097656e+00 5.263045430183410645e-01 1.032728515565395355e-02
-8.672643661499023438e+00 5.944731235504150391e-01 1.062050182372331619e-02
-8.550163269042968750e+00 6.388100981712341309e-01 1.047511491924524307e-02
-8.674662590026855469e+00 7.016611695289611816e-01 1.063271798193454742e-02
-8.794722557067871094e+00 7.657168507575988770e-01 1.078543439507484436e-02
-8.824707984924316406e+00 8.229156136512756348e-01 1.082819513976573944e-02
-8.790635108947753906e+00 8.741778135299682617e-01 1.079276483505964279e-02
-8.687647819519042969e+00 9.178037047386169434e-01 1.067303493618965149e-02
-8.643095016479492188e+00 9.667576551437377930e-01 1.062538754194974899e-02
-8.579399108886718750e+00 1.012971639633178711e+00 1.055452693253755569e-02
-8.763556480407714844e+00 1.089277386665344238e+00 1.078909914940595627e-02
-8.750759124755859375e+00 1.142252564430236816e+00 1.078176964074373245e-02
-8.855543136596679688e+00 1.211237907409667969e+00 1.091982517391443253e-02
-8.864772796630859375e+00 1.267958760261535645e+00 1.094059459865093231e-02
-8.843968391418457031e+00 1.320408463478088379e+00 1.092471182346343994e-02
-8.816926002502441406e+00 1.371728301048278809e+00 1.090149860829114914e-02
-8.660270690917968750e+00 1.401833772659301758e+00 1.071823947131633759e-02
-8.137721061706542969e+00 1.368541240692138672e+00 1.008171867579221725e-02
-8.560650825500488281e+00 1.493736028671264648e+00 1.061683613806962967e-02
-8.903611183166503906e+00 1.609934926033020020e+00 1.105421502143144608e-02
-8.543642044067382812e+00 1.599043846130371094e+00 1.061927899718284607e-02
-8.825259208679199219e+00 1.707864999771118164e+00 1.098213251680135727e-02
-8.824419975280761719e+00 1.763943791389465332e+00 1.099435053765773773e-02
-8.654771804809570312e+00 1.785327672958374023e+00 1.079643052071332932e-02
-8.756137847900390625e+00 1.862322688102722168e+00 1.093692891299724579e-02
-8.794363975524902344e+00 1.926929831504821777e+00 1.099923718720674515e-02
-8.907238006591796875e+00 2.009017467498779297e+00 1.115561928600072861e-02
-9.203541755676269531e+00 2.135276556015014648e+00 1.154290791600942612e-02
-9.088130950927734375e+00 2.167350530624389648e+00 1.141462568193674088e-02
-9.104770660400390625e+00 2.230449676513671875e+00 1.145249884575605392e-02
-8.823248863220214844e+00 2.218958377838134766e+00 1.111530140042304993e-02
-8.965361595153808594e+00 2.313279628753662109e+00 1.131200045347213745e-02
-9.128877639770507812e+00 2.415309667587280273e+00 1.153679937124252319e-02
-9.002893447875976562e+00 2.441181659698486328e+00 1.139629911631345749e-02
-8.780588150024414062e+00 2.438838005065917969e+00 1.113362796604633331e-02
-8.869339942932128906e+00 2.522209882736206055e+00 1.126557495445013046e-02
-8.912266731262207031e+00 2.593628406524658203e+00 1.134010031819343567e-02
-8.842512130737304688e+00 2.632286787033081055e+00 1.127168349921703339e-02
-9.160071372985839844e+00 2.788118362426757812e+00 1.169806718826293945e-02
-8.921262741088867188e+00 2.775354862213134766e+00 1.141462568193674088e-02
-8.573368072509765625e+00 2.724934339523315430e+00 1.099068485200405121e-02
-8.916018486022949219e+00 2.894194602966308594e+00 1.145249884575605392e-02
-8.963589668273925781e+00 2.970553874969482422e+00 1.153679937124252319e-02
-8.925301551818847656e+00 3.018769264221191406e+00 1.151114236563444138e-02
-6.062685012817382812e+00 2.859145641326904297e+00 1.989418417215347290e-01
-8.588989257812500000e+00 2.963872909545898438e+00 1.110064052045345306e-02
-6.049534797668457031e+00 2.898451328277587891e+00 1.990901827812194824e-01
-8.706474304199218750e+00 3.064325571060180664e+00 1.127657014876604080e-02
-6.003774166107177734e+00 2.921956062316894531e+00 1.981705129146575928e-01
-8.907754898071289062e+00 3.196729898452758789e+00 1.156245544552803040e-02
-9.057015419006347656e+00 3.313164949417114258e+00 1.178236585110425949e-02
-8.881909370422363281e+00 3.311040401458740234e+00 1.158078014850616455e-02
-8.488422393798828125e+00 3.223813533782958984e+00 1.109331101179122925e-02
-6.046776771545410156e+00 2.856724739074707031e+00 1.354150325059890747e-01
-9.192219734191894531e+00 3.555798292160034180e+00 1.204137410968542099e-02
-6.038147926330566406e+00 2.898099660873413086e+00 1.356174796819686890e-01
-9.061368942260742188e+00 3.569254159927368164e+00 1.189843099564313889e-02
-5.995089054107666016e+00 2.922826528549194336e+00 1.350506395101547241e-01
-9.065286636352539062e+00 3.635207653045654297e+00 1.193263847380876541e-02
-9.062252998352050781e+00 3.698698282241821289e+00 1.195829547941684723e-02
-9.089257240295410156e+00 3.774945497512817383e+00 1.202426850795745850e-02
-9.076977729797363281e+00 3.835315704345703125e+00 1.203892938792705536e-02
-6.014978408813476562e+00 2.846760034561157227e+00 7.085117697715759277e-02
-9.078080177307128906e+00 3.901600122451782227e+00 1.207191683351993561e-02
-6.004607200622558594e+00 2.887079954147338867e+00 7.093634456396102905e-02
-9.081458091735839844e+00 3.969243288040161133e+00 1.210856810212135315e-02
-5.991271972656250000e+00 2.926063299179077148e+00 7.098957896232604980e-02
-9.149229049682617188e+00 4.065907955169677734e+00 1.223196275532245636e-02
-9.211595535278320312e+00 4.161493778228759766e+00 1.234924979507923126e-02
-9.199519157409667969e+00 4.224195480346679688e+00 1.236757449805736542e-02
-5.999020576477050781e+00 2.799301624298095703e+00 8.087853901088237762e-03
-6.029087543487548828e+00 2.855933189392089844e+00 2.504553198814392090e-01
-6.010646343231201172e+00 2.849767208099365234e+00 8.126949891448020935e-03
-5.975431919097900391e+00 2.875540256500244141e+00 2.489546835422515869e-01
-6.003858566284179688e+00 2.891801595687866211e+00 8.141610771417617798e-03
-5.984205245971679688e+00 2.927707195281982422e+00 8.139166980981826782e-03
-9.239349365234375000e+00 4.590724945068359375e+00 1.260459050536155701e-02
-9.336892127990722656e+00 4.710844039916992188e+00 1.277685444802045822e-02
-9.283781051635742188e+00 4.755735874176025391e+00 1.274386793375015259e-02
-9.419445991516113281e+00 4.898426055908203125e+00 1.297110971063375473e-02
-9.248599052429199219e+00 4.881907463073730469e+00 1.277685444802045822e-02
-9.351572990417480469e+00 5.009870529174804688e+00 1.296133548021316528e-02
-9.332956314086914062e+00 5.073843002319335938e+00 1.297844015061855316e-02
-9.292893409729003906e+00 5.126183509826660156e+00 1.296622306108474731e-02
-9.257773399353027344e+00 5.181153774261474609e+00 1.296133548021316528e-02
-9.584961891174316406e+00 5.441766262054443359e+00 1.346591021865606308e-02
-9.628516197204589844e+00 5.544891357421875000e+00 1.357464399188756943e-02
-9.822276115417480469e+00 5.737015724182128906e+00 1.389718148857355118e-02
-8.948012351989746094e+00 5.300275325775146484e+00 1.270599476993083954e-02
-9.709128379821777344e+00 5.831887245178222656e+00 1.383731607347726822e-02
-9.914862632751464844e+00 6.038557529449462891e+00 1.418306585401296616e-02
-9.435177803039550781e+00 5.826076507568359375e+00 1.354776695370674133e-02
-9.656080245971679688e+00 6.044632434844970703e+00 1.391794998198747635e-02
-9.806255340576171875e+00 6.222713470458984375e+00 1.418917439877986908e-02
-9.950395584106445312e+00 6.400156021118164062e+00 1.445429027080535889e-02
-9.895858764648437500e+00 6.451260089874267578e+00 1.443229895085096359e-02
-9.690888404846191406e+00 6.402711868286132812e+00 1.419039722532033920e-02
-9.924799919128417969e+00 6.645093917846679688e+00 1.459234580397605896e-02
-9.833361625671386719e+00 6.671617984771728516e+00 1.451782044023275375e-02
-9.193152427673339844e+00 6.319976806640625000e+00 1.362962182611227036e-02
-9.154200553894042969e+00 6.376266002655029297e+00 1.362962182611227036e-02
-8.074520111083984375e+00 6.620767116546630859e+00 2.114329040050506592e-01
-9.607580184936523438e+00 6.779992580413818359e+00 1.436632592231035233e-02
-8.041436195373535156e+00 6.676573753356933594e+00 2.116353511810302734e-01
-8.061891555786132812e+00 6.619682788848876953e+00 1.110622808337211609e-01
-8.008819580078125000e+00 6.658796310424804688e+00 1.108919382095336914e-01
-8.037708282470703125e+00 6.609078884124755859e+00 1.271332427859306335e-02
-8.000846862792968750e+00 6.661472320556640625e+00 1.271943282335996628e-02
-2.875605106353759766e+00 4.991376399993896484e+00 1.709665805101394653e-01
-2.855291128158569336e+00 5.027179241180419922e+00 1.715895682573318481e-01
-2.812671661376953125e+00 5.023672103881835938e+00 1.708775758743286133e-01
-2.834259271621704102e+00 4.998144626617431641e+00 1.163447797298431396e-01
-2.824839115142822266e+00 4.989520549774169922e+00 6.104592978954315186e-02
-2.791247129440307617e+00 5.001520633697509766e+00 6.098204851150512695e-02
-2.908250093460083008e+00 5.000825881958007812e+00 7.067709229886531830e-03
-2.870547294616699219e+00 5.006431102752685547e+00 7.050605490803718567e-03
-2.828948497772216797e+00 5.004797935485839844e+00 7.023727055639028549e-03
-2.805974245071411133e+00 5.036038875579833984e+00 7.043275050818920135e-03
-8.941792845726013184e-01 2.589770793914794922e+00 8.131518214941024780e-02
-9.180738925933837891e-01 2.609828710556030273e+00 1.561300009489059448e-01
-9.049727916717529297e-01 2.623907327651977539e+00 1.566371023654937744e-01
-8.760010600090026855e-01 2.542785167694091797e+00 5.445753410458564758e-02
-8.677534461021423340e-01 2.566986083984375000e+00 1.529183834791183472e-01
-8.642204999923706055e-01 2.559479475021362305e+00 5.470047146081924438e-02
-8.532100319862365723e-01 2.578972101211547852e+00 5.500413849949836731e-02
-9.264542460441589355e-01 2.587086200714111328e+00 1.291102468967437744e-01
-9.171826243400573730e-01 2.611571311950683594e+00 1.300488859415054321e-01
-8.946067094802856445e-01 2.551561832427978516e+00 2.878761664032936096e-02
-9.021166563034057617e-01 2.619983434677124023e+00 1.301896870136260986e-01
-8.760083317756652832e-01 2.548492193222045898e+00 2.869180031120777130e-02
-8.879401683807373047e-01 2.631148099899291992e+00 1.304712742567062378e-01
-8.747204542160034180e-01 2.596462011337280273e+00 2.917088381946086884e-02
-9.249287247657775879e-01 2.589855670928955078e+00 1.032434105873107910e-01
-9.113324284553527832e-01 2.602083921432495117e+00 1.035060212016105652e-01
-8.956737518310546875e-01 2.608572006225585938e+00 1.035435423254966736e-01
-8.780574202537536621e-01 2.609283208847045898e+00 1.033559590578079224e-01
-1.434428710490465164e-02 7.345364689826965332e-01 2.180469036102294922e-02
-2.298223599791526794e-02 7.384910583496093750e-01 1.496063917875289917e-02
-2.632921561598777771e-02 7.030619978904724121e-01 5.870818719267845154e-02
-6.582318805158138275e-03 7.440280914306640625e-01 1.734213531017303467e-01
