-7.831617355346679688e+00 -3.664431333541870117e+00 1.204418420791625977e+00
-7.189830303192138672e+00 -3.687935590744018555e+00 1.046606063842773438e+00
-6.230246543884277344e+00 -3.486963272094726562e+00 8.576738834381103516e-01
-7.554862022399902344e+00 -4.596137523651123047e+00 9.778496026992797852e-01
-7.898877143859863281e+00 -3.692542076110839844e+00 8.933678865432739258e-01
-7.117278099060058594e+00 -3.647583246231079102e+00 7.433164715766906738e-01
-6.255396366119384766e+00 -3.498172521591186523e+00 5.980584621429443359e-01
-7.145406246185302734e+00 -4.341913223266601562e+00 6.184070706367492676e-01
-7.794149875640869141e+00 -3.640269756317138672e+00 5.668432116508483887e-01
-7.136096954345703125e+00 -3.654083013534545898e+00 4.524446129798889160e-01
-7.287326812744140625e+00 -4.071914672851562500e+00 3.922116756439208984e-01
-6.943464756011962891e+00 -4.214226722717285156e+00 3.049282133579254150e-01
-8.866137504577636719e+00 -4.139058589935302734e+00 2.904028892517089844e-01
-1.058457279205322266e+01 -5.907035350799560547e+00 1.290545463562011719e-01
-6.717249870300292969e+00 -4.073721408843994141e+00 9.597912430763244629e-03
-7.380043983459472656e+00 -3.741427898406982422e+00 2.344498634338378906e+00
-6.423719882965087891e+00 -3.562695741653442383e+00 2.004001855850219727e+00
-8.778351783752441406e+00 -5.302429676055908203e+00 2.696219444274902344e+00
-8.104205131530761719e+00 -3.733249425888061523e+00 2.266087293624877930e+00
-7.271718978881835938e+00 -3.683320760726928711e+00 1.982567429542541504e+00
-6.424372673034667969e+00 -3.558660507202148438e+00 1.711741328239440918e+00
-9.072512626647949219e+00 -5.469313144683837891e+00 2.367944955825805664e+00
-8.043916702270507812e+00 -3.707179307937622070e+00 1.902026414871215820e+00
-7.254529476165771484e+00 -3.671432256698608398e+00 1.663069963455200195e+00
-6.359751224517822266e+00 -3.517064809799194336e+00 1.415286779403686523e+00
-9.225329399108886719e+00 -5.550467014312744141e+00 1.991538763046264648e+00
-7.946837425231933594e+00 -3.660757064819335938e+00 1.545918345451354980e+00
-7.254265308380126953e+00 -3.668118476867675781e+00 1.354482650756835938e+00
-6.262281417846679688e+00 -3.461735010147094727e+00 1.123065233230590820e+00
-9.323485374450683594e+00 -5.600661754608154297e+00 1.604138612747192383e+00
-7.959213256835937500e+00 -3.664774417877197266e+00 1.220560073852539062e+00
-7.238878726959228516e+00 -3.657165765762329102e+00 1.050459504127502441e+00
-6.274127960205078125e+00 -3.461138725280761719e+00 8.607748746871948242e-01
-7.558204174041748047e+00 -4.534865379333496094e+00 9.746622443199157715e-01
-7.987359046936035156e+00 -3.674355268478393555e+00 9.008083939552307129e-01
-7.243524551391601562e+00 -3.656339883804321289e+00 7.541441321372985840e-01
-6.274997711181640625e+00 -3.458762168884277344e+00 5.978921651840209961e-01
-7.138551235198974609e+00 -4.277995109558105469e+00 6.155303716659545898e-01
-7.912445545196533203e+00 -3.636547565460205078e+00 5.738128423690795898e-01
-7.210979461669921875e+00 -3.636754035949707031e+00 4.557689130306243896e-01
-7.040931701660156250e+00 -3.877738952636718750e+00 3.776626884937286377e-01
-7.084945201873779297e+00 -4.240829467773437500e+00 3.099928498268127441e-01
-8.403609275817871094e+00 -3.860509395599365234e+00 2.744721174240112305e-01
-1.156860637664794922e+01 -6.363428592681884766e+00 1.405738443136215210e-01
-5.887339115142822266e+00 -3.521188735961914062e+00 8.381068706512451172e-03
-7.508740425109863281e+00 -3.748936891555786133e+00 2.378030538558959961e+00
-6.568205833435058594e+00 -3.590309143066406250e+00 2.042165756225585938e+00
-8.794103622436523438e+00 -5.238568305969238281e+00 2.691134214401245117e+00
-8.190520286560058594e+00 -3.712261199951171875e+00 2.283810377120971680e+00
-7.406347751617431641e+00 -3.694585561752319336e+00 2.013054132461547852e+00
-6.515326499938964844e+00 -3.556974649429321289e+00 1.730127573013305664e+00
-9.287096023559570312e+00 -5.521264553070068359e+00 2.415063858032226562e+00
-8.183160781860351562e+00 -3.710647106170654297e+00 1.929531216621398926e+00
-7.337421894073486328e+00 -3.657004594802856445e+00 1.676897048950195312e+00
-6.529451847076416016e+00 -3.558771610260009766e+00 1.448164820671081543e+00
-9.414814949035644531e+00 -5.586080551147460938e+00 2.025007009506225586e+00
-8.152122497558593750e+00 -3.694857597351074219e+00 1.581412792205810547e+00
-7.317253589630126953e+00 -3.643764495849609375e+00 1.362043261528015137e+00
-6.550599098205566406e+00 -3.568814754486083984e+00 1.170822262763977051e+00
-9.475134849548339844e+00 -5.612930297851562500e+00 1.624274373054504395e+00
-8.099735260009765625e+00 -3.669409990310668945e+00 1.238633275032043457e+00
-7.327774047851562500e+00 -3.645811796188354492e+00 1.060093164443969727e+00
-6.350200176239013672e+00 -3.452453136444091797e+00 8.682888746261596680e-01
-7.542261123657226562e+00 -4.462591171264648438e+00 9.690570235252380371e-01
-8.189198493957519531e+00 -3.706494569778442383e+00 9.209893941879272461e-01
-7.305055141448974609e+00 -3.631327629089355469e+00 7.582161426544189453e-01
-6.438837051391601562e+00 -3.497731208801269531e+00 6.114466190338134766e-01
-7.147495269775390625e+00 -4.223965644836425781e+00 6.140552163124084473e-01
-8.027348518371582031e+00 -3.629864692687988281e+00 5.805195569992065430e-01
-7.400372982025146484e+00 -3.675488948822021484e+00 4.663052558898925781e-01
-6.999627113342285156e+00 -3.799202442169189453e+00 3.741897344589233398e-01
-7.252825736999511719e+00 -4.281090736389160156e+00 3.161829411983489990e-01
-8.421673774719238281e+00 -3.806402683258056641e+00 2.742941081523895264e-01
-1.152479934692382812e+01 -6.247529983520507812e+00 1.395730972290039062e-01
-5.908833980560302734e+00 -3.484998464584350586e+00 8.381068706512451172e-03
-7.592905044555664062e+00 -3.732932090759277344e+00 2.397386312484741211e+00
-6.704774379730224609e+00 -3.611705780029296875e+00 2.077697753906250000e+00
-8.807735443115234375e+00 -5.173733234405517578e+00 2.685540437698364258e+00
-8.461893081665039062e+00 -3.772842884063720703e+00 2.352979421615600586e+00
-7.514347076416015625e+00 -3.691054105758666992e+00 2.036214351654052734e+00
-6.647665977478027344e+00 -3.576453447341918945e+00 1.759409427642822266e+00
-9.424353599548339844e+00 -5.524883747100830078e+00 2.441895484924316406e+00
-8.361139297485351562e+00 -3.729670286178588867e+00 1.966064214706420898e+00
-7.457347869873046875e+00 -3.659825563430786133e+00 1.699140787124633789e+00
-6.678280353546142578e+00 -3.586914300918579102e+00 1.476264238357543945e+00
-9.529542922973632812e+00 -5.575380802154541016e+00 2.042286872863769531e+00
-8.306851387023925781e+00 -3.703715562820434570e+00 1.606989502906799316e+00
-7.405898094177246094e+00 -3.631368160247802734e+00 1.374370098114013672e+00
-6.610670566558837891e+00 -3.549114704132080078e+00 1.177644610404968262e+00
-9.600800514221191406e+00 -5.608077526092529297e+00 1.639886617660522461e+00
-8.267749786376953125e+00 -3.684551954269409180e+00 1.260845422744750977e+00
-7.445299625396728516e+00 -3.647464990615844727e+00 1.073837280273437500e+00
-6.508666992187500000e+00 -3.487037658691406250e+00 8.870143890380859375e-01
-7.068988323211669922e+00 -4.124217510223388672e+00 9.049807786941528320e-01
-8.349923133850097656e+00 -3.717679738998413086e+00 9.364819526672363281e-01
-6.514649391174316406e+00 -3.487316608428955078e+00 6.166023015975952148e-01
-7.172416687011718750e+00 -4.179527759552001953e+00 6.139814257621765137e-01
-8.234546661376953125e+00 -3.662866592407226562e+00 5.938670635223388672e-01
-7.013117790222167969e+00 -3.750999689102172852e+00 3.736734688282012939e-01
-7.229728698730468750e+00 -4.207855224609375000e+00 3.140445351600646973e-01
-8.440303802490234375e+00 -3.752626180648803711e+00 2.741457521915435791e-01
-1.083968353271484375e+01 -5.790359497070312500e+00 1.308431327342987061e-01
-6.543863773345947266e+00 -3.805609941482543945e+00 9.248497895896434784e-03
-7.732577800750732422e+00 -3.742862224578857422e+00 2.434189558029174805e+00
-6.951774120330810547e+00 -3.689906358718872070e+00 2.147182226181030273e+00
-8.830109596252441406e+00 -5.114261150360107422e+00 2.682743549346923828e+00
-8.669510841369628906e+00 -3.801814794540405273e+00 2.404179334640502930e+00
-7.673314571380615234e+00 -3.710870981216430664e+00 2.073081731796264648e+00
-6.994742870330810547e+00 -3.708020687103271484e+00 1.845212221145629883e+00
-9.543414115905761719e+00 -5.516279220581054688e+00 2.463927984237670898e+00
-8.470713615417480469e+00 -3.716399908065795898e+00 1.986430287361145020e+00
-7.574935913085937500e+00 -3.660032272338867188e+00 1.720783472061157227e+00
-6.988193035125732422e+00 -3.698301076889038086e+00 1.539726495742797852e+00
-9.628307342529296875e+00 -5.554145812988281250e+00 2.056110620498657227e+00
-8.410586357116699219e+00 -3.688269376754760742e+00 1.622648715972900391e+00
-7.600372314453125000e+00 -3.669050693511962891e+00 1.406255841255187988e+00
-6.706549167633056641e+00 -3.547751188278198242e+00 1.190824270248413086e+00
-9.741333961486816406e+00 -5.610285758972167969e+00 1.657979607582092285e+00
-8.396334648132324219e+00 -3.680272817611694336e+00 1.276987075805664062e+00
-7.555077552795410156e+00 -3.643933534622192383e+00 1.086425304412841797e+00
-6.648475170135498047e+00 -3.509608030319213867e+00 9.031159281730651855e-01
-6.780550003051757812e+00 -3.900367259979248047e+00 8.649743199348449707e-01
-8.479192733764648438e+00 -3.713063240051269531e+00 9.484071135520935059e-01
-6.898198604583740234e+00 -3.638354063034057617e+00 6.507794260978698730e-01
-6.992123126983642578e+00 -4.017199039459228516e+00 5.964264869689941406e-01
-8.409534454345703125e+00 -3.679061651229858398e+00 6.048475503921508789e-01
-7.573559761047363281e+00 -3.646332740783691406e+00 4.743625223636627197e-01
-7.039536476135253906e+00 -3.709760189056396484e+00 3.738612234592437744e-01
-7.302214622497558594e+00 -4.190272808074951172e+00 3.160704076290130615e-01
-8.492477416992187500e+00 -3.713582277297973633e+00 2.750951051712036133e-01
-1.011136913299560547e+01 -5.321820259094238281e+00 1.216553673148155212e-01
-6.722376823425292969e+00 -3.854422330856323242e+00 9.467187337577342987e-03
-7.876128196716308594e+00 -3.752871751785278320e+00 2.472083091735839844e+00
-7.208527088165283203e+00 -3.769678354263305664e+00 2.219299077987670898e+00
-6.280445098876953125e+00 -3.586253404617309570e+00 1.901389002799987793e+00
-8.730054855346679688e+00 -3.764667510986328125e+00 2.414517641067504883e+00
-7.801218986511230469e+00 -3.713837862014770508e+00 2.101441144943237305e+00
-7.183106899261474609e+00 -3.751596450805664062e+00 1.888794422149658203e+00
-6.293147563934326172e+00 -3.586227893829345703e+00 1.619059205055236816e+00
-8.854243278503417969e+00 -3.820054054260253906e+00 2.070834398269653320e+00
-7.733500003814697266e+00 -3.678288698196411133e+00 1.751644015312194824e+00
-7.144789695739746094e+00 -3.725237846374511719e+00 1.569163918495178223e+00
-6.279920578002929688e+00 -3.571434020996093750e+00 1.336362719535827637e+00
-8.552419662475585938e+00 -3.688065767288208008e+00 1.645615696907043457e+00
-7.703815937042236328e+00 -3.660873174667358398e+00 1.421212434768676758e+00
-7.180242061614990234e+00 -3.742128849029541016e+00 1.270832777023315430e+00
-6.267276287078857422e+00 -3.558454751968383789e+00 1.062957048416137695e+00
-8.474241256713867188e+00 -3.652598619461059570e+00 1.285402774810791016e+00
-7.705404281616210938e+00 -3.658331394195556641e+00 1.104793667793273926e+00
-7.171975612640380859e+00 -3.729865550994873047e+00 9.711000323295593262e-01
-6.230264186859130859e+00 -3.533127546310424805e+00 7.919955849647521973e-01
-8.542932510375976562e+00 -3.678670883178710938e+00 9.529936909675598145e-01
-7.099902629852294922e+00 -3.689235210418701172e+00 6.676601171493530273e-01
-6.288597106933593750e+00 -3.561857223510742188e+00 5.345414876937866211e-01
-8.607941627502441406e+00 -3.703102827072143555e+00 6.174718737602233887e-01
-7.066598892211914062e+00 -3.668797731399536133e+00 3.740958571434020996e-01
-7.616550922393798828e+00 -4.308743476867675781e+00 3.285256326198577881e-01
-8.627132415771484375e+00 -3.709574460983276367e+00 2.787143886089324951e-01
-1.055839157104492188e+01 -5.474630832672119141e+00 1.266271919012069702e-01
-6.977467060089111328e+00 -3.943994283676147461e+00 9.792167693376541138e-03
-8.032282829284667969e+00 -3.766978025436401367e+00 2.513793230056762695e+00
-7.246101379394531250e+00 -3.732887744903564453e+00 2.223773479461669922e+00
-6.317502021789550781e+00 -3.556189298629760742e+00 1.905965805053710938e+00
-8.777976989746093750e+00 -3.721623659133911133e+00 2.421410083770751953e+00
-7.927685260772705078e+00 -3.714548349380493164e+00 2.129328012466430664e+00
-7.216382980346679688e+00 -3.712797880172729492e+00 1.891518354415893555e+00
-6.302270889282226562e+00 -3.540376901626586914e+00 1.615787148475646973e+00
-8.837012290954589844e+00 -3.748472690582275391e+00 2.061386108398437500e+00
-7.917413234710693359e+00 -3.706365346908569336e+00 1.788115739822387695e+00
-7.177990436553955078e+00 -3.686709642410278320e+00 1.571457743644714355e+00
-6.294854640960693359e+00 -3.528987169265747070e+00 1.334907531738281250e+00
-8.748054504394531250e+00 -3.708937406539916992e+00 1.678848147392272949e+00
-7.844969749450683594e+00 -3.669114589691162109e+00 1.443072199821472168e+00
-7.231191635131835938e+00 -3.712439775466918945e+00 1.275794625282287598e+00
-6.270863533020019531e+00 -3.509785890579223633e+00 1.059893012046813965e+00
-8.630547523498535156e+00 -3.657341003417968750e+00 1.305683374404907227e+00
-7.866069793701171875e+00 -3.675637245178222656e+00 1.124574780464172363e+00
-7.208865165710449219e+00 -3.693031787872314453e+00 9.730083346366882324e-01
-6.226665973663330078e+00 -3.480768203735351562e+00 7.888082265853881836e-01
-8.680769920349121094e+00 -3.675049543380737305e+00 9.658362269401550293e-01
-7.679782867431640625e+00 -3.585324048995971680e+00 7.877377271652221680e-01
-7.117083549499511719e+00 -3.642877340316772461e+00 6.671612262725830078e-01
-6.332102298736572266e+00 -3.535358190536499023e+00 5.363854765892028809e-01
-8.704022407531738281e+00 -3.681311368942260742e+00 6.227319836616516113e-01
-7.269515037536621094e+00 -3.717697620391845703e+00 3.836231231689453125e-01
-7.657682895660400391e+00 -4.270202159881591797e+00 3.291634023189544678e-01
-8.749163627624511719e+00 -3.698603630065917969e+00 2.819183170795440674e-01
-8.837536811828613281e+00 -4.118311882019042969e+00 1.974237561225891113e-01
-1.020619106292724609e+01 -5.212801456451416016e+00 1.220173314213752747e-01
-6.852157592773437500e+00 -3.817877054214477539e+00 9.583251550793647766e-03
-8.238697052001953125e+00 -3.802287340164184570e+00 2.571042776107788086e+00
-7.305003166198730469e+00 -3.706691026687622070e+00 2.234827756881713867e+00
-6.405166625976562500e+00 -3.553959131240844727e+00 1.925798416137695312e+00
-9.151348114013671875e+00 -3.813848495483398438e+00 2.517902135848999023e+00
-8.023567199707031250e+00 -3.699604749679565430e+00 2.148943424224853516e+00
-7.265958786010742188e+00 -3.682096242904663086e+00 1.898555040359497070e+00
-6.423766613006591797e+00 -3.556951522827148438e+00 1.641309738159179688e+00
-8.540392875671386719e+00 -3.560981035232543945e+00 1.987060308456420898e+00
-8.057464599609375000e+00 -3.711824655532836914e+00 1.814567685127258301e+00
-7.221497058868408203e+00 -3.653231143951416016e+00 1.576045393943786621e+00
-6.325857162475585938e+00 -3.495527744293212891e+00 1.336908459663391113e+00
-8.637937545776367188e+00 -3.599883556365966797e+00 1.653445363044738770e+00
-7.986509799957275391e+00 -3.675759315490722656e+00 1.464931845664978027e+00
-7.280282497406005859e+00 -3.681373834609985352e+00 1.280446171760559082e+00
-6.283618927001953125e+00 -3.466463804244995117e+00 1.058433771133422852e+00
-8.577854156494140625e+00 -3.573086500167846680e+00 1.294370293617248535e+00
-8.007410049438476562e+00 -3.681991815567016602e+00 1.141530156135559082e+00
-7.234935760498046875e+00 -3.650518894195556641e+00 9.734854698181152344e-01
-6.246165275573730469e+00 -3.441537141799926758e+00 7.885884046554565430e-01
-8.696726799011230469e+00 -3.619040727615356445e+00 9.651227593421936035e-01
-8.002935409545898438e+00 -3.676550626754760742e+00 8.185549974441528320e-01
-7.149090290069580078e+00 -3.604073762893676758e+00 6.680759191513061523e-01
-6.290768146514892578e+00 -3.461820363998413086e+00 5.310747623443603516e-01
-8.600216865539550781e+00 -3.575357675552368164e+00 6.137239933013916016e-01
-7.242229938507080078e+00 -3.647858381271362305e+00 3.809948861598968506e-01
-8.762651443481445312e+00 -4.816125869750976562e+00 3.753828406333923340e-01
-8.958148956298828125e+00 -3.722326755523681641e+00 2.879109382629394531e-01
-1.216704368591308594e+01 -5.579259395599365234e+00 2.710325121879577637e-01
-1.155737209320068359e+01 -5.813779354095458984e+00 1.377419382333755493e-01
-6.793061733245849609e+00 -3.730513572692871094e+00 9.468409232795238495e-03
-8.384515762329101562e+00 -3.807356119155883789e+00 2.609208822250366211e+00
-7.464824676513671875e+00 -3.730368375778198242e+00 2.276676654815673828e+00
-6.542254447937011719e+00 -3.577699422836303711e+00 1.960378408432006836e+00
-9.348579406738281250e+00 -3.828891277313232422e+00 2.565655946731567383e+00
-8.216896057128906250e+00 -3.727781534194946289e+00 2.194555044174194336e+00
-7.348541736602783203e+00 -3.667451620101928711e+00 1.914217591285705566e+00
-6.551695823669433594e+00 -3.575438976287841797e+00 1.668359518051147461e+00
-8.588317871093750000e+00 -3.519261837005615234e+00 1.993148922920227051e+00
-8.161291122436523438e+00 -3.699120521545410156e+00 1.832803726196289062e+00
-7.319333553314208984e+00 -3.646494150161743164e+00 1.592484354972839355e+00
-6.525943279266357422e+00 -3.553997516632080078e+00 1.374560117721557617e+00
-8.572381019592285156e+00 -3.510984182357788086e+00 1.636742234230041504e+00
-8.092480659484863281e+00 -3.664527416229248047e+00 1.480217337608337402e+00
-7.366405010223388672e+00 -3.668340444564819336e+00 1.291610121726989746e+00
-6.412544250488281250e+00 -3.486438512802124023e+00 1.076526761054992676e+00
-8.573036193847656250e+00 -3.509505033493041992e+00 1.290369510650634766e+00
-8.122014045715332031e+00 -3.674485206604003906e+00 1.154631972312927246e+00
-7.337221622467041016e+00 -3.645820379257202148e+00 9.842198491096496582e-01
-6.378969192504882812e+00 -3.463857889175415039e+00 8.026566505432128906e-01
-8.571445465087890625e+00 -3.505361080169677734e+00 9.488147497177124023e-01
-8.144204139709472656e+00 -3.681100130081176758e+00 8.306783437728881836e-01
-7.271932125091552734e+00 -3.610213994979858398e+00 6.774725317955017090e-01
-6.543326854705810547e+00 -3.548671245574951172e+00 5.505474805831909180e-01
-8.578577995300292969e+00 -3.504783391952514648e+00 6.106336712837219238e-01
-8.040207862854003906e+00 -3.630715608596801758e+00 4.978580772876739502e-01
-7.494455814361572266e+00 -3.717427492141723633e+00 3.930564224720001221e-01
-8.702412605285644531e+00 -4.713722705841064453e+00 3.715562224388122559e-01
-9.025238037109375000e+00 -3.685428380966186523e+00 2.893348932266235352e-01
-8.471837043762207031e+00 -3.822066307067871094e+00 1.881922930479049683e-01
-1.106596183776855469e+01 -5.481761455535888672e+00 1.314819008111953735e-01
-6.819341182708740234e+00 -3.690665721893310547e+00 9.473295882344245911e-03
-8.529825210571289062e+00 -3.810384035110473633e+00 2.647102355957031250e+00
-7.596640110015869141e+00 -3.738164663314819336e+00 2.309839725494384766e+00
-6.637301445007324219e+00 -3.576947927474975586e+00 1.982245206832885742e+00
-9.583199501037597656e+00 -3.856489896774291992e+00 2.623502016067504883e+00
-8.394006729125976562e+00 -3.746197938919067383e+00 2.235676288604736328e+00
-7.531732559204101562e+00 -3.701327800750732422e+00 1.955983996391296387e+00
-6.617346286773681641e+00 -3.558745145797729492e+00 1.679484844207763672e+00
-8.331476211547851562e+00 -3.714804172515869141e+00 1.865868687629699707e+00
-7.446437358856201172e+00 -3.652959108352661133e+00 1.615231513977050781e+00
-6.672393798828125000e+00 -3.580846071243286133e+00 1.400752544403076172e+00
-8.717092514038085938e+00 -3.507949590682983398e+00 1.660231113433837891e+00
-8.319351196289062500e+00 -3.705916643142700195e+00 1.517526865005493164e+00
-7.443769454956054688e+00 -3.650038480758666992e+00 1.301223635673522949e+00
-6.664031028747558594e+00 -3.570368051528930664e+00 1.115047097206115723e+00
-8.605435371398925781e+00 -3.461271047592163086e+00 1.292025089263916016e+00
-8.327426910400390625e+00 -3.706031322479248047e+00 1.180578708648681641e+00
-7.412963867187500000e+00 -3.626912117004394531e+00 9.913759827613830566e-01
-6.524546623229980469e+00 -3.491241216659545898e+00 8.182635307312011719e-01
-8.643561363220214844e+00 -3.473101377487182617e+00 9.544206261634826660e-01
-8.313119888305664062e+00 -3.696187973022460938e+00 8.455779552459716797e-01
-7.404068470001220703e+00 -3.619357347488403320e+00 6.877007484436035156e-01
-6.618630886077880859e+00 -3.537128686904907227e+00 5.550469160079956055e-01
-8.644370079040527344e+00 -3.469922065734863281e+00 6.137897372245788574e-01
-8.415449142456054688e+00 -3.738168001174926758e+00 5.196633338928222656e-01
-7.565593719482421875e+00 -3.695044755935668945e+00 3.955908119678497314e-01
-8.720592498779296875e+00 -4.654590606689453125e+00 3.711060285568237305e-01
-8.690691947937011719e+00 -3.856800079345703125e+00 1.925245970487594604e-01
-1.200351810455322266e+01 -5.854750156402587891e+00 1.421920955181121826e-01
-6.841858386993408203e+00 -3.648753404617309570e+00 9.473295882344245911e-03
-7.757480144500732422e+00 -3.758363246917724609e+00 2.351688623428344727e+00
-6.970043182373046875e+00 -3.701260328292846680e+00 2.074797391891479492e+00
-9.690507888793945312e+00 -3.830753087997436523e+00 2.646394252777099609e+00
-8.512036323547363281e+00 -3.736412048339843750e+00 2.260963678359985352e+00
-7.636709213256835938e+00 -3.694915771484375000e+00 1.977321147918701172e+00
-6.997786045074462891e+00 -3.708167314529418945e+00 1.770232558250427246e+00
-9.165456771850585938e+00 -3.625045061111450195e+00 2.116605520248413086e+00
-8.411535263061523438e+00 -3.688795089721679688e+00 1.878693699836730957e+00
-7.611013889312744141e+00 -3.675928354263305664e+00 1.646006703376770020e+00
-6.932419776916503906e+00 -3.665784358978271484e+00 1.450591087341308594e+00
-8.891388893127441406e+00 -3.514853715896606445e+00 1.689287781715393066e+00
-8.415115356445312500e+00 -3.686863183975219727e+00 1.530839800834655762e+00
-7.565667629241943359e+00 -3.652399063110351562e+00 1.318589806556701660e+00
-6.767176628112792969e+00 -3.572362422943115234e+00 1.128616690635681152e+00
-8.818109512329101562e+00 -3.484105825424194336e+00 1.320721387863159180e+00
-8.419965744018554688e+00 -3.685485363006591797e+00 1.190469384193420410e+00
-7.584459781646728516e+00 -3.653313159942626953e+00 1.011294126510620117e+00
-6.701468944549560547e+00 -3.533190250396728516e+00 8.377171754837036133e-01
-8.857175827026367188e+00 -3.495967626571655273e+00 9.756209254264831543e-01
-8.458803176879882812e+00 -3.698966979980468750e+00 8.580714464187622070e-01
-6.926996231079101562e+00 -3.647460222244262695e+00 5.790190100669860840e-01
-8.491291999816894531e+00 -3.709644079208374023e+00 5.229312777519226074e-01
-7.714156627655029297e+00 -3.709153413772583008e+00 4.021612703800201416e-01
-8.738374710083007812e+00 -4.595412731170654297e+00 3.706558346748352051e-01
-8.647302627563476562e+00 -3.774207115173339844e+00 1.910467445850372314e-01
-1.019132804870605469e+01 -4.893669128417968750e+00 1.203671544790267944e-01
-7.034083366394042969e+00 -3.696011304855346680e+00 9.707869030535221100e-03
-7.841349124908447266e+00 -3.739764213562011719e+00 2.370112419128417969e+00
-7.182862281799316406e+00 -3.757953405380249023e+00 2.131243944168090820e+00
-8.706978797912597656e+00 -3.758434295654296875e+00 2.306575059890747070e+00
-7.765627861022949219e+00 -3.698660850524902344e+00 2.004787206649780273e+00
-7.129411220550537109e+00 -3.722067832946777344e+00 1.797718524932861328e+00
-9.398965835571289062e+00 -3.650868177413940430e+00 2.165316104888916016e+00
-8.764174461364746094e+00 -3.779494524002075195e+00 1.952238440513610840e+00
-7.727391719818115234e+00 -3.673833370208740234e+00 1.666268825531005859e+00
-7.160591125488281250e+00 -3.730397701263427734e+00 1.493517756462097168e+00
-8.539946556091308594e+00 -3.679262399673461914e+00 1.549412369728088379e+00
-7.694116592407226562e+00 -3.656367063522338867e+00 1.337041378021240234e+00
-7.183053493499755859e+00 -3.735726356506347656e+00 1.194130420684814453e+00
-9.011988639831542969e+00 -3.496933937072753906e+00 1.346520423889160156e+00
-8.565395355224609375e+00 -3.686682224273681641e+00 1.207810044288635254e+00
-7.692857742309570312e+00 -3.647542953491210938e+00 1.022744178771972656e+00
-7.164049625396728516e+00 -3.721078634262084961e+00 8.926711082458496094e-01
-9.085302352905273438e+00 -3.521733283996582031e+00 9.983500242233276367e-01
-8.553604125976562500e+00 -3.678068637847900391e+00 8.653824925422668457e-01
-7.666770935058593750e+00 -3.631896257400512695e+00 7.079076766967773438e-01
-7.097969055175781250e+00 -3.682037830352783203e+00 5.914107561111450195e-01
-8.672595977783203125e+00 -3.725648880004882812e+00 5.326788425445556641e-01
-7.799971580505371094e+00 -3.691663026809692383e+00 4.054464995861053467e-01
-8.784153938293457031e+00 -4.550902366638183594e+00 3.714061677455902100e-01
-8.684997558593750000e+00 -3.727385997772216797e+00 1.913706511259078979e-01
-1.188280296325683594e+01 -5.616420269012451172e+00 1.399350762367248535e-01
-7.097480773925781250e+00 -3.673927545547485352e+00 9.764067828655242920e-03
-7.993398666381835938e+00 -3.752252817153930664e+00 2.409066200256347656e+00
-7.228996753692626953e+00 -3.725772619247436523e+00 2.138109207153320312e+00
-8.723615646362304688e+00 -3.702281236648559570e+00 2.304920911788940430e+00
-7.879884719848632812e+00 -3.693933486938476562e+00 2.028394222259521484e+00
-7.219809055328369141e+00 -3.713066816329956055e+00 1.814733624458312988e+00
-9.718998908996582031e+00 -3.706709623336791992e+00 2.233763217926025391e+00
-8.800730705261230469e+00 -3.731384038925170898e+00 1.955244421958923340e+00
-7.831580638885498047e+00 -3.664622545242309570e+00 1.683854818344116211e+00
-7.195593357086181641e+00 -3.692676305770874023e+00 1.496064186096191406e+00
-9.479507446289062500e+00 -3.613475322723388672e+00 1.792464852333068848e+00
-8.739476203918457031e+00 -3.701814413070678711e+00 1.581462502479553223e+00
-7.825581073760986328e+00 -3.660150289535522461e+00 1.355958223342895508e+00
-7.224330425262451172e+00 -3.701054096221923828e+00 1.197194576263427734e+00
-9.318343162536621094e+00 -3.550178527832031250e+00 1.389013171195983887e+00
-8.712064743041992188e+00 -3.686617374420166016e+00 1.225279211997985840e+00
-7.836555480957031250e+00 -3.656952142715454102e+00 1.038845658302307129e+00
-7.150467872619628906e+00 -3.658488750457763672e+00 8.881648778915405273e-01
-9.267584800720214844e+00 -3.527136087417602539e+00 1.015982985496520996e+00
-8.612695693969726562e+00 -3.641024112701416016e+00 8.690842986106872559e-01
-7.623880863189697266e+00 -3.554466485977172852e+00 7.019203901290893555e-01
-7.110658645629882812e+00 -3.633424282073974609e+00 5.905993580818176270e-01
-8.757835388183593750e+00 -3.698779106140136719e+00 5.365102291107177734e-01
-7.927512645721435547e+00 -3.692660093307495117e+00 4.108906388282775879e-01
-8.768298149108886719e+00 -4.474660873413085938e+00 3.695679008960723877e-01
-1.235337924957275391e+01 -4.694150447845458984e+00 3.922174274921417236e-01
-8.883646011352539062e+00 -3.748260259628295898e+00 1.952373385429382324e-01
-1.195512008666992188e+01 -5.561116218566894531e+00 1.403822153806686401e-01
-7.022784233093261719e+00 -3.580796480178833008e+00 9.630898945033550262e-03
-8.118741035461425781e+00 -3.750471591949462891e+00 2.439860343933105469e+00
-7.306913852691650391e+00 -3.709364414215087891e+00 2.154382228851318359e+00
-8.526460647583007812e+00 -3.557027816772460938e+00 2.247020244598388672e+00
-8.051854133605957031e+00 -3.714458465576171875e+00 2.066755771636962891e+00
-7.253774166107177734e+00 -3.674430131912231445e+00 1.817569613456726074e+00
-1.022593688964843750e+01 -3.828343868255615234e+00 2.344831705093383789e+00
-8.557589530944824219e+00 -3.566507577896118164e+00 1.896328449249267578e+00
-8.034018516540527344e+00 -3.699430465698242188e+00 1.722467541694641113e+00
-7.240055084228515625e+00 -3.659544706344604492e+00 1.500611424446105957e+00
-9.825228691101074219e+00 -3.676373243331909180e+00 1.853536128997802734e+00
-8.618146896362304688e+00 -3.588215589523315430e+00 1.555493712425231934e+00
-7.978016376495361328e+00 -3.671955585479736328e+00 1.378441095352172852e+00
-7.342293262481689453e+00 -3.704788684844970703e+00 1.212952971458435059e+00
-9.667424201965332031e+00 -3.615403175354003906e+00 1.437714099884033203e+00
-8.670425415039062500e+00 -3.606431245803833008e+00 1.216287732124328613e+00
-8.014038085937500000e+00 -3.680063486099243164e+00 1.059360146522521973e+00
-7.195858955383300781e+00 -3.626174926757812500e+00 8.910225033760070801e-01
-9.573277473449707031e+00 -3.576386213302612305e+00 1.047070026397705078e+00
-8.587980270385742188e+00 -3.568622827529907227e+00 8.643644452095031738e-01
-7.153308868408203125e+00 -3.600037336349487305e+00 5.922958850860595703e-01
-9.498183250427246094e+00 -3.544554471969604492e+00 6.680347323417663574e-01
-8.751780509948730469e+00 -3.633105754852294922e+00 5.347635746002197266e-01
-8.107114791870117188e+00 -3.715953350067138672e+00 4.190098941326141357e-01
-8.784873962402343750e+00 -4.415390014648437500e+00 3.691177070140838623e-01
-3.497027397155761719e+00 -1.304333686828613281e+00 1.107737645506858826e-01
-8.931412696838378906e+00 -3.704021930694580078e+00 1.957839578390121460e-01
-1.159714221954345703e+01 -5.308285713195800781e+00 1.357936561107635498e-01
-7.127732753753662109e+00 -3.579373598098754883e+00 9.744520299136638641e-03
-8.291785240173339844e+00 -3.768848180770874023e+00 2.484867334365844727e+00
-7.411715984344482422e+00 -3.705546617507934570e+00 2.178537368774414062e+00
-8.799858093261718750e+00 -3.607851266860961914e+00 2.313192367553710938e+00
-8.213724136352539062e+00 -3.728179454803466797e+00 2.102393150329589844e+00
-7.376610755920410156e+00 -3.679952621459960938e+00 1.842656016349792480e+00
-1.053006076812744141e+01 -3.868701219558715820e+00 2.409079551696777344e+00
-8.562086105346679688e+00 -3.506876707077026367e+00 1.892521023750305176e+00
-8.143292427062988281e+00 -3.689356565475463867e+00 1.741009235382080078e+00
-7.306387901306152344e+00 -3.636961221694946289e+00 1.509706020355224609e+00
-8.551446914672851562e+00 -3.499033689498901367e+00 1.539550900459289551e+00
-8.102989196777343750e+00 -3.669392824172973633e+00 1.396117448806762695e+00
-7.342737674713134766e+00 -3.648661375045776367e+00 1.209305167198181152e+00
-9.897700309753417969e+00 -3.632453680038452148e+00 1.468617916107177734e+00
-8.609771728515625000e+00 -3.519390821456909180e+00 1.204727292060852051e+00
-8.141425132751464844e+00 -3.678240060806274414e+00 1.073195576667785645e+00
-7.357756137847900391e+00 -3.651321649551391602e+00 9.082779288291931152e-01
-9.783710479736328125e+00 -3.586745023727416992e+00 1.067658662796020508e+00
-8.603262901306152344e+00 -3.513225793838500977e+00 8.637166619300842285e-01
-7.333423137664794922e+00 -3.634462118148803711e+00 6.053515076637268066e-01
-8.605658531188964844e+00 -3.510699748992919922e+00 5.245088934898376465e-01
-8.032329559326171875e+00 -3.622200965881347656e+00 4.139881432056427002e-01
-8.802845001220703125e+00 -4.356971263885498047e+00 3.687425553798675537e-01
-3.502148866653442383e+00 -1.281821012496948242e+00 1.106847599148750305e-01
-9.076185226440429688e+00 -3.698957443237304688e+00 1.984562128782272339e-01
-1.176352310180664062e+01 -5.297382831573486328e+00 1.373586654663085938e-01
-7.137907981872558594e+00 -3.529808521270751953e+00 9.728637523949146271e-03
-8.460071563720703125e+00 -3.782877922058105469e+00 2.528295516967773438e+00
-7.567935943603515625e+00 -3.725783348083496094e+00 2.217693805694580078e+00
-9.505007743835449219e+00 -3.829000234603881836e+00 2.492330074310302734e+00
-8.379618644714355469e+00 -3.741640090942382812e+00 2.138938903808593750e+00
-7.496280670166015625e+00 -3.682382822036743164e+00 1.866869926452636719e+00
-1.079826259613037109e+01 -3.892204999923706055e+00 2.464928865432739258e+00
-8.811571121215820312e+00 -3.546081542968750000e+00 1.942819952964782715e+00
-8.324465751647949219e+00 -3.710045576095581055e+00 1.774843096733093262e+00
-7.451297760009765625e+00 -3.652217864990234375e+00 1.534989118576049805e+00
-1.124447345733642578e+01 -4.050823211669921875e+00 2.111740350723266602e+00
-8.721018791198730469e+00 -3.506103515625000000e+00 1.566177010536193848e+00
-8.268836021423339844e+00 -3.683522462844848633e+00 1.420771121978759766e+00
-7.432523727416992188e+00 -3.636582612991333008e+00 1.220394372940063477e+00
-1.116571807861328125e+01 -4.020249843597412109e+00 1.653074622154235840e+00
-8.641326904296875000e+00 -3.470561504364013672e+00 1.206140160560607910e+00
-8.283604621887207031e+00 -3.681441545486450195e+00 1.088939189910888672e+00
-7.449678421020507812e+00 -3.640142917633056641e+00 9.168507456779479980e-01
-8.683800697326660156e+00 -3.484100103378295898e+00 8.696395158767700195e-01
-7.428182125091552734e+00 -3.624822378158569336e+00 6.113260388374328613e-01
-1.126040363311767578e+01 -4.045463562011718750e+00 7.884255647659301758e-01
-8.690056800842285156e+00 -3.483089208602905273e+00 5.283403396606445312e-01
-8.469861030578613281e+00 -3.757139921188354492e+00 4.353422522544860840e-01
-8.818633079528808594e+00 -4.297622680664062500e+00 3.682923614978790283e-01
-3.467613935470581055e+00 -1.245107412338256836e+00 1.093497797846794128e-01
-8.597718238830566406e+00 -3.808469533920288086e+00 1.001178771257400513e-01
-7.159431934356689453e+00 -3.485944747924804688e+00 9.728637523949146271e-03
-8.650030136108398438e+00 -3.804302453994750977e+00 2.578040122985839844e+00
-7.699440479278564453e+00 -3.732007265090942383e+00 2.249476909637451172e+00
-9.666559219360351562e+00 -3.825309991836547852e+00 2.528488397598266602e+00
-8.458595275878906250e+00 -3.714824676513671875e+00 2.153239250183105469e+00
-7.635582447052001953e+00 -3.692829132080078125e+00 1.895882964134216309e+00
-8.918807983398437500e+00 -3.525804996490478516e+00 1.961656928062438965e+00
-8.399214744567871094e+00 -3.681753396987915039e+00 1.785929799079895020e+00
-7.626775741577148438e+00 -3.680360794067382812e+00 1.566456556320190430e+00
-1.126261711120605469e+01 -3.979455232620239258e+00 2.110522031784057617e+00
-8.891912460327148438e+00 -3.511584043502807617e+00 1.592967629432678223e+00
-8.468635559082031250e+00 -3.710421800613403320e+00 1.451161980628967285e+00
-7.550065040588378906e+00 -3.636847257614135742e+00 1.236006855964660645e+00
-1.128637027740478516e+01 -3.985632419586181641e+00 1.667284846305847168e+00
-8.840505599975585938e+00 -3.487715959548950195e+00 1.230930924415588379e+00
-8.421575546264648438e+00 -3.681046485900878906e+00 1.104086518287658691e+00
-7.540842533111572266e+00 -3.627541542053222656e+00 9.253137111663818359e-01
-1.126046276092529297e+01 -3.972063302993774414e+00 1.223399281501770020e+00
-8.902330398559570312e+00 -3.508516073226928711e+00 8.893514871597290039e-01
-7.591415405273437500e+00 -3.646976232528686523e+00 6.229064464569091797e-01
-1.127842617034912109e+01 -3.973973751068115234e+00 7.879652976989746094e-01
-8.989965438842773438e+00 -3.539429187774658203e+00 5.452436208724975586e-01
-8.500080108642578125e+00 -3.708294868469238281e+00 4.357177317142486572e-01
-8.780868530273437500e+00 -4.212741374969482422e+00 3.656287491321563721e-01
-3.494044780731201172e+00 -1.230447411537170410e+00 1.099431067705154419e-01
-8.532001495361328125e+00 -3.716904640197753906e+00 9.908518195152282715e-02
-7.188802719116210938e+00 -3.445840120315551758e+00 9.739633649587631226e-03
-8.852076530456542969e+00 -3.828514575958251953e+00 2.631206512451171875e+00
-7.831302642822265625e+00 -3.736755371093750000e+00 2.281260013580322266e+00
-9.972420692443847656e+00 -3.875745534896850586e+00 2.602223396301269531e+00
-8.687762260437011719e+00 -3.752050399780273438e+00 2.205674171447753906e+00
-7.742689132690429688e+00 -3.686181068420410156e+00 1.916824817657470703e+00
-8.605530738830566406e+00 -3.709410190582275391e+00 1.824924826622009277e+00
-7.730929374694824219e+00 -3.672310352325439453e+00 1.583190560340881348e+00
-1.131287670135498047e+01 -3.919300556182861328e+00 2.115394115447998047e+00
-9.156080245971679688e+00 -3.551122188568115234e+00 1.636358380317687988e+00
-8.558382034301757812e+00 -3.687315702438354492e+00 1.462636113166809082e+00
-7.666991710662841797e+00 -3.635380744934082031e+00 1.251473307609558105e+00
-1.130780506134033203e+01 -3.915333032608032227e+00 1.666870951652526855e+00
-9.093848228454589844e+00 -3.523334741592407227e+00 1.263171792030334473e+00
-8.615492820739746094e+00 -3.703011035919189453e+00 1.126509428024291992e+00
-7.697706699371337891e+00 -3.645009279251098633e+00 9.417998790740966797e-01
-1.131564807891845703e+01 -3.913625955581665039e+00 1.226762771606445312e+00
-9.082477569580078125e+00 -3.515283346176147461e+00 9.051765203475952148e-01
-8.596483230590820312e+00 -3.691285610198974609e+00 7.806692123413085938e-01
-7.811090946197509766e+00 -3.693693161010742188e+00 6.390599608421325684e-01
-1.130637168884277344e+01 -3.905999183654785156e+00 7.882283926010131836e-01
-9.093461990356445312e+00 -3.515885591506958008e+00 5.502018928527832031e-01
-8.657619476318359375e+00 -3.713958740234375000e+00 4.426167607307434082e-01
-8.791190147399902344e+00 -4.151529788970947266e+00 3.649909496307373047e-01
-1.026365661621093750e+01 -3.543768644332885742e+00 3.222644329071044922e-01
-8.720097541809082031e+00 -3.735355615615844727e+00 1.010015234351158142e-01
-7.300249576568603516e+00 -3.444335699081420898e+00 9.861806407570838928e-03
-7.926741600036621094e+00 -3.722756624221801758e+00 2.302363872528076172e+00
-1.011584568023681641e+01 -3.860210895538330078e+00 2.633418798446655273e+00
-8.753649711608886719e+00 -3.716943502426147461e+00 2.216569900512695312e+00
-7.882694244384765625e+00 -3.693677186965942383e+00 1.945837736129760742e+00
-9.689190864562988281e+00 -3.693525075912475586e+00 2.120970249176025391e+00
-8.758268356323242188e+00 -3.711689949035644531e+00 1.852450489997863770e+00
-7.858428478240966797e+00 -3.673946619033813477e+00 1.604653954505920410e+00
-1.146259212493896484e+01 -3.892559528350830078e+00 2.138882875442504883e+00
-9.374046325683593750e+00 -3.569644689559936523e+00 1.671366810798645020e+00
-8.734578132629394531e+00 -3.699852228164672852e+00 1.488840460777282715e+00
-7.841556072235107422e+00 -3.659389734268188477e+00 1.276278018951416016e+00
-1.135975265502929688e+01 -3.855425357818603516e+00 1.671009778976440430e+00
-9.344244003295898438e+00 -3.554561614990234375e+00 1.294898748397827148e+00
-8.827366828918457031e+00 -3.730073928833007812e+00 1.151198387145996094e+00
-7.885694980621337891e+00 -3.674961090087890625e+00 9.620229005813598633e-01
-1.135923290252685547e+01 -3.850827693939208984e+00 1.228903174400329590e+00
-9.334707260131835938e+00 -3.547204494476318359e+00 9.281275272369384766e-01
-9.117489814758300781e+00 -3.848917484283447266e+00 8.258230090141296387e-01
-1.132634449005126953e+01 -3.835270881652832031e+00 7.879652976989746094e-01
-9.414492607116699219e+00 -3.573762655258178711e+00 5.682884454727172852e-01
-8.762160301208496094e+00 -3.695312976837158203e+00 4.467937052249908447e-01
-8.550073623657226562e+00 -3.973687410354614258e+00 3.539613485336303711e-01
-1.026248359680175781e+01 -3.473035097122192383e+00 3.215524256229400635e-01
-3.471992969512939453e+00 -1.316589951515197754e+00 7.518783956766128540e-02
-8.755754470825195312e+00 -3.687212944030761719e+00 1.011505722999572754e-01
-7.308548450469970703e+00 -3.393581390380859375e+00 9.844702668488025665e-03
-8.147841453552246094e+00 -3.765748023986816406e+00 2.359827756881713867e+00
-8.554300308227539062e+00 -3.570504665374755859e+00 2.160503149032592773e+00
-7.953066349029541016e+00 -3.667307853698730469e+00 1.957617402076721191e+00
-9.927303314208984375e+00 -3.714690685272216797e+00 2.168062686920166016e+00
-8.576103210449218750e+00 -3.572576522827148438e+00 1.809250235557556152e+00
-8.003207206726074219e+00 -3.681963205337524414e+00 1.629573106765747070e+00
-9.801392555236816406e+00 -3.663676500320434570e+00 1.743520498275756836e+00
-8.617578506469726562e+00 -3.588089227676391602e+00 1.465116977691650391e+00
-7.925894737243652344e+00 -3.639692306518554688e+00 1.286345839500427246e+00
-9.591640472412109375e+00 -3.581457614898681641e+00 1.326111912727355957e+00
-8.638279914855957031e+00 -3.587866783142089844e+00 1.123646974563598633e+00
-8.043617248535156250e+00 -3.688653707504272461e+00 9.785091280937194824e-01
-1.157146167755126953e+01 -3.843776226043701172e+00 1.249288201332092285e+00
-9.548480033874511719e+00 -3.561544418334960938e+00 9.471917152404785156e-01
-8.698201179504394531e+00 -3.609195232391357422e+00 7.858248949050903320e-01
-7.831347942352294922e+00 -3.586349487304687500e+00 6.370683908462524414e-01
-9.512961387634277344e+00 -3.544513940811157227e+00 5.729086399078369141e-01
-8.857567787170410156e+00 -3.671698093414306641e+00 4.505013823509216309e-01
-8.404353141784667969e+00 -3.843433856964111328e+00 3.469458818435668945e-01
-1.025893306732177734e+01 -3.401820659637451172e+00 3.207811117172241211e-01
-3.488439083099365234e+00 -1.298400163650512695e+00 7.537004351615905762e-02
-9.011042594909667969e+00 -3.729790210723876953e+00 1.038334369659423828e-01
-7.302855968475341797e+00 -3.336621284484863281e+00 9.809272363781929016e-03
-8.285243034362792969e+00 -3.767729043960571289e+00 2.392882108688354492e+00
-8.685974121093750000e+00 -3.563041687011718750e+00 2.188195943832397461e+00
-8.186936378479003906e+00 -3.714405059814453125e+00 2.009535789489746094e+00
-1.078864860534667969e+01 -3.961701869964599609e+00 2.350822210311889648e+00
-8.500665664672851562e+00 -3.480095863342285156e+00 1.788797140121459961e+00
-8.112543106079101562e+00 -3.672119855880737305e+00 1.647216796875000000e+00
-9.833873748779296875e+00 -3.607203722000122070e+00 1.745328426361083984e+00
-8.526056289672851562e+00 -3.488753318786621094e+00 1.445890188217163086e+00
-8.092327117919921875e+00 -3.656164169311523438e+00 1.309691548347473145e+00
-1.213698959350585938e+01 -3.953795671463012695e+00 1.778069257736206055e+00
-9.666512489318847656e+00 -3.541985511779785156e+00 1.333433628082275391e+00
-8.599462509155273438e+00 -3.510032176971435547e+00 1.115775108337402344e+00
-8.200186729431152344e+00 -3.699726581573486328e+00 9.947754740715026855e-01
-1.179348468780517578e+01 -3.837340831756591797e+00 1.270692229270935059e+00
-9.787083625793457031e+00 -3.582290172576904297e+00 9.686620235443115234e-01
-8.547624588012695312e+00 -3.485393285751342773e+00 7.702746987342834473e-01
-8.020508766174316406e+00 -3.613606929779052734e+00 6.506403088569641113e-01
-1.175214767456054688e+01 -3.819354772567749023e+00 8.142659068107604980e-01
-3.529501676559448242e+00 -1.290479302406311035e+00 2.120798826217651367e-01
-8.782794952392578125e+00 -3.577711820602416992e+00 4.455734789371490479e-01
-8.437802314758300781e+00 -3.796303749084472656e+00 3.473585844039916992e-01
-1.023968505859375000e+01 -3.325840473175048828e+00 3.195351362228393555e-01
-3.478497028350830078e+00 -1.270454168319702148e+00 7.498539984226226807e-02
-1.122157192230224609e+01 -4.564309597015380859e+00 1.289800256490707397e-01
-7.356938838958740234e+00 -3.306918144226074219e+00 9.854475967586040497e-03
-8.415909767150878906e+00 -3.765003919601440430e+00 2.423902273178100586e+00
-8.901879310607910156e+00 -3.587954521179199219e+00 2.236999034881591797e+00
-8.357508659362792969e+00 -3.730127811431884766e+00 2.045747280120849609e+00
-1.085330963134765625e+01 -3.910039901733398438e+00 2.359639406204223633e+00
-8.826926231384277344e+00 -3.550582885742187500e+00 1.852832913398742676e+00
-8.267868995666503906e+00 -3.681470870971679688e+00 1.674136757850646973e+00
-8.750787734985351562e+00 -3.518182277679443359e+00 1.480312466621398926e+00
-8.222187995910644531e+00 -3.654254198074340820e+00 1.327054858207702637e+00
-1.119806194305419922e+01 -4.025411128997802734e+00 1.541264772415161133e+00
-8.655855178833007812e+00 -3.471244096755981445e+00 1.120307445526123047e+00
-8.298137664794921875e+00 -3.682806968688964844e+00 1.003897786140441895e+00
-1.222912025451660156e+01 -3.896270275115966797e+00 1.315029382705688477e+00
-1.125298690795898438e+01 -4.040720462799072266e+00 1.111272811889648438e+00
-8.211203575134277344e+00 -3.639079809188842773e+00 6.642860174179077148e-01
-1.209009361267089844e+01 -3.847327232360839844e+00 8.360295891761779785e-01
-3.532654523849487305e+00 -1.267112851142883301e+00 2.117981463670730591e-01
-8.837967872619628906e+00 -3.537115812301635742e+00 4.472630620002746582e-01
-8.463678359985351562e+00 -3.745671749114990234e+00 3.474710881710052490e-01
-1.020941352844238281e+01 -3.246892452239990234e+00 3.179628252983093262e-01
-3.477756023406982422e+00 -1.246051549911499023e+00 7.480319589376449585e-02
-1.103951549530029297e+01 -4.411510467529296875e+00 1.265739500522613525e-01
-7.381664276123046875e+00 -3.263736486434936523e+00 9.860584512352943420e-03
-8.577833175659179688e+00 -3.774448871612548828e+00 2.463821887969970703e+00
-9.323053359985351562e+00 -3.691375732421875000e+00 2.337102174758911133e+00
-8.496408462524414062e+00 -3.729772806167602539e+00 2.074105978012084961e+00
-1.107662487030029297e+01 -3.913874149322509766e+00 2.402924537658691406e+00
-8.902406692504882812e+00 -3.517637014389038086e+00 1.864110946655273438e+00
-8.390283584594726562e+00 -3.674456596374511719e+00 1.694326758384704590e+00
-1.128380584716796875e+01 -3.982650518417358398e+00 1.993839263916015625e+00
-8.971599578857421875e+00 -3.543167352676391602e+00 1.513959527015686035e+00
-8.362298011779785156e+00 -3.655245304107666016e+00 1.346023201942443848e+00
-1.128147315979003906e+01 -3.977399110794067383e+00 1.549357056617736816e+00
-8.892230987548828125e+00 -3.502854824066162109e+00 1.148097395896911621e+00
-8.453577041625976562e+00 -3.689873218536376953e+00 1.019944310188293457e+00
-1.240284729003906250e+01 -3.867955207824707031e+00 1.331133484840393066e+00
-1.131044006347656250e+01 -3.983173370361328125e+00 1.114511847496032715e+00
-8.820653915405273438e+00 -3.471102952957153320e+00 7.909805178642272949e-01
-1.278797817230224609e+01 -3.983164787292480469e+00 8.825816512107849121e-01
-1.133971023559570312e+01 -3.989032745361328125e+00 6.783851981163024902e-01
-9.016614913940429688e+00 -3.544582843780517578e+00 4.551945626735687256e-01
-8.552474021911621094e+00 -3.722382783889770508e+00 3.501722514629364014e-01
-1.019001388549804688e+01 -3.172006845474243164e+00 3.167465031147003174e-01
-3.500428199768066406e+00 -1.229992151260375977e+00 7.512710988521575928e-02
-1.281350231170654297e+01 -5.029458999633789062e+00 1.465570777654647827e-01
-7.581294059753417969e+00 -3.296538829803466797e+00 1.010004337877035141e-02
-8.765924453735351562e+00 -3.793184041976928711e+00 2.511115074157714844e+00
-9.851108551025390625e+00 -3.830701112747192383e+00 2.463536500930786133e+00
-8.707292556762695312e+00 -3.758795022964477539e+00 2.119916200637817383e+00
-9.288937568664550781e+00 -3.604631662368774414e+00 1.940380215644836426e+00
-8.590588569641113281e+00 -3.699525117874145508e+00 1.730159521102905273e+00
-1.129404735565185547e+01 -3.908500432968139648e+00 1.991373777389526367e+00
-9.129487037658691406e+00 -3.540922880172729492e+00 1.536907672882080078e+00
-8.562712669372558594e+00 -3.680436372756958008e+00 1.374621629714965820e+00
-1.133565998077392578e+01 -3.918470621109008789e+00 1.553467512130737305e+00
-9.118199348449707031e+00 -3.527393817901611328e+00 1.174456119537353516e+00
-8.605756759643554688e+00 -3.693600177764892578e+00 1.035551309585571289e+00
