-1.236683750152587891e+01 -5.977863788604736328e+00 2.949726343154907227e+00
-1.178253936767578125e+01 -6.238039493560791016e+00 2.726961612701416016e+00
-1.210673141479492188e+01 -6.989296436309814453e+00 2.722381830215454102e+00
-1.233187770843505859e+01 -5.958310127258300781e+00 2.419879913330078125e+00
-1.245019054412841797e+01 -6.585951805114746094e+00 2.346882343292236328e+00
-1.088664340972900391e+01 -5.252996444702148438e+00 1.238484144210815430e+00
-9.043219566345214844e+00 -4.359621524810791016e+00 6.615253090858459473e-01
-9.056339263916015625e+00 -4.778528213500976562e+00 5.778669714927673340e-01
-9.016352653503417969e+00 -5.184240341186523438e+00 4.886571764945983887e-01
-9.021783828735351562e+00 -4.347347259521484375e+00 2.972261011600494385e-01
-8.930822372436523438e+00 -4.708314895629882812e+00 2.044283300638198853e-01
-9.555715560913085938e+00 -5.487708568572998047e+00 1.173223108053207397e-01
-9.833800315856933594e+00 -6.130084037780761719e+00 1.415740977972745895e-02
-1.354723453521728516e+01 -6.440398216247558594e+00 4.420492172241210938e+00
-1.317485332489013672e+01 -6.883712768554687500e+00 4.211919307708740234e+00
-1.190747737884521484e+01 -6.216233253479003906e+00 3.267017841339111328e+00
-1.238562679290771484e+01 -5.893467903137207031e+00 2.945526838302612305e+00
-1.184491539001464844e+01 -6.178312301635742188e+00 2.732572793960571289e+00
-1.213915252685546875e+01 -6.909053325653076172e+00 2.720087766647338867e+00
-1.237709712982177734e+01 -5.886760234832763672e+00 2.421619653701782227e+00
-1.251835823059082031e+01 -6.524023056030273438e+00 2.352141857147216797e+00
-1.069867610931396484e+01 -5.566189765930175781e+00 1.120897531509399414e+00
-9.088730812072753906e+00 -4.313034534454345703e+00 6.629061102867126465e-01
-9.087261199951171875e+00 -4.723790168762207031e+00 5.779796242713928223e-01
-9.067111015319824219e+00 -5.139656543731689453e+00 4.896896779537200928e-01
-9.061836242675781250e+00 -4.298334598541259766e+00 2.976711094379425049e-01
-8.929376602172851562e+00 -4.637759685516357422e+00 2.037400156259536743e-01
-9.604869842529296875e+00 -5.437839984893798828e+00 1.175139397382736206e-01
-9.303045272827148438e+00 -5.720264434814453125e+00 1.334251556545495987e-02
-1.230934238433837891e+01 -5.759569168090820312e+00 4.004958152770996094e+00
-1.203630924224853516e+01 -6.195120334625244141e+00 3.835708856582641602e+00
-1.129679012298583984e+01 -6.356325626373291016e+00 3.536350011825561523e+00
-1.274759864807128906e+01 -5.967342376708984375e+00 3.574638128280639648e+00
-1.204822444915771484e+01 -6.195934295654296875e+00 3.295141220092773438e+00
-1.225863838195800781e+01 -5.741061210632324219e+00 2.906894445419311523e+00
-1.190438652038574219e+01 -6.116710662841796875e+00 2.737582445144653320e+00
-1.212995529174804688e+01 -6.805621623992919922e+00 2.708618879318237305e+00
-1.256166362762451172e+01 -6.448890686035156250e+00 2.352799177169799805e+00
-1.076718711853027344e+01 -5.518150329589843750e+00 1.124506711959838867e+00
-9.101462364196777344e+00 -4.250852108001708984e+00 6.619198322296142578e-01
-9.119628906250000000e+00 -4.669763088226318359e+00 5.782049894332885742e-01
-8.897044181823730469e+00 -4.971370697021484375e+00 4.788483381271362305e-01
-9.144905090332031250e+00 -5.550356864929199219e+00 4.016063809394836426e-01
-9.095286369323730469e+00 -4.246034145355224609e+00 2.979084551334381104e-01
-8.954996109008789062e+00 -4.581516742706298828e+00 2.036792933940887451e-01
-9.410158157348632812e+00 -5.251618385314941406e+00 1.147352606058120728e-01
-9.319157600402832031e+00 -5.651666164398193359e+00 1.331563759595155716e-02
-1.216932201385498047e+01 -5.603294849395751953e+00 3.948140144348144531e+00
-1.208868408203125000e+01 -6.128546237945556641e+00 3.840343236923217773e+00
-1.132714271545410156e+01 -6.282210826873779297e+00 3.533717870712280273e+00
-1.279277706146240234e+01 -5.893067836761474609e+00 3.577099800109863281e+00
-1.211201953887939453e+01 -6.135062694549560547e+00 3.302231073379516602e+00
-1.150866603851318359e+01 -6.375009536743164062e+00 3.066425323486328125e+00
-1.371523857116699219e+01 -6.320907115936279297e+00 3.243040323257446289e+00
-1.202561283111572266e+01 -6.086021423339843750e+00 2.756820440292358398e+00
-1.427658081054687500e+01 -6.576590538024902344e+00 2.777259349822998047e+00
-1.135112380981445312e+01 -5.221758842468261719e+00 1.280171155929565430e+00
-1.080706596374511719e+01 -5.455121040344238281e+00 1.125154614448547363e+00
-9.124653816223144531e+00 -4.193676471710205078e+00 6.617225408554077148e-01
-9.091949462890625000e+00 -4.585393905639648438e+00 5.746553540229797363e-01
-8.917755126953125000e+00 -4.911385536193847656e+00 4.783321022987365723e-01
-9.126485824584960938e+00 -5.462832927703857422e+00 3.993178904056549072e-01
-9.103910446166992188e+00 -4.182218551635742188e+00 2.973447740077972412e-01
-8.950796127319335938e+00 -4.510287284851074219e+00 2.029504776000976562e-01
-9.691029548645019531e+00 -5.330648899078369141e+00 1.177588105201721191e-01
-9.315040588378906250e+00 -5.571280002593994141e+00 1.326065976172685623e-02
-1.222531700134277344e+01 -5.538415431976318359e+00 3.955207109451293945e+00
-1.207527351379394531e+01 -6.028899192810058594e+00 3.824259042739868164e+00
-1.133330821990966797e+01 -6.195006847381591797e+00 3.523716449737548828e+00
-1.282693004608154297e+01 -5.813661575317382812e+00 3.576607465744018555e+00
-1.223464679718017578e+01 -6.103136062622070312e+00 3.325391292572021484e+00
-1.155525875091552734e+01 -6.308473587036132812e+00 3.068468093872070312e+00
-1.361218452453613281e+01 -6.172433376312255859e+00 3.209656476974487305e+00
-1.207062053680419922e+01 -6.016052246093750000e+00 2.758623838424682617e+00
-1.177559471130371094e+01 -6.418096542358398438e+00 2.611705064773559570e+00
-1.434177875518798828e+01 -6.500249862670898438e+00 2.782131195068359375e+00
-1.141195201873779297e+01 -5.165137767791748047e+00 1.283432841300964355e+00
-9.209312438964843750e+00 -4.164333343505859375e+00 6.659964323043823242e-01
-8.912459373474121094e+00 -4.426486015319824219e+00 5.615834593772888184e-01
-8.945967674255371094e+00 -4.855621814727783203e+00 4.782382249832153320e-01
-9.013538360595703125e+00 -5.320377826690673828e+00 3.929402530193328857e-01
-9.105718612670898438e+00 -4.115575313568115234e+00 2.965734601020812988e-01
-8.953226089477539062e+00 -4.442837715148925781e+00 2.023836374282836914e-01
-1.252431869506835938e+01 -6.789363861083984375e+00 1.516779512166976929e-01
-9.467054367065429688e+00 -5.583617687225341797e+00 1.342803612351417542e-02
-1.303884220123291016e+01 -5.810806274414062500e+00 4.206789016723632812e+00
-1.202655982971191406e+01 -5.912669181823730469e+00 3.797270059585571289e+00
-1.133883094787597656e+01 -6.107964515686035156e+00 3.513714790344238281e+00
-1.286058998107910156e+01 -5.734058380126953125e+00 3.576115131378173828e+00
-1.239221858978271484e+01 -6.087069034576416016e+00 3.358004808425903320e+00
-1.182188510894775391e+01 -6.360190391540527344e+00 3.128847837448120117e+00
-1.319263553619384766e+01 -5.884865283966064453e+00 3.102157115936279297e+00
-1.205013847351074219e+01 -5.913818836212158203e+00 2.745598316192626953e+00
-1.181907653808593750e+01 -6.348043918609619141e+00 2.612660646438598633e+00
-1.264015483856201172e+01 -6.197905540466308594e+00 2.345731735229492188e+00
-1.245793628692626953e+01 -6.097773075103759766e+00 1.289143085479736328e+00
-1.035403156280517578e+01 -5.542552471160888672e+00 9.799943566322326660e-01
-9.243807792663574219e+00 -4.111803054809570312e+00 6.666539311408996582e-01
-8.981607437133789062e+00 -4.392332077026367188e+00 5.642316937446594238e-01
-9.034607887268066406e+00 -4.832203388214111328e+00 4.813826978206634521e-01
-9.021830558776855469e+00 -5.250896453857421875e+00 3.918897807598114014e-01
-9.162766456604003906e+00 -4.073839187622070312e+00 2.976117730140686035e-01
-8.976724624633789062e+00 -4.386062145233154297e+00 2.023026496171951294e-01
-1.255956840515136719e+01 -6.709090232849121094e+00 1.516034305095672607e-01
-9.528799057006835938e+00 -5.541511058807373047e+00 1.346713211387395859e-02
-1.317967414855957031e+01 -5.776901245117187500e+00 4.240710258483886719e+00
-1.210504722595214844e+01 -5.859303951263427734e+00 3.810628175735473633e+00
-1.432284641265869141e+01 -6.280955314636230469e+00 3.971930027008056641e+00
-1.247919654846191406e+01 -6.035030364990234375e+00 3.371475458145141602e+00
-1.182971096038818359e+01 -6.271111965179443359e+00 3.120676279067993164e+00
-1.314881134033203125e+01 -5.768845558166503906e+00 3.083470582962036133e+00
-1.205620574951171875e+01 -5.825277805328369141e+00 2.738785028457641602e+00
-1.181616306304931641e+01 -6.253365993499755859e+00 2.603485345840454102e+00
-1.204816055297851562e+01 -6.950052261352539062e+00 2.572866678237915039e+00
-1.456836986541748047e+01 -6.388624191284179688e+00 2.810665845870971680e+00
-1.267350578308105469e+01 -6.118086338043212891e+00 2.344910144805908203e+00
-1.003702831268310547e+01 -5.293883800506591797e+00 9.468981623649597168e-01
-9.462627410888671875e+00 -5.436583042144775391e+00 8.071599006652832031e-01
-9.301773071289062500e+00 -4.069404602050781250e+00 6.690209507942199707e-01
-9.085752487182617188e+00 -4.374386310577392578e+00 5.690772533416748047e-01
-8.880278587341308594e+00 -4.679811954498291016e+00 4.716208279132843018e-01
-8.965473175048828125e+00 -5.144710540771484375e+00 3.880631923675537109e-01
-9.283752441406250000e+00 -4.059590339660644531e+00 3.007267117500305176e-01
-8.997160911560058594e+00 -4.327865600585937500e+00 2.021609395742416382e-01
-1.272349452972412109e+01 -6.696635246276855469e+00 1.530832648277282715e-01
-9.358755111694335938e+00 -5.366047859191894531e+00 1.318002492189407349e-02
-1.316378116607666016e+01 -5.673902034759521484e+00 4.224314689636230469e+00
-1.218506813049316406e+01 -5.806025028228759766e+00 3.824531555175781250e+00
-1.200708866119384766e+01 -6.279072284698486328e+00 3.696638584136962891e+00
-1.134309864044189453e+01 -6.477125167846679688e+00 3.434094667434692383e+00
-1.420981407165527344e+01 -6.127707481384277344e+00 3.930083513259887695e+00
-1.196983146667480469e+01 -6.251609325408935547e+00 3.147461175918579102e+00
-1.179943943023681641e+01 -6.724056243896484375e+00 3.035681486129760742e+00
-1.309957504272460938e+01 -5.651650428771972656e+00 3.063734531402587891e+00
-1.279951381683349609e+01 -6.087839603424072266e+00 2.899100303649902344e+00
-1.197964191436767578e+01 -6.246092796325683594e+00 2.631011247634887695e+00
-1.204100227355957031e+01 -6.847801208496093750e+00 2.562316894531250000e+00
-1.453857231140136719e+01 -6.269478321075439453e+00 2.797442436218261719e+00
-1.275357055664062500e+01 -6.060529708862304688e+00 2.352799177169799805e+00
-9.123542785644531250e+00 -5.167568206787109375e+00 7.755166888236999512e-01
-9.362316131591796875e+00 -4.027632236480712891e+00 6.715853214263916016e-01
-9.071822166442871094e+00 -4.299314022064208984e+00 5.665417313575744629e-01
-9.032940864562988281e+00 -4.689672470092773438e+00 4.781912863254547119e-01
-8.934247970581054688e+00 -5.054175853729248047e+00 3.853620290756225586e-01
-9.332362174987792969e+00 -4.012815952301025391e+00 3.014980554580688477e-01
-9.036197662353515625e+00 -4.278568744659423828e+00 2.024443596601486206e-01
-9.272991180419921875e+00 -4.808137893676757812e+00 1.112113296985626221e-01
-9.644835472106933594e+00 -5.451716899871826172e+00 1.353554893285036087e-02
-1.307116985321044922e+01 -5.539129734039306641e+00 4.183609485626220703e+00
-1.213509750366210938e+01 -5.691114902496337891e+00 3.797815084457397461e+00
-1.205739688873291016e+01 -6.211465358734130859e+00 3.700323343276977539e+00
-1.134301757812500000e+01 -6.385105609893798828e+00 3.422144412994384766e+00
-1.247941398620605469e+01 -5.290932655334472656e+00 3.442453861236572266e+00
-1.483911514282226562e+01 -6.952926158905029297e+00 3.985695838928222656e+00
-1.214825630187988281e+01 -6.250225543975830078e+00 3.184233903884887695e+00
-1.185068607330322266e+01 -6.657265663146972656e+00 3.038299083709716797e+00
-1.276767253875732422e+01 -5.415775299072265625e+00 2.978280782699584961e+00
-1.312411308288574219e+01 -6.143768787384033203e+00 2.964027643203735352e+00
-1.188677215576171875e+01 -6.105201721191406250e+00 2.602338552474975586e+00
-1.275988388061523438e+01 -5.409843921661376953e+00 2.448762416839599609e+00
-1.285842323303222656e+01 -6.013921260833740234e+00 2.365290641784667969e+00
-1.138253593444824219e+01 -5.313962459564208984e+00 1.167539834976196289e+00
-9.631969451904296875e+00 -4.930121421813964844e+00 9.029086828231811523e-01
-9.262180328369140625e+00 -5.171287536621093750e+00 7.845891714096069336e-01
-9.441075325012207031e+00 -3.993042945861816406e+00 6.754646301269531250e-01
-9.137845039367675781e+00 -4.262139320373535156e+00 5.690209269523620605e-01
-8.922809600830078125e+00 -4.563207626342773438e+00 4.708698987960815430e-01
-8.924072265625000000e+00 -4.976386547088623047e+00 3.835988044738769531e-01
-9.364173889160156250e+00 -3.958591699600219727e+00 3.017353713512420654e-01
-9.083124160766601562e+00 -4.232756137847900391e+00 2.029100060462951660e-01
-9.084142684936523438e+00 -4.639716148376464844e+00 1.086029857397079468e-01
-9.672863960266113281e+00 -5.389514923095703125e+00 1.352821942418813705e-02
-1.308454513549804688e+01 -5.450338840484619141e+00 4.177107810974121094e+00
-1.213135242462158203e+01 -5.598808765411376953e+00 3.785820245742797852e+00
-1.208495903015136719e+01 -6.132126808166503906e+00 3.697165012359619141e+00
-1.137690830230712891e+01 -6.312571048736572266e+00 3.420618772506713867e+00
-1.247675323486328125e+01 -5.199719905853271484e+00 3.432854175567626953e+00
-1.481443595886230469e+01 -6.830822467803955078e+00 3.967734813690185547e+00
-1.214294242858886719e+01 -6.153555870056152344e+00 3.172884225845336914e+00
-1.279344367980957031e+01 -5.334322452545166016e+00 2.976601123809814453e+00
-1.245592403411865234e+01 -5.738059043884277344e+00 2.805115461349487305e+00
-1.192926502227783203e+01 -6.034809589385986328e+00 2.603485345840454102e+00
-1.218093299865722656e+01 -6.730912208557128906e+00 2.574321746826171875e+00
-1.467531394958496094e+01 -6.115975856781005859e+00 2.809099674224853516e+00
-1.219874572753906250e+01 -5.076364517211914062e+00 1.353760719299316406e+00
-1.146378707885742188e+01 -5.266466617584228516e+00 1.172537326812744141e+00
-9.144330978393554688e+00 -5.032140254974365234e+00 7.719761729240417480e-01
-9.554772377014160156e+00 -3.972194194793701172e+00 6.818425059318542480e-01
-9.222805023193359375e+00 -4.233060836791992188e+00 5.726832747459411621e-01
-9.052341461181640625e+00 -4.559598445892333984e+00 4.762201309204101562e-01
-8.936048507690429688e+00 -4.911427974700927734e+00 3.828109800815582275e-01
-9.417824745178222656e+00 -3.913333177566528320e+00 3.026846945285797119e-01
-9.128917694091796875e+00 -4.186111450195312500e+00 2.033553570508956909e-01
-1.000990486145019531e+01 -5.497092247009277344e+00 1.395215839147567749e-02
-1.309909915924072266e+01 -5.362319469451904297e+00 4.171171665191650391e+00
-1.213043594360351562e+01 -5.508354663848876953e+00 3.774915456771850586e+00
-1.138403129577636719e+01 -6.225475311279296875e+00 3.411210775375366211e+00
-1.237478256225585938e+01 -5.068330764770507812e+00 3.396177291870117188e+00
-1.473661327362060547e+01 -6.685599327087402344e+00 3.935830354690551758e+00
-1.401477432250976562e+01 -6.994381904602050781e+00 3.650700807571411133e+00
-1.156484031677246094e+01 -6.311248302459716797e+00 2.944933891296386719e+00
-1.272551250457763672e+01 -5.214572906494140625e+00 2.953295707702636719e+00
-1.252391338348388672e+01 -5.676487445831298828e+00 2.812530040740966797e+00
-1.198276233673095703e+01 -5.969815731048583984e+00 2.607117414474487305e+00
-1.211233139038085938e+01 -6.596317768096923828e+00 2.551221370697021484e+00
-1.292281723022460938e+01 -5.292788982391357422e+00 2.467379570007324219e+00
-1.234425544738769531e+01 -6.147222995758056641e+00 2.164416074752807617e+00
-1.220480346679687500e+01 -4.991251945495605469e+00 1.351008772850036621e+00
-9.566781997680664062e+00 -4.749512195587158203e+00 8.912667632102966309e-01
-9.144352912902832031e+00 -4.959296703338623047e+00 7.693945765495300293e-01
-9.623303413391113281e+00 -3.931606531143188477e+00 6.849985718727111816e-01
-9.150332450866699219e+00 -4.132013797760009766e+00 5.665981173515319824e-01
-8.947709083557128906e+00 -4.438275814056396484e+00 4.692741930484771729e-01
-8.936140060424804688e+00 -4.840322971343994141e+00 3.815354108810424805e-01
-9.660974502563476562e+00 -3.945029497146606445e+00 3.097155988216400146e-01
-9.162634849548339844e+00 -4.133719444274902344e+00 2.035375833511352539e-01
-9.139499664306640625e+00 -4.527446746826171875e+00 1.085923463106155396e-01
-9.766415596008300781e+00 -5.285638809204101562e+00 1.356731448322534561e-02
-1.312107658386230469e+01 -5.277548789978027344e+00 4.167779445648193359e+00
-1.211041927337646484e+01 -5.409882068634033203e+00 3.758285760879516602e+00
-1.136923122406005859e+01 -6.127060413360595703e+00 3.395446777343750000e+00
-1.246139526367187500e+01 -5.014739036560058594e+00 3.411438465118408203e+00
-1.402402591705322266e+01 -6.258843421936035156e+00 3.735186338424682617e+00
-1.406966400146484375e+01 -6.914270401000976562e+00 3.653878688812255859e+00
-1.143746185302734375e+01 -6.150957584381103516e+00 2.902832031250000000e+00
-1.268561840057373047e+01 -5.107544422149658203e+00 2.936708688735961914e+00
-1.445548248291015625e+01 -6.445350170135498047e+00 3.237365245819091797e+00
-1.189843750000000000e+01 -5.836953163146972656e+00 2.580929517745971680e+00
-1.215171051025390625e+01 -6.521408557891845703e+00 2.551039457321166992e+00
-1.297788810729980469e+01 -5.222587108612060547e+00 2.471729516983032227e+00
-1.239061260223388672e+01 -6.075714111328125000e+00 2.165966749191284180e+00
-1.212904644012451172e+01 -4.873617172241210938e+00 1.339287400245666504e+00
-9.793603897094726562e+00 -4.787442207336425781e+00 9.096442461013793945e-01
-9.131511688232421875e+00 -4.880062580108642578e+00 7.657803297042846680e-01
-9.718550682067871094e+00 -3.901107072830200195e+00 6.900614500045776367e-01
-9.222960472106933594e+00 -4.096867084503173828e+00 5.695280432701110840e-01
-8.977466583251953125e+00 -4.384605407714843750e+00 4.694150090217590332e-01
-8.945395469665527344e+00 -4.774578571319580078e+00 3.806725740432739258e-01
-9.749009132385253906e+00 -3.911358118057250977e+00 3.117625713348388672e-01
-9.249053001403808594e+00 -4.104592323303222656e+00 2.048939466476440430e-01
-9.270462036132812500e+00 -4.521694183349609375e+00 1.098166629672050476e-01
-9.441306114196777344e+00 -5.035035610198974609e+00 1.307251397520303726e-02
-1.218214416503906250e+01 -5.352501392364501953e+00 3.770281076431274414e+00
-1.252917671203613281e+01 -6.070166587829589844e+00 3.798233509063720703e+00
-1.138952827453613281e+01 -6.048112869262695312e+00 3.390361309051513672e+00
-1.248111438751220703e+01 -4.933907508850097656e+00 3.408484935760498047e+00
-1.442962360382080078e+01 -6.333973884582519531e+00 3.832790613174438477e+00
-1.421001338958740234e+01 -6.875318050384521484e+00 3.679301977157592773e+00
-1.147585105895996094e+01 -6.081120014190673828e+00 2.903050422668457031e+00
-1.270035362243652344e+01 -5.023138046264648438e+00 2.932929515838623047e+00
-1.465536308288574219e+01 -6.426963806152343750e+00 3.273235797882080078e+00
-1.196496391296386719e+01 -5.778776645660400391e+00 2.587619781494140625e+00
-1.217498016357421875e+01 -6.437990665435791016e+00 2.547583580017089844e+00
-1.345384693145751953e+01 -5.318438053131103516e+00 2.556115627288818359e+00
-1.251484489440917969e+01 -6.041662216186523438e+00 2.181162118911743164e+00
-1.214761829376220703e+01 -4.794720172882080078e+00 1.338064312934875488e+00
-9.764427185058593750e+00 -4.699170112609863281e+00 9.042391180992126465e-01
-9.149811744689941406e+00 -4.817900180816650391e+00 7.648214101791381836e-01
-9.952095031738281250e+00 -3.924122810363769531e+00 7.049212455749511719e-01
-9.279030799865722656e+00 -4.053788661956787109e+00 5.714436769485473633e-01
-9.015903472900390625e+00 -4.335064888000488281e+00 4.700250923633575439e-01
-8.939146041870117188e+00 -4.700995445251464844e+00 3.791719377040863037e-01
-1.003042030334472656e+01 -3.952983617782592773e+00 3.199801146984100342e-01
-9.290558815002441406e+00 -4.054963111877441406e+00 2.052583545446395874e-01
-9.078989028930664062e+00 -4.359546661376953125e+00 1.072296127676963806e-01
-1.047056865692138672e+01 -5.501688957214355469e+00 1.445062551647424698e-02
-1.235783672332763672e+01 -5.339472770690917969e+00 3.814444780349731445e+00
-1.266023063659667969e+01 -6.038027286529541016e+00 3.826659202575683594e+00
-1.142385292053222656e+01 -5.976768970489501953e+00 3.389598369598388672e+00
-1.248856544494628906e+01 -4.848462104797363281e+00 3.402330875396728516e+00
-1.440487766265869141e+01 -6.217975616455078125e+00 3.816011428833007812e+00
-1.403563308715820312e+01 -6.684977054595947266e+00 3.623461723327636719e+00
-1.269539260864257812e+01 -4.931309223175048828e+00 2.924741029739379883e+00
-1.473950290679931641e+01 -6.356316566467285156e+00 3.283255338668823242e+00
-1.193105125427246094e+01 -5.672378540039062500e+00 2.572710037231445312e+00
-1.218373107910156250e+01 -6.347264289855957031e+00 2.541217327117919922e+00
-1.333843040466308594e+01 -5.178407192230224609e+00 2.528102874755859375e+00
-1.471457958221435547e+01 -6.339478015899658203e+00 2.669683456420898438e+00
-1.256774234771728516e+01 -5.972391605377197266e+00 2.183953285217285156e+00
-1.054804134368896484e+01 -4.088734626770019531e+00 1.159085035324096680e+00
-9.574232101440429688e+00 -4.535497665405273438e+00 8.840321898460388184e-01
-9.145562171936035156e+00 -4.744216918945312500e+00 7.620185017585754395e-01
-1.009788227081298828e+01 -3.910185575485229492e+00 7.135346531867980957e-01
-9.332167625427246094e+00 -4.008993625640869141e+00 5.731903910636901855e-01
-9.044138908386230469e+00 -4.280517578125000000e+00 4.701189696788787842e-01
-8.958062171936035156e+00 -4.641001224517822266e+00 3.787592649459838867e-01
-1.018778896331787109e+01 -3.942955493927001953e+00 3.242224156856536865e-01
-9.344664573669433594e+00 -4.010498523712158203e+00 2.059061676263809204e-01
-1.388798046112060547e+01 -6.564169406890869141e+00 1.635485738515853882e-01
-1.001391315460205078e+01 -5.183584690093994141e+00 1.377623062580823898e-02
-1.249485874176025391e+01 -5.307935714721679688e+00 3.846613407135009766e+00
-1.259224414825439453e+01 -5.911037921905517578e+00 3.795075178146362305e+00
-1.145601272583007812e+01 -5.904345512390136719e+00 3.388327121734619141e+00
-1.398072528839111328e+01 -5.329286098480224609e+00 3.799868345260620117e+00
-1.453130912780761719e+01 -6.167052268981933594e+00 3.839407682418823242e+00
-1.464603900909423828e+01 -6.865771770477294922e+00 3.770098447799682617e+00
-1.278205013275146484e+01 -4.874920368194580078e+00 2.937758445739746094e+00
-1.257015228271484375e+01 -5.329565048217773438e+00 2.792690992355346680e+00
-1.384595775604248047e+01 -6.478922843933105469e+00 2.976995706558227539e+00
-1.343344402313232422e+01 -5.120668888092041016e+00 2.540108442306518555e+00
-1.485492992401123047e+01 -6.292161464691162109e+00 2.688091754913330078e+00
-1.264442062377929688e+01 -5.913999080657958984e+00 2.190930604934692383e+00
-1.048088741302490234e+01 -3.988905191421508789e+00 1.148994445800781250e+00
-1.215187072753906250e+01 -5.137213230133056641e+00 1.226212978363037109e+00
-9.634396553039550781e+00 -4.491825103759765625e+00 8.870258331298828125e-01
-9.115887641906738281e+00 -4.658061981201171875e+00 7.571503520011901855e-01
-1.020376300811767578e+01 -3.879357814788818359e+00 7.193208336830139160e-01
-9.408096313476562500e+00 -3.973409891128540039e+00 5.763456225395202637e-01
-9.091965675354003906e+00 -4.235065937042236328e+00 4.712453484535217285e-01
-8.974798202514648438e+00 -4.580042839050292969e+00 3.782715499401092529e-01
-1.030429363250732422e+01 -3.915520191192626953e+00 3.271593749523162842e-01
-9.379228591918945312e+00 -3.957360744476318359e+00 2.061288505792617798e-01
-9.277775764465332031e+00 -4.315706253051757812e+00 1.089436709880828857e-01
-1.011947250366210938e+01 -5.159744739532470703e+00 1.387763302773237228e-02
-1.315222072601318359e+01 -5.492171287536621094e+00 4.038535118103027344e+00
-1.255908775329589844e+01 -5.801700592041015625e+00 3.774282455444335938e+00
-1.360920715332031250e+01 -5.092250823974609375e+00 3.690330266952514648e+00
-1.259150505065917969e+01 -5.252863407135009766e+00 3.318301439285278320e+00
-1.423069000244140625e+01 -6.564861774444580078e+00 3.652743816375732422e+00
-1.284210491180419922e+01 -6.505222797393798828e+00 3.217831134796142578e+00
-1.284651660919189453e+01 -4.809425830841064453e+00 2.945736885070800781e+00
-1.458036804199218750e+01 -6.076593399047851562e+00 3.230952739715576172e+00
-1.387207794189453125e+01 -6.387685775756835938e+00 2.974128484725952148e+00
-1.222384643554687500e+01 -6.178642749786376953e+00 2.533577919006347656e+00
-1.373115444183349609e+01 -5.137880802154541016e+00 2.590391874313354492e+00
-1.489507865905761719e+01 -6.201652526855468750e+00 2.688420295715332031e+00
-1.240383911132812500e+01 -5.154253005981445312e+00 1.248423695564270020e+00
-9.717933654785156250e+00 -4.458388805389404297e+00 8.921814560890197754e-01
-9.149642944335937500e+00 -4.604730129241943359e+00 7.575929164886474609e-01
-1.045267581939697266e+01 -3.900754213333129883e+00 7.351669669151306152e-01
-9.523589134216308594e+00 -3.953504800796508789e+00 5.819237232208251953e-01
-9.116872787475585938e+00 -4.178782939910888672e+00 4.711984395980834961e-01
-8.972375869750976562e+00 -4.509630680084228516e+00 3.769960403442382812e-01
-1.047047805786132812e+01 -3.905315876007080078e+00 3.316686153411865234e-01
-9.410722732543945312e+00 -3.902800559997558594e+00 2.062908113002777100e-01
-9.354087829589843750e+00 -4.281586647033691406e+00 1.095292121171951294e-01
-9.797951698303222656e+00 -4.920292377471923828e+00 1.339505054056644440e-02
-1.316164016723632812e+01 -5.401504516601562500e+00 4.031174659729003906e+00
-1.357832813262939453e+01 -4.985932350158691406e+00 3.673591852188110352e+00
-1.251831054687500000e+01 -5.132378578186035156e+00 3.290650844573974609e+00
-1.433721446990966797e+01 -6.507609367370605469e+00 3.669767856597900391e+00
-1.291616439819335938e+01 -4.745345592498779297e+00 2.954975128173828125e+00
-1.289027309417724609e+01 -5.279624462127685547e+00 2.849201917648315430e+00
-1.394409179687500000e+01 -6.317435741424560547e+00 2.981200933456420898e+00
-1.227913284301757812e+01 -6.112286090850830078e+00 2.537215709686279297e+00
-1.396763801574707031e+01 -5.128886222839355469e+00 2.629018068313598633e+00
-1.459871768951416016e+01 -5.973422527313232422e+00 2.628265142440795898e+00
-1.247671318054199219e+01 -5.094986915588378906e+00 1.252588152885437012e+00
-9.694242477416992188e+00 -4.375717639923095703e+00 8.875247836112976074e-01
-9.183979988098144531e+00 -4.551602363586425781e+00 7.581092715263366699e-01
-1.060759067535400391e+01 -3.884582281112670898e+00 7.443721294403076172e-01
-9.604060173034667969e+00 -3.917999982833862305e+00 5.853607654571533203e-01
-9.143251419067382812e+00 -4.123174190521240234e+00 4.712453484535217285e-01
-8.993607521057128906e+00 -4.451389312744140625e+00 3.767334222793579102e-01
-1.061627006530761719e+01 -3.885659694671630859e+00 3.355252444744110107e-01
-9.928901672363281250e+00 -4.046477794647216797e+00 2.171013504266738892e-01
-9.273508071899414062e+00 -4.176072120666503906e+00 1.082835942506790161e-01
-1.017396163940429688e+01 -5.031185150146484375e+00 1.386663783341646194e-02
-1.326221466064453125e+01 -4.775099754333496094e+00 4.153928279876708984e+00
-1.302565670013427734e+01 -5.824355602264404297e+00 3.892722368240356445e+00
-1.357310295104980469e+01 -4.889712333679199219e+00 3.663992166519165039e+00
-1.255857944488525391e+01 -5.059102058410644531e+00 3.293014287948608398e+00
-1.424170589447021484e+01 -6.359160423278808594e+00 3.635265588760375977e+00
-1.288417720794677734e+01 -6.329068660736083984e+00 3.208668947219848633e+00
-1.312807559967041016e+01 -4.731979846954345703e+00 2.996757268905639648e+00
-1.466383647918701172e+01 -5.901235580444335938e+00 3.233156919479370117e+00
-1.404355716705322266e+01 -6.258928298950195312e+00 2.994199275970458984e+00
-1.234466171264648438e+01 -6.050676822662353516e+00 2.543036222457885742e+00
-1.477429389953613281e+01 -5.322441577911376953e+00 2.774649381637573242e+00
-1.468360042572021484e+01 -5.903234958648681641e+00 2.636976003646850586e+00
-9.742767333984375000e+00 -4.325858592987060547e+00 8.895205259323120117e-01
-9.205461502075195312e+00 -4.492103576660156250e+00 7.575929164886474609e-01
-1.074579334259033203e+01 -3.860582351684570312e+00 7.523938417434692383e-01
-9.886480331420898438e+00 -3.962631225585937500e+00 6.010807752609252930e-01
-9.192119598388671875e+00 -4.077526092529296875e+00 4.724655747413635254e-01
-9.026141166687011719e+00 -4.398748397827148438e+00 3.769584894180297852e-01
-1.081489181518554688e+01 -3.883275747299194336e+00 3.410431444644927979e-01
-9.897852897644042969e+00 -3.963180303573608398e+00 2.158866822719573975e-01
-9.336441993713378906e+00 -4.135696887969970703e+00 1.087201014161109924e-01
-1.045009136199951172e+01 -5.088174819946289062e+00 1.420016959309577942e-02
-1.326684379577636719e+01 -4.685010433197021484e+00 4.146296024322509766e+00
-1.305673313140869141e+01 -5.742380142211914062e+00 3.891406297683715820e+00
-1.349135875701904297e+01 -4.766943454742431641e+00 3.633961200714111328e+00
-1.254782390594482422e+01 -4.965501785278320312e+00 3.282142877578735352e+00
-1.423141384124755859e+01 -6.250116348266601562e+00 3.622781038284301758e+00
-1.294121932983398438e+01 -6.258816719055175781e+00 3.213250160217285156e+00
-1.325273036956787109e+01 -4.685230255126953125e+00 3.018593072891235352e+00
-1.270444869995117188e+01 -5.022354125976562500e+00 2.794293880462646484e+00
-1.466783428192138672e+01 -6.429571151733398438e+00 3.118830204010009766e+00
-1.418020629882812500e+01 -6.842770576477050781e+00 2.912459611892700195e+00
-1.483545684814453125e+01 -5.241858005523681641e+00 2.780043125152587891e+00
-1.353878974914550781e+01 -5.346724033355712891e+00 2.425446033477783203e+00
-1.140024566650390625e+01 -4.021370887756347656e+00 1.238586068153381348e+00
-1.032429409027099609e+01 -4.068929195404052734e+00 1.031407117843627930e+00
-9.788305282592773438e+00 -4.274371147155761719e+00 8.912667632102966309e-01
-9.191499710083007812e+00 -4.415669918060302734e+00 7.541999220848083496e-01
-1.098385524749755859e+01 -3.870180845260620117e+00 7.673851251602172852e-01
-9.918040275573730469e+00 -3.904820442199707031e+00 6.015315651893615723e-01
-9.281970024108886719e+00 -4.049407005310058594e+00 4.757977724075317383e-01
-9.044853210449218750e+00 -4.339391708374023438e+00 3.766208589076995850e-01
-1.100539207458496094e+01 -3.875610351562500000e+00 3.462940752506256104e-01
-9.949896812438964844e+00 -3.913351774215698242e+00 2.164940088987350464e-01
-9.388227462768554688e+00 -4.089912891387939453e+00 1.090288385748863220e-01
-1.048111534118652344e+01 -5.023958206176757812e+00 1.420016959309577942e-02
-1.330168628692626953e+01 -4.605715751647949219e+00 4.148274898529052734e+00
-1.333773994445800781e+01 -5.189024925231933594e+00 4.055164813995361328e+00
-1.301379966735839844e+01 -5.628456115722656250e+00 3.868244647979736328e+00
-1.261021232604980469e+01 -6.017042636871337891e+00 3.673357486724853516e+00
-1.384089374542236328e+01 -4.795122146606445312e+00 3.720114946365356445e+00
-1.259164142608642578e+01 -4.893696308135986328e+00 3.285687923431396484e+00
-1.269234085083007812e+01 -5.481538772583007812e+00 3.222368478775024414e+00
-1.303136730194091797e+01 -6.204043388366699219e+00 3.226120471954345703e+00
-1.404704475402832031e+01 -4.869288444519042969e+00 3.192649602890014648e+00
-1.296335124969482422e+01 -5.032952308654785156e+00 2.844392538070678711e+00
-1.277083301544189453e+01 -5.504862308502197266e+00 2.708236455917358398e+00
-1.418462085723876953e+01 -6.737913608551025391e+00 2.904820203781127930e+00
-1.489525699615478516e+01 -5.160401821136474609e+00 2.785263061523437500e+00
-1.377918338775634766e+01 -5.344161033630371094e+00 2.462591171264648438e+00
-1.491671848297119141e+01 -5.164921283721923828e+00 2.198856830596923828e+00
-1.090740489959716797e+01 -5.164861679077148438e+00 1.334500432014465332e+00
-1.038713836669921875e+01 -4.020239353179931641e+00 1.035201430320739746e+00
-9.809769630432128906e+00 -4.212265014648437500e+00 8.908510208129882812e-01
-9.201291084289550781e+00 -4.351088523864746094e+00 7.527984380722045898e-01
-1.113660526275634766e+01 -3.847350597381591797e+00 7.763930559158325195e-01
-1.008429145812988281e+01 -3.898978710174560547e+00 6.101522445678710938e-01
-9.330510139465332031e+00 -4.002616405487060547e+00 4.770179986953735352e-01
-9.065887451171875000e+00 -4.281251907348632812e+00 3.763957917690277100e-01
-1.116502094268798828e+01 -3.854985952377319336e+00 3.505660295486450195e-01
-1.018729782104492188e+01 -3.934717893600463867e+00 2.211299836635589600e-01
-9.411307334899902344e+00 -4.031443595886230469e+00 1.090075448155403137e-01
-1.015360546112060547e+01 -4.790578842163085938e+00 1.371636521071195602e-02
-1.371573448181152344e+01 -4.655030250549316406e+00 4.268412113189697266e+00
-1.343943309783935547e+01 -5.133868217468261719e+00 4.076428890228271484e+00
-1.311023712158203125e+01 -5.574926376342773438e+00 3.886668682098388672e+00
-1.263639068603515625e+01 -5.934620857238769531e+00 3.670306205749511719e+00
-1.363052082061767578e+01 -4.628762245178222656e+00 3.655868768692016602e+00
-1.268270683288574219e+01 -5.385285854339599609e+00 3.211472749710083008e+00
-1.294812107086181641e+01 -6.067237377166748047e+00 3.196234941482543945e+00
-1.400445079803466797e+01 -4.758471012115478516e+00 3.176272869110107422e+00
-1.281089782714843750e+01 -4.883521556854248047e+00 2.804313659667968750e+00
-1.257843208312988281e+01 -5.330646991729736328e+00 2.660448551177978516e+00
-1.388809299468994141e+01 -6.492915630340576172e+00 2.835882902145385742e+00
-1.490612602233886719e+01 -5.061942577362060547e+00 2.781435251235961914e+00
-1.352779388427734375e+01 -5.151394844055175781e+00 2.411968708038330078e+00
-1.091997146606445312e+01 -5.089021205902099609e+00 1.332192301750183105e+00
-1.183594989776611328e+01 -4.012436866760253906e+00 1.280477046966552734e+00
-9.745459556579589844e+00 -4.114012718200683594e+00 8.827017545700073242e-01
-9.238666534423828125e+00 -4.299597740173339844e+00 7.536835670471191406e-01
-1.129232025146484375e+01 -3.823749780654907227e+00 7.855983376502990723e-01
-1.029657649993896484e+01 -3.908603429794311523e+00 6.215337514877319336e-01
-9.392630577087402344e+00 -3.961205005645751953e+00 4.789422452449798584e-01
-9.015864372253417969e+00 -4.190165996551513672e+00 3.732444345951080322e-01
-1.134752845764160156e+01 -3.840236663818359375e+00 3.555499613285064697e-01
-1.037858486175537109e+01 -3.935590028762817383e+00 2.247537374496459961e-01
-9.426651000976562500e+00 -3.969740152359008789e+00 1.089010760188102722e-01
-1.053381443023681641e+01 -4.891170501708984375e+00 1.418917439877986908e-02
-1.374767971038818359e+01 -4.571995258331298828e+00 4.269543170928955078e+00
-1.335086536407470703e+01 -5.006379604339599609e+00 4.040170669555664062e+00
-1.317357158660888672e+01 -5.506656646728515625e+00 3.895354270935058594e+00
-1.271909618377685547e+01 -5.878478527069091797e+00 3.683782339096069336e+00
-1.378097915649414062e+01 -4.585741043090820312e+00 3.688607215881347656e+00
-1.400199031829833984e+01 -5.244967937469482422e+00 3.636637210845947266e+00
-1.267776489257812500e+01 -5.291609287261962891e+00 3.201939105987548828e+00
-1.363825988769531250e+01 -6.288857460021972656e+00 3.357006549835205078e+00
-1.412800407409667969e+01 -4.703955650329589844e+00 3.197688817977905273e+00
-1.272684097290039062e+01 -4.762248039245605469e+00 2.779464960098266602e+00
-1.257737827301025391e+01 -5.239401340484619141e+00 2.653375864028930664e+00
-1.387943172454833984e+01 -6.385384559631347656e+00 2.826060771942138672e+00
-1.343163967132568359e+01 -5.020631790161132812e+00 2.389286994934082031e+00
-1.093834304809570312e+01 -5.016121387481689453e+00 1.330653667449951172e+00
-9.882813453674316406e+00 -4.100732803344726562e+00 8.928467631340026855e-01
-9.231325149536132812e+00 -4.227466106414794922e+00 7.509544491767883301e-01
-1.151161289215087891e+01 -3.819434404373168945e+00 7.992088198661804199e-01
-1.048034954071044922e+01 -3.904961347579956055e+00 6.311686635017395020e-01
-9.538563728332519531e+00 -3.953989267349243164e+00 4.851372838020324707e-01
-9.035952568054199219e+00 -4.132273674011230469e+00 3.730193674564361572e-01
-1.153026962280273438e+01 -3.823390960693359375e+00 3.605338931083679199e-01
-1.045782089233398438e+01 -3.892410516738891602e+00 2.259481549263000488e-01
-9.609745979309082031e+00 -3.977601528167724609e+00 1.107322424650192261e-01
-1.012522125244140625e+01 -4.626139163970947266e+00 1.360030099749565125e-02
-1.378915500640869141e+01 -4.492011547088623047e+00 4.273783206939697266e+00
-1.337772083282470703e+01 -4.923037052154541016e+00 4.039080619812011719e+00
-1.308485603332519531e+01 -5.375496864318847656e+00 3.859296083450317383e+00
-1.251634407043457031e+01 -5.691829204559326172e+00 3.614876747131347656e+00
-1.362077140808105469e+01 -5.007082462310791016e+00 3.529579877853393555e+00
-1.263430690765380859e+01 -5.182672977447509766e+00 3.182871818542480469e+00
-1.430160617828369141e+01 -4.664472579956054688e+00 3.230442523956298828e+00
-1.305287551879882812e+01 -4.793148994445800781e+00 2.844192266464233398e+00
-1.282911968231201172e+01 -5.252125740051269531e+00 2.699634790420532227e+00
-1.399987125396728516e+01 -6.337001800537109375e+00 2.842612981796264648e+00
-1.345663738250732422e+01 -4.936084270477294922e+00 2.388300895690917969e+00
-1.457795619964599609e+01 -5.965113162994384766e+00 2.472200870513916016e+00
-1.076687812805175781e+01 -4.857756137847900391e+00 1.306144237518310547e+00
-9.942853927612304688e+00 -4.054314136505126953e+00 8.960067033767700195e-01
-9.252544403076171875e+00 -4.168695926666259766e+00 7.505856752395629883e-01
-1.170849418640136719e+01 -3.805167675018310547e+00 8.112413287162780762e-01
-1.061382293701171875e+01 -3.880694627761840820e+00 6.377609372138977051e-01
-9.643128395080566406e+00 -3.928172349929809570e+00 4.892203509807586670e-01
-9.119461059570312500e+00 -4.102993011474609375e+00 3.754203915596008301e-01
-1.172178173065185547e+01 -3.807224273681640625e+00 3.657848238945007324e-01
-1.074446105957031250e+01 -3.924208164215087891e+00 2.316166162490844727e-01
-9.751606941223144531e+00 -3.966409683227539062e+00 1.120843291282653809e-01
-1.061402130126953125e+01 -4.770965576171875000e+00 1.421727426350116730e-02
-1.392886066436767578e+01 -4.443173885345458984e+00 4.308552265167236328e+00
-1.335518932342529297e+01 -4.821909427642822266e+00 4.023268699645996094e+00
-1.312475013732910156e+01 -5.297997474670410156e+00 3.861401319503784180e+00
-1.256162643432617188e+01 -5.619662761688232422e+00 3.617928028106689453e+00
-1.359365367889404297e+01 -4.902644634246826172e+00 3.514691114425659180e+00
-1.258999443054199219e+01 -5.074470520019531250e+00 3.163804531097412109e+00
-1.330178928375244141e+01 -5.936861515045166016e+00 3.256006240844726562e+00
-1.444172191619873047e+01 -4.612326145172119141e+00 3.255637645721435547e+00
-1.366641330718994141e+01 -4.923495769500732422e+00 2.971241950988769531e+00
-1.328910923004150391e+01 -5.345471382141113281e+00 2.789475917816162109e+00
-1.408789539337158203e+01 -6.272979736328125000e+00 2.852617025375366211e+00
-1.350987434387207031e+01 -4.861773014068603516e+00 2.392409801483154297e+00
-1.461611652374267578e+01 -5.876289367675781250e+00 2.472511053085327148e+00
-1.082191944122314453e+01 -4.802889823913574219e+00 1.309221625328063965e+00
-1.114334392547607422e+01 -4.001349449157714844e+00 1.100445151329040527e+00
-1.006190013885498047e+01 -4.031031131744384766e+00 9.044886231422424316e-01
-9.370035171508789062e+00 -4.152656078338623047e+00 7.580354809761047363e-01
-1.190467739105224609e+01 -3.788323879241943359e+00 8.232080936431884766e-01
-1.076148605346679688e+01 -3.859992027282714844e+00 6.451983451843261719e-01
-9.788536071777343750e+00 -3.917550563812255859e+00 4.953684508800506592e-01
-9.184672355651855469e+00 -4.064754009246826172e+00 3.770710527896881104e-01
-1.197639083862304688e+01 -3.808842897415161133e+00 3.729937076568603516e-01
-1.091139984130859375e+01 -3.909465551376342773e+00 2.346937507390975952e-01
-9.791544914245605469e+00 -3.912807941436767578e+00 1.122653111815452576e-01
-1.087174415588378906e+01 -4.806844234466552734e+00 1.452270802110433578e-02
-1.396410179138183594e+01 -4.360197544097900391e+00 4.311096191406250000e+00
-1.337364101409912109e+01 -4.736018657684326172e+00 4.019997119903564453e+00
-1.267996692657470703e+01 -5.579484462738037109e+00 3.642082929611206055e+00
-1.362347984313964844e+01 -4.819143295288085938e+00 3.514691114425659180e+00
-1.258286285400390625e+01 -4.982066631317138672e+00 3.154270887374877930e+00
-1.303771495819091797e+01 -5.723326683044433594e+00 3.182710170745849609e+00
-1.420073127746582031e+01 -5.017762660980224609e+00 3.080657243728637695e+00
-1.331618118286132812e+01 -5.261666297912597656e+00 2.788329124450683594e+00
-1.428735065460205078e+01 -6.257029533386230469e+00 2.885175704956054688e+00
-1.461564922332763672e+01 -5.158633708953857422e+00 2.582573175430297852e+00
-1.087395954132080078e+01 -4.746337890625000000e+00 1.311969280242919922e+00
-1.022832393646240234e+01 -4.025049209594726562e+00 9.172115325927734375e-01
-9.424593925476074219e+00 -4.107835292816162109e+00 7.603957653045654297e-01
-1.206774425506591797e+01 -3.758828163146972656e+00 8.328735828399658203e-01
-1.092530155181884766e+01 -3.843254089355468750e+00 6.535936594009399414e-01
-1.006339359283447266e+01 -3.956089496612548828e+00 5.080401301383972168e-01
-9.268081665039062500e+00 -4.033844470977783203e+00 3.794720768928527832e-01
-1.208161354064941406e+01 -3.760834932327270508e+00 3.755449950695037842e-01
-1.099555110931396484e+01 -3.863653421401977539e+00 2.359894067049026489e-01
-1.114221954345703125e+01 -4.844919204711914062e+00 1.484402269124984741e-02
-1.400802230834960938e+01 -4.279758453369140625e+00 4.316467285156250000e+00
-1.337790966033935547e+01 -4.645349502563476562e+00 4.012636661529541016e+00
-1.256484794616699219e+01 -5.437051296234130859e+00 3.599366664886474609e+00
-1.328558540344238281e+01 -4.608094692230224609e+00 3.420159578323364258e+00
-1.264042568206787109e+01 -4.915354251861572266e+00 3.161080598831176758e+00
-1.293460369110107422e+01 -5.583655357360839844e+00 3.149116039276123047e+00
-1.437566566467285156e+01 -4.980566978454589844e+00 3.111918449401855469e+00
-1.287594890594482422e+01 -5.545009613037109375e+00 2.593238592147827148e+00
-1.058776569366455078e+01 -4.544281005859375000e+00 1.274051189422607422e+00
-1.034113597869873047e+01 -3.996339797973632812e+00 9.251113533973693848e-01
-9.491786956787109375e+00 -4.068001270294189453e+00 7.637887597084045410e-01
-1.224902629852294922e+01 -3.732998609542846680e+00 8.437882661819458008e-01
-1.108176136016845703e+01 -3.822044849395751953e+00 6.615381836891174316e-01
-1.012102508544921875e+01 -3.907217741012573242e+00 5.097296833992004395e-01
-9.343186378479003906e+00 -3.998524427413940430e+00 3.815354108810424805e-01
-1.224980354309082031e+01 -3.730899333953857422e+00 3.800542652606964111e-01
-1.120716094970703125e+01 -3.860918045043945312e+00 2.400180548429489136e-01
-9.545168876647949219e+00 -4.081023693084716797e+00 1.268278155475854874e-02
-1.412960052490234375e+01 -4.222288608551025391e+00 4.345865726470947266e+00
-1.335788822174072266e+01 -4.546745300292968750e+00 3.998188018798828125e+00
-1.252588748931884766e+01 -5.329183578491210938e+00 3.578771114349365234e+00
-1.370459079742431641e+01 -4.659418582916259766e+00 3.520599365234375000e+00
-1.243140602111816406e+01 -5.276178359985351562e+00 3.018666267395019531e+00
-1.431875324249267578e+01 -4.862652301788330078e+00 3.093081474304199219e+00
-1.300368022918701172e+01 -4.954573631286621094e+00 2.709956884384155273e+00
-1.296224880218505859e+01 -5.488136291503906250e+00 2.603788375854492188e+00
-1.473380470275878906e+01 -5.610829353332519531e+00 2.474526643753051758e+00
-1.473002815246582031e+01 -5.594677448272705078e+00 1.892822146415710449e+00
-1.067222595214843750e+01 -4.503186702728271484e+00 1.280865430831909180e+00
-9.613986968994140625e+00 -4.050729751586914062e+00 7.716073393821716309e-01
-1.252702236175537109e+01 -3.733872413635253906e+00 8.613439202308654785e-01
-1.128092956542968750e+01 -3.813446998596191406e+00 6.720182895660400391e-01
-1.029986286163330078e+01 -3.903810739517211914e+00 5.175204277038574219e-01
-9.380440711975097656e+00 -3.946545839309692383e+00 3.820606470108032227e-01
-1.263936519622802734e+01 -3.764955997467041016e+00 3.914164304733276367e-01
-1.137272834777832031e+01 -3.840055942535400391e+00 2.430547177791595459e-01
-9.606904983520507812e+00 -4.037878036499023438e+00 1.273165084421634674e-02
-1.413590717315673828e+01 -4.129862785339355469e+00 4.339929580688476562e+00
-1.387108707427978516e+01 -4.626651763916015625e+00 4.143219947814941406e+00
-1.342693996429443359e+01 -5.040420532226562500e+00 3.912725448608398438e+00
-1.411641597747802734e+01 -4.703005313873291016e+00 3.618912458419799805e+00
-1.246444702148437500e+01 -5.200177192687988281e+00 3.018884420394897461e+00
-1.427395248413085938e+01 -4.749955177307128906e+00 3.077049970626831055e+00
-1.309083557128906250e+01 -4.896009445190429688e+00 2.721808195114135742e+00
-1.282863712310791016e+01 -5.338979244232177734e+00 2.570320129394531250e+00
-1.480311965942382812e+01 -5.533463001251220703e+00 2.480418682098388672e+00
-1.495098686218261719e+01 -4.963661193847656250e+00 2.040419340133666992e+00
-1.490269660949707031e+01 -5.555868148803710938e+00 1.910593390464782715e+00
-1.067119503021240234e+01 -4.425814151763916016e+00 1.277458190917968750e+00
-1.042021656036376953e+01 -3.880614042282104492e+00 9.278554916381835938e-01
-9.666301727294921875e+00 -4.003110408782958984e+00 7.738201618194580078e-01
-1.280260753631591797e+01 -3.730634927749633789e+00 8.787023425102233887e-01
-1.144817733764648438e+01 -3.791872739791870117e+00 6.805825829505920410e-01
-1.046686267852783203e+01 -3.893826007843017578e+00 5.247009992599487305e-01
-9.460810661315917969e+00 -3.912208318710327148e+00 3.843491375446319580e-01
-1.281769943237304688e+01 -3.732605695724487305e+00 3.962223827838897705e-01
-1.158306884765625000e+01 -3.832065343856811523e+00 2.470428794622421265e-01
-9.596379280090332031e+00 -3.964346170425415039e+00 1.268522441387176514e-02
-1.419234180450439453e+01 -4.052002429962158203e+00 4.349540710449218750e+00
-1.393030834197998047e+01 -4.551612854003906250e+00 4.152488708496093750e+00
-1.344946670532226562e+01 -4.954937458038330078e+00 3.910356521606445312e+00
-1.439810848236083984e+01 -4.698900699615478516e+00 3.683666706085205078e+00
-1.284849739074707031e+01 -4.725894451141357422e+00 3.190816640853881836e+00
-1.249611949920654297e+01 -5.123599052429199219e+00 3.018884420394897461e+00
-1.310680961608886719e+01 -4.810520648956298828e+00 2.718940973281860352e+00
-1.289210033416748047e+01 -5.272819995880126953e+00 2.576504468917846680e+00
-1.481082439422607422e+01 -5.433002471923828125e+00 2.476077318191528320e+00
-1.498965358734130859e+01 -5.483765602111816406e+00 1.917391777038574219e+00
-1.079295539855957031e+01 -4.398893356323242188e+00 1.288778781890869141e+00
-1.230254650115966797e+01 -3.996004343032836914e+00 1.202243924140930176e+00
-1.047003841400146484e+01 -3.826181173324584961e+00 9.301838874816894531e-01
-9.788596153259277344e+00 -3.983570814132690430e+00 7.816387414932250977e-01
-1.165356731414794922e+01 -3.780712366104125977e+00 6.914007067680358887e-01
-1.062286281585693359e+01 -3.877826452255249023e+00 5.313184261322021484e-01
-9.699419021606445312e+00 -3.941360473632812500e+00 3.930527567863464355e-01
