-3.660179853439331055e+00 -5.420825481414794922e+00 4.310007393360137939e-01
-3.624147653579711914e+00 -5.811691284179687500e+00 3.865217566490173340e-01
-3.572291851043701172e+00 -6.773304939270019531e+00 2.874833941459655762e-01
-3.674164533615112305e+00 -5.439490318298339844e+00 1.948182433843612671e-01
-3.657138586044311523e+00 -5.860039234161376953e+00 1.398688107728958130e-01
-3.067286968231201172e+00 -5.334714412689208984e+00 6.551738083362579346e-02
-2.395206212997436523e+00 -4.537632465362548828e+00 6.268697790801525116e-03
-3.728061676025390625e+00 -5.457138538360595703e+00 1.947639822959899902e+00
-4.354844570159912109e+00 -6.920983791351318359e+00 2.316964387893676758e+00
-3.623144865036010742e+00 -6.263079166412353516e+00 1.973997116088867188e+00
-3.657398462295532227e+00 -6.899158954620361328e+00 2.052930593490600586e+00
-3.879118442535400391e+00 -6.160159111022949219e+00 1.770580053329467773e+00
-4.032471179962158203e+00 -6.951046943664550781e+00 1.564958453178405762e+00
-4.698625087738037109e+00 -6.877849102020263672e+00 1.160270214080810547e+00
-4.329521656036376953e+00 -6.854170322418212891e+00 7.534962892532348633e-01
-3.665763854980468750e+00 -5.357912063598632812e+00 4.277789294719696045e-01
-3.609591245651245117e+00 -5.710015773773193359e+00 3.812254071235656738e-01
-3.619318008422851562e+00 -6.213854789733886719e+00 3.378642797470092773e-01
-3.663301706314086914e+00 -6.843765735626220703e+00 2.914225459098815918e-01
-3.648757219314575195e+00 -5.331058502197265625e+00 1.917329430580139160e-01
-3.688750267028808594e+00 -5.830729961395263672e+00 1.397068649530410767e-01
-3.110037088394165039e+00 -5.333069324493408203e+00 6.573030352592468262e-02
-2.459837436676025391e+00 -4.591605663299560547e+00 6.363992579281330109e-03
-3.571189165115356445e+00 -6.086792469024658203e+00 1.925305247306823730e+00
-3.724864244461059570e+00 -6.923431396484375000e+00 2.066915273666381836e+00
-3.920502901077270508e+00 -6.141974449157714844e+00 1.772234439849853516e+00
-4.059616088867187500e+00 -6.899947166442871094e+00 1.559032797813415527e+00
-4.413043498992919922e+00 -6.902971744537353516e+00 1.365166068077087402e+00
-4.100100517272949219e+00 -6.965974330902099609e+00 1.268661975860595703e+00
-4.384196281433105469e+00 -6.852576732635498047e+00 1.053670644760131836e+00
-4.418744564056396484e+00 -6.901268482208251953e+00 7.616402506828308105e-01
-3.666735172271728516e+00 -5.289394855499267578e+00 4.240968227386474609e-01
-3.635402202606201172e+00 -5.673469543457031250e+00 3.802675604820251465e-01
-3.931718826293945312e+00 -6.655959129333496094e+00 3.632076084613800049e-01
-3.558790445327758789e+00 -6.551579475402832031e+00 2.799052000045776367e-01
-3.671146154403686523e+00 -5.293784618377685547e+00 1.911989450454711914e-01
-3.710425376892089844e+00 -5.786104202270507812e+00 1.391805112361907959e-01
-3.127430915832519531e+00 -5.288065433502197266e+00 6.541091203689575195e-02
-2.398170709609985352e+00 -4.411256790161132812e+00 6.134307477623224258e-03
-3.598603725433349609e+00 -6.048183441162109375e+00 1.920041203498840332e+00
-3.773763418197631836e+00 -6.912329673767089844e+00 2.070474863052368164e+00
-3.768529653549194336e+00 -6.326238155364990234e+00 1.716281056404113770e+00
-3.970110177993774414e+00 -6.654061794281005859e+00 1.508951067924499512e+00
-4.451024532318115234e+00 -6.869141101837158203e+00 1.363851070404052734e+00
-4.131120204925537109e+00 -6.921175479888916016e+00 1.265095710754394531e+00
-4.424541950225830078e+00 -6.823051452636718750e+00 1.053285479545593262e+00
-4.163518905639648438e+00 -6.961643695831298828e+00 9.744395613670349121e-01
-4.173178672790527344e+00 -6.972269535064697266e+00 6.780546307563781738e-01
-3.691092014312744141e+00 -5.255364894866943359e+00 4.231763184070587158e-01
-3.633166551589965820e+00 -5.594118595123291016e+00 3.764361441135406494e-01
-4.146495819091796875e+00 -6.922205448150634766e+00 3.791176080703735352e-01
-3.592170238494873047e+00 -6.517367362976074219e+00 2.793799936771392822e-01
-3.704708576202392578e+00 -5.272795200347900391e+00 1.912582963705062866e-01
-3.740954399108886719e+00 -5.755683898925781250e+00 1.389982998371124268e-01
-3.182447910308837891e+00 -5.306508541107177734e+00 6.587935239076614380e-02
-2.352741003036499023e+00 -4.265116214752197266e+00 5.951047874987125397e-03
-3.653090000152587891e+00 -6.054900646209716797e+00 1.929253101348876953e+00
-3.835474252700805664e+00 -6.349678516387939453e+00 1.728992700576782227e+00
-3.859190940856933594e+00 -6.952503204345703125e+00 1.777431249618530273e+00
-4.004258632659912109e+00 -6.618658542633056641e+00 1.506466150283813477e+00
-4.781846523284912109e+00 -6.732754707336425781e+00 1.459096431732177734e+00
-4.477928161621093750e+00 -6.818614959716796875e+00 1.359249114990234375e+00
-4.164302825927734375e+00 -6.880484104156494141e+00 1.262304782867431641e+00
-4.448349952697753906e+00 -6.768425464630126953e+00 1.049046635627746582e+00
-4.189167022705078125e+00 -6.907949924468994141e+00 9.705036282539367676e-01
-4.203989505767822266e+00 -6.926938056945800781e+00 6.761420369148254395e-01
-3.742938041687011719e+00 -5.260260581970214844e+00 4.254118502140045166e-01
-3.641074419021606445e+00 -5.531690120697021484e+00 3.737316429615020752e-01
-3.664632320404052734e+00 -6.033486366271972656e+00 3.316692411899566650e-01
-3.595025062561035156e+00 -6.428916931152343750e+00 2.765287756919860840e-01
-3.749164581298828125e+00 -5.267065048217773438e+00 1.918812841176986694e-01
-3.777850389480590820e+00 -5.735126495361328125e+00 1.390590369701385498e-01
-3.120910644531250000e+00 -5.132239341735839844e+00 6.395237147808074951e-02
-2.388146162033081055e+00 -4.267179965972900391e+00 5.974261090159416199e-03
-3.809500694274902344e+00 -6.778657913208007812e+00 2.044285535812377930e+00
-4.246692180633544922e+00 -6.933960914611816406e+00 1.895150184631347656e+00
-3.919974803924560547e+00 -6.961006164550781250e+00 1.785720705986022949e+00
-4.075075626373291016e+00 -6.643329143524169922e+00 1.517744064331054688e+00
-4.829394340515136719e+00 -6.712080001831054688e+00 1.461010336875915527e+00
-4.505472660064697266e+00 -6.769660472869873047e+00 1.354975700378417969e+00
-4.204374790191650391e+00 -6.851434230804443359e+00 1.261684536933898926e+00
-4.501341342926025391e+00 -6.758336544036865234e+00 1.051743984222412109e+00
-4.223154067993164062e+00 -6.868583679199218750e+00 9.685953259468078613e-01
-4.227090358734130859e+00 -6.869609832763671875e+00 6.730653047561645508e-01
-3.804318428039550781e+00 -5.277668476104736328e+00 4.286994338035583496e-01
-3.667745113372802734e+00 -5.498447418212890625e+00 3.729991614818572998e-01
-4.254176616668701172e+00 -6.908225059509277344e+00 3.811826407909393311e-01
-3.634404659271240234e+00 -6.406737327575683594e+00 2.765287756919860840e-01
-3.798951148986816406e+00 -5.268283843994140625e+00 1.927712559700012207e-01
-3.816854953765869141e+00 -5.717658996582031250e+00 1.392007470130920410e-01
-3.201147079467773438e+00 -5.192152023315429688e+00 6.494247913360595703e-02
-2.412309169769287109e+00 -4.248967647552490234e+00 5.969373974949121475e-03
-3.733208894729614258e+00 -5.120093822479248047e+00 1.867359757423400879e+00
-4.275762081146240234e+00 -6.894250869750976562e+00 2.213245630264282227e+00
-3.978587388992309570e+00 -6.964787006378173828e+00 1.792919516563415527e+00
-4.323623180389404297e+00 -6.952444076538085938e+00 1.594395875930786133e+00
-4.876867771148681641e+00 -6.691074371337890625e+00 1.462924122810363770e+00
-4.501699447631835938e+00 -6.674829006195068359e+00 1.341498374938964844e+00
-4.269946098327636719e+00 -6.850124359130859375e+00 9.696687459945678711e-01
-4.271271705627441406e+00 -6.846925258636474609e+00 6.733978986740112305e-01
-3.842514038085937500e+00 -5.262284755706787109e+00 4.293569326400756836e-01
-3.674016475677490234e+00 -5.435307502746582031e+00 3.702382743358612061e-01
-4.136728286743164062e+00 -6.626098632812500000e+00 3.670091032981872559e-01
-3.840049266815185547e+00 -5.256982326507568359e+00 1.932162642478942871e-01
-3.881556034088134766e+00 -5.738021373748779297e+00 1.402737051248550415e-01
-3.205915689468383789e+00 -5.129167556762695312e+00 6.439951807260513306e-02
-2.528662204742431641e+00 -4.390936374664306641e+00 6.190507207065820694e-03
-3.948052644729614258e+00 -5.345541477203369141e+00 1.958381533622741699e+00
-4.303092002868652344e+00 -6.844200134277343750e+00 2.205612659454345703e+00
-3.849795103073120117e+00 -6.657721996307373047e+00 2.021910190582275391e+00
-4.898530006408691406e+00 -6.634881019592285156e+00 1.457182407379150391e+00
-4.542013645172119141e+00 -6.646266460418701172e+00 1.341333866119384766e+00
-4.367055892944335938e+00 -6.911086559295654297e+00 9.820728898048400879e-01
-4.327583789825439453e+00 -6.843328952789306641e+00 6.756430864334106445e-01
-3.920420408248901367e+00 -5.300380706787109375e+00 4.344198107719421387e-01
-3.689244031906127930e+00 -5.386303424835205078e+00 3.684352636337280273e-01
-3.689599037170410156e+00 -5.829960346221923828e+00 3.241601288318634033e-01
-3.615537881851196289e+00 -6.195083618164062500e+00 2.692882418632507324e-01
-3.925741672515869141e+00 -5.305637836456298828e+00 1.958862096071243286e-01
-3.911038160324096680e+00 -5.705850124359130859e+00 1.400712579488754272e-01
-3.211638450622558594e+00 -5.068856239318847656e+00 6.388849765062332153e-02
-2.686688423156738281e+00 -4.599846839904785156e+00 6.508156657218933105e-03
-3.903782367706298828e+00 -5.218293666839599609e+00 1.920502901077270508e+00
-4.332044124603271484e+00 -6.797328948974609375e+00 2.199032783508300781e+00
-3.616100311279296875e+00 -6.165959358215332031e+00 1.879268050193786621e+00
-3.937239170074462891e+00 -6.170716762542724609e+00 1.706066489219665527e+00
-3.783411979675292969e+00 -6.438366889953613281e+00 1.669232130050659180e+00
-4.057249546051025391e+00 -6.890593051910400391e+00 1.479148149490356445e+00
-4.753377914428710938e+00 -6.356284141540527344e+00 1.402374982833862305e+00
-4.540031909942626953e+00 -6.556638717651367188e+00 1.328842639923095703e+00
-4.369751930236816406e+00 -6.822292327880859375e+00 9.732469320297241211e-01
-4.444243907928466797e+00 -6.933263778686523438e+00 6.872017383575439453e-01
-3.972612619400024414e+00 -5.302578926086425781e+00 4.365895986557006836e-01
-3.670423984527587891e+00 -5.288922786712646484e+00 3.633079528808593750e-01
-4.020968437194824219e+00 -6.793672561645507812e+00 2.963746190071105957e-01
-3.972609519958496094e+00 -5.300646781921386719e+00 1.965982019901275635e-01
-3.682491779327392578e+00 -5.302359580993652344e+00 1.307183355093002319e-01
-3.242679834365844727e+00 -5.049054622650146484e+00 6.388849765062332153e-02
-2.718939065933227539e+00 -4.590158462524414062e+00 6.517930421978235245e-03
-4.361630439758300781e+00 -6.751981735229492188e+00 2.192979335784912109e+00
-3.649416685104370117e+00 -6.136174201965332031e+00 1.876979708671569824e+00
-3.972912549972534180e+00 -6.143171310424804688e+00 1.705158591270446777e+00
-3.817350149154663086e+00 -6.405809402465820312e+00 1.666832566261291504e+00
-4.091891765594482422e+00 -6.852904796600341797e+00 1.476419806480407715e+00
-4.780992984771728516e+00 -6.312083721160888672e+00 1.399069190025329590e+00
-4.587542057037353516e+00 -6.539156436920166016e+00 1.330979347229003906e+00
-4.414765357971191406e+00 -6.813345909118652344e+00 1.274244070053100586e+00
-4.153068065643310547e+00 -6.944341182708740234e+00 1.193400979042053223e+00
-4.427208423614501953e+00 -6.819501399993896484e+00 9.767057299613952637e-01
-4.171619892120361328e+00 -6.967078208923339844e+00 8.979466557502746582e-01
-4.184658527374267578e+00 -6.980558872222900391e+00 6.019584536552429199e-01
-4.006279945373535156e+00 -5.279693126678466797e+00 4.367211163043975830e-01
-3.701658248901367188e+00 -5.264668464660644531e+00 3.631952404975891113e-01
-3.644340753555297852e+00 -5.605030536651611328e+00 3.141166269779205322e-01
-4.095489501953125000e+00 -6.823708534240722656e+00 2.987756133079528809e-01
-4.025002479553222656e+00 -5.302444934844970703e+00 1.975771933794021606e-01
-3.706902503967285156e+00 -5.268217563629150391e+00 1.304349154233932495e-01
-3.305784225463867188e+00 -5.078506946563720703e+00 6.451662629842758179e-02
-2.738299369812011719e+00 -4.558815956115722656e+00 6.497161462903022766e-03
-3.704979181289672852e+00 -6.143480777740478516e+00 1.886133193969726562e+00
-3.982259511947631836e+00 -6.590247154235839844e+00 1.721150279045104980e+00
-4.068674564361572266e+00 -6.720000267028808594e+00 1.453137636184692383e+00
-4.811841487884521484e+00 -6.272472381591796875e+00 1.396807312965393066e+00
-4.624150276184082031e+00 -6.506060123443603516e+00 1.329993128776550293e+00
-4.425577640533447266e+00 -6.739060401916503906e+00 1.265405893325805664e+00
-4.195086479187011719e+00 -6.917881488800048828e+00 1.193255066871643066e+00
-4.463511466979980469e+00 -6.783914089202880859e+00 9.755131006240844727e-01
-4.202426910400390625e+00 -6.921809673309326172e+00 8.954187631607055664e-01
-4.218605995178222656e+00 -6.940263271331787109e+00 6.007045507431030273e-01
-4.071434497833251953e+00 -5.297735691070556641e+00 4.402716755867004395e-01
-3.665472745895385742e+00 -5.562545299530029297e+00 3.129902482032775879e-01
-3.670772790908813477e+00 -6.031875133514404297e+00 2.650864720344543457e-01
-4.087923526763916016e+00 -5.317270278930664062e+00 1.990605145692825317e-01
-4.017723083496093750e+00 -5.636150360107421875e+00 1.401522457599639893e-01
-3.354503870010375977e+00 -5.084836959838867188e+00 6.485731154680252075e-02
-2.784945726394653320e+00 -4.572674274444580078e+00 6.541143637150526047e-03
-3.809990644454956055e+00 -5.303200244903564453e+00 1.850245594978332520e+00
-4.405755043029785156e+00 -6.640069484710693359e+00 2.174028635025024414e+00
-4.246631145477294922e+00 -6.944912433624267578e+00 2.140143394470214844e+00
-4.266834259033203125e+00 -6.964289665222167969e+00 1.825640916824340820e+00
-4.127836704254150391e+00 -6.724239349365234375e+00 1.459503769874572754e+00
-4.842383861541748047e+00 -6.232719421386718750e+00 1.394545435905456543e+00
-4.661102294921875000e+00 -6.473562717437744141e+00 1.329171419143676758e+00
-4.465749740600585938e+00 -6.710134029388427734e+00 1.265095710754394531e+00
-4.236936092376708984e+00 -6.891167640686035156e+00 1.193109035491943359e+00
-4.508908748626708984e+00 -6.762181282043457031e+00 9.763479828834533691e-01
-4.241693496704101562e+00 -6.890815258026123047e+00 8.947594165802001953e-01
-4.251169681549072266e+00 -6.898117065429687500e+00 5.993030667304992676e-01
-4.114283084869384766e+00 -5.286040306091308594e+00 4.413894712924957275e-01
-3.844857215881347656e+00 -5.328146457672119141e+00 3.708017170429229736e-01
-4.289111137390136719e+00 -6.951530456542968750e+00 3.066539466381072998e-01
-4.132140159606933594e+00 -5.307071685791015625e+00 1.996241658926010132e-01
-4.402842044830322266e+00 -6.096907615661621094e+00 1.522786617279052734e-01
-3.380082845687866211e+00 -5.055845260620117188e+00 6.475084275007247925e-02
-2.906470537185668945e+00 -4.706953048706054688e+00 6.758611183613538742e-03
-3.821511268615722656e+00 -5.250940322875976562e+00 1.840158820152282715e+00
-4.304961204528808594e+00 -6.944206237792968750e+00 2.148025274276733398e+00
-4.744301795959472656e+00 -6.029744148254394531e+00 1.948549509048461914e+00
-5.453254699707031250e+00 -6.933273792266845703e+00 1.894257903099060059e+00
-4.226171016693115234e+00 -6.790617942810058594e+00 1.479512095451354980e+00
-4.877490997314453125e+00 -6.199020385742187500e+00 1.393675446510314941e+00
-4.698410034179687500e+00 -6.441652297973632812e+00 1.328513860702514648e+00
-4.493029117584228516e+00 -6.662130355834960938e+00 1.261219501495361328e+00
-4.290735244750976562e+00 -6.875620841979980469e+00 8.961881399154663086e-01
-4.298171997070312500e+00 -6.879515171051025391e+00 5.999670028686523438e-01
-4.190496921539306641e+00 -5.316336154937744141e+00 4.460578262805938721e-01
-3.678595066070556641e+00 -5.436071872711181641e+00 3.083909153938293457e-01
-3.746106624603271484e+00 -5.988916397094726562e+00 2.651990056037902832e-01
-4.195571422576904297e+00 -5.320862770080566406e+00 2.011074721813201904e-01
-4.455516815185546875e+00 -6.090757846832275391e+00 1.528050154447555542e-01
-3.423379898071289062e+00 -5.053223133087158203e+00 6.498505920171737671e-02
-2.897624492645263672e+00 -4.628849983215332031e+00 6.671869195997714996e-03
-4.343886375427246094e+00 -6.911928653717041016e+00 2.146245479583740234e+00
-5.372647285461425781e+00 -6.745201110839843750e+00 1.851846098899841309e+00
-4.729640960693359375e+00 -6.401595115661621094e+00 1.326212882995605469e+00
-4.511527061462402344e+00 -6.601810455322265625e+00 1.255017280578613281e+00
-4.345064163208007812e+00 -6.868483066558837891e+00 8.987159729003906250e-01
-4.346706390380859375e+00 -6.863122463226318359e+00 6.008521318435668945e-01
-4.240468502044677734e+00 -5.312359333038330078e+00 4.478988647460937500e-01
-3.889157772064208984e+00 -5.252479076385498047e+00 3.688296675682067871e-01
-3.709621429443359375e+00 -5.410102844238281250e+00 3.082031905651092529e-01
-3.753351688385009766e+00 -5.919401168823242188e+00 2.631356418132781982e-01
-4.262444496154785156e+00 -5.337979316711425781e+00 2.027391195297241211e-01
-4.266021728515625000e+00 -5.757247447967529297e+00 1.450918763875961304e-01
-3.491105556488037109e+00 -5.085708618164062500e+00 6.567706912755966187e-02
-2.919542551040649414e+00 -4.600851058959960938e+00 6.657208316028118134e-03
-5.153824806213378906e+00 -6.901965618133544922e+00 2.440732002258300781e+00
-3.982482910156250000e+00 -5.329431533813476562e+00 1.618147492408752441e+00
-5.574141979217529297e+00 -6.910731792449951172e+00 1.906645536422729492e+00
-4.752874374389648438e+00 -6.351131439208984375e+00 1.321775317192077637e+00
-4.550825119018554688e+00 -6.572379112243652344e+00 1.254706978797912598e+00
-4.396247386932373047e+00 -6.855916976928710938e+00 9.005844593048095703e-01
-4.314384937286376953e+00 -5.337457656860351562e+00 4.522384405136108398e-01
-4.007575035095214844e+00 -5.343534946441650391e+00 3.769432604312896729e-01
-3.662956953048706055e+00 -5.272390365600585938e+00 3.016327023506164551e-01
-4.316486358642578125e+00 -5.338151454925537109e+00 2.037477791309356689e-01
-4.424898147583007812e+00 -5.895687580108642578e+00 1.492622345685958862e-01
-3.551364183425903320e+00 -5.106058120727539062e+00 6.622003763914108276e-02
-2.988831043243408203e+00 -4.646770000457763672e+00 6.750059314072132111e-03
-5.198979377746582031e+00 -6.874049186706542969e+00 2.442095041275024414e+00
-3.975798606872558594e+00 -6.145428657531738281e+00 1.636074423789978027e+00
-4.483624458312988281e+00 -6.917136669158935547e+00 1.524803161621093750e+00
-4.797117233276367188e+00 -6.328923702239990234e+00 1.323254466056823730e+00
-4.589931964874267578e+00 -6.542714595794677734e+00 1.254396915435791016e+00
-4.402623176574707031e+00 -6.781793594360351562e+00 1.192525506019592285e+00
-4.438773632049560547e+00 -6.829646587371826172e+00 9.006943702697753906e-01
-4.364750385284423828e+00 -5.332504749298095703e+00 4.540794789791107178e-01
-4.021564960479736328e+00 -5.294197559356689453e+00 3.751965761184692383e-01
-3.711337327957153320e+00 -5.272686958312988281e+00 3.029468059539794922e-01
-3.656623125076293945e+00 -5.613329887390136719e+00 2.515057623386383057e-01
-4.373856544494628906e+00 -5.341727256774902344e+00 2.049047648906707764e-01
-4.323645114898681641e+00 -5.687748908996582031e+00 1.446667462587356567e-01
-3.640801906585693359e+00 -5.166727542877197266e+00 6.729531288146972656e-02
-3.034216403961181641e+00 -4.654312133789062500e+00 6.787932943552732468e-03
-5.680430412292480469e+00 -6.863411426544189453e+00 2.625497579574584961e+00
-5.681689739227294922e+00 -6.867373466491699219e+00 2.263625621795654297e+00
-5.236208438873291016e+00 -6.825809955596923828e+00 1.759659767150878906e+00
-4.837061882019042969e+00 -6.300934791564941406e+00 1.323583126068115234e+00
-4.630563259124755859e+00 -6.515233993530273438e+00 1.254552006721496582e+00
-4.431102275848388672e+00 -6.734817028045654297e+00 1.189023613929748535e+00
-4.474034786224365234e+00 -6.792321681976318359e+00 8.993754982948303223e-01
-4.424131393432617188e+00 -5.337889671325683594e+00 4.568410515785217285e-01
-4.426327228546142578e+00 -5.338643074035644531e+00 2.058244049549102783e-01
-4.499353885650634766e+00 -5.844112396240234375e+00 1.493432074785232544e-01
-3.695675611495971680e+00 -5.176845073699951172e+00 6.772116571664810181e-02
-3.042321443557739258e+00 -4.604736328125000000e+00 6.742728874087333679e-03
-5.856749057769775391e+00 -6.988699436187744141e+00 2.687121152877807617e+00
-3.730115175247192383e+00 -5.195966720581054688e+00 1.745013356208801270e+00
-5.754219055175781250e+00 -6.868788242340087891e+00 2.275687456130981445e+00
-5.357934951782226562e+00 -6.896450519561767578e+00 1.786312222480773926e+00
-4.664680480957031250e+00 -6.478681087493896484e+00 1.253001451492309570e+00
-4.472892284393310547e+00 -6.708324909210205078e+00 1.189169526100158691e+00
-4.480534076690673828e+00 -5.338923931121826172e+00 4.592738449573516846e-01
-4.146980285644531250e+00 -5.322418212890625000e+00 3.807746767997741699e-01
-3.837765216827392578e+00 -5.312576293945312500e+00 3.079215884208679199e-01
-4.496277809143066406e+00 -5.355784893035888672e+00 2.075450569391250610e-01
-4.570169448852539062e+00 -5.861336231231689453e+00 1.504971534013748169e-01
-3.729128360748291016e+00 -5.156501770019531250e+00 6.775310635566711426e-02
-2.993741512298583984e+00 -4.471312046051025391e+00 6.574130151420831680e-03
-5.894555568695068359e+00 -6.946779727935791016e+00 2.684859514236450195e+00
-5.457095623016357422e+00 -6.935821056365966797e+00 1.805149197578430176e+00
-4.692702293395996094e+00 -6.433974266052246094e+00 1.249900460243225098e+00
-4.516184806823730469e+00 -6.684031963348388672e+00 1.189753174781799316e+00
-4.539700508117675781e+00 -5.342507839202880859e+00 4.619696736335754395e-01
-4.183270931243896484e+00 -5.301575183868408203e+00 3.811127245426177979e-01
-3.662876367568969727e+00 -5.402806282043457031e+00 2.450530529022216797e-01
-4.549124240875244141e+00 -5.351705074310302734e+00 2.084647119045257568e-01
-4.495140552520751953e+00 -5.692728996276855469e+00 1.468733847141265869e-01
-3.787289857864379883e+00 -5.169822692871093750e+00 6.823218613862991333e-02
-3.049754142761230469e+00 -4.495061874389648438e+00 6.636438425630331039e-03
-5.437396049499511719e+00 -6.833983898162841797e+00 2.474536657333374023e+00
-4.293749809265136719e+00 -6.304516315460205078e+00 2.005383253097534180e+00
-5.502126216888427734e+00 -6.406488895416259766e+00 2.144733667373657227e+00
-5.505044937133789062e+00 -6.909102439880371094e+00 1.806952714920043945e+00
-5.003230571746826172e+00 -6.774528503417968750e+00 1.640081167221069336e+00
-4.584496974945068359e+00 -6.696194171905517578e+00 1.196902751922607422e+00
-4.629664421081542969e+00 -5.381115913391113281e+00 4.677557945251464844e-01
-4.246261596679687500e+00 -5.314026355743408203e+00 3.838735818862915039e-01
-3.691431522369384766e+00 -5.373640060424804688e+00 2.447529137134552002e-01
-4.622954368591308594e+00 -5.371420383453369141e+00 2.103336751461029053e-01
-4.696699619293212891e+00 -5.873526573181152344e+00 1.522786617279052734e-01
-3.842774868011474609e+00 -5.178606986999511719e+00 6.865803897380828857e-02
-3.111268520355224609e+00 -4.525707244873046875e+00 6.709742359817028046e-03
-5.571223258972167969e+00 -6.406982898712158203e+00 2.156302928924560547e+00
-5.057051181793212891e+00 -6.760207176208496094e+00 1.644095420837402344e+00
-4.730379581451416016e+00 -6.819131374359130859e+00 1.224042057991027832e+00
-4.688811779022216797e+00 -5.382703781127929688e+00 4.703858494758605957e-01
-4.298884868621826172e+00 -5.312708377838134766e+00 3.856766223907470703e-01
-4.004472255706787109e+00 -5.333698749542236328e+00 3.133657276630401611e-01
-3.646125316619873047e+00 -5.238523483276367188e+00 2.396132498979568481e-01
-4.684719562530517578e+00 -5.376111030578613281e+00 2.116389870643615723e-01
-4.736425399780273438e+00 -5.849259376525878906e+00 1.524001210927963257e-01
-3.857656002044677734e+00 -5.132549285888671875e+00 6.835994124412536621e-02
-3.078394412994384766e+00 -4.419552326202392578e+00 6.580238696187734604e-03
-5.472408294677734375e+00 -6.213716030120849609e+00 2.440061807632446289e+00
-5.698173999786376953e+00 -6.472342014312744141e+00 2.190025806427001953e+00
-5.124516963958740234e+00 -6.276495933532714844e+00 1.970751166343688965e+00
-3.998632669448852539e+00 -5.285162448883056641e+00 1.544675707817077637e+00
-5.134537220001220703e+00 -5.834180831909179688e+00 1.668971061706542969e+00
-5.144078731536865234e+00 -6.789291381835937500e+00 1.658813953399658203e+00
-4.744851589202880859e+00 -5.380025386810302734e+00 4.726871252059936523e-01
-4.375697135925292969e+00 -5.340290546417236328e+00 3.896207213401794434e-01
-4.018984794616699219e+00 -5.285173416137695312e+00 3.119577467441558838e-01
-4.744731426239013672e+00 -5.377996444702148438e+00 2.128553092479705811e-01
-4.777297973632812500e+00 -5.826272010803222656e+00 1.525620818138122559e-01
-3.947221279144287109e+00 -5.185163497924804688e+00 6.938198953866958618e-02
-3.105454444885253906e+00 -4.400580406188964844e+00 6.580238696187734604e-03
-5.399355411529541016e+00 -6.055447101593017578e+00 2.390876293182373047e+00
-5.626608371734619141e+00 -6.810623168945312500e+00 2.503161191940307617e+00
-3.679534196853637695e+00 -5.194509029388427734e+00 1.673568129539489746e+00
-6.227268218994140625e+00 -6.986416816711425781e+00 2.376856327056884766e+00
-5.568462848663330078e+00 -6.735452175140380859e+00 2.125546932220458984e+00
-5.162433624267578125e+00 -5.793806552886962891e+00 1.666451454162597656e+00
-5.294396877288818359e+00 -6.899324893951416016e+00 1.693603634834289551e+00
-4.808344841003417969e+00 -5.385048389434814453e+00 4.757117033004760742e-01
-4.431332588195800781e+00 -5.341002464294433594e+00 3.916490972042083740e-01
-4.830910682678222656e+00 -5.408420085906982422e+00 2.152286022901535034e-01
-4.699275970458984375e+00 -5.659928321838378906e+00 1.489585638046264648e-01
-4.005826950073242188e+00 -5.195690155029296875e+00 6.985042244195938110e-02
-3.124836683273315430e+00 -4.370867729187011719e+00 6.564356386661529541e-03
-5.379204273223876953e+00 -5.958834648132324219e+00 2.365718126296997070e+00
-5.339784622192382812e+00 -6.888119697570800781e+00 2.377745151519775391e+00
-3.700624227523803711e+00 -5.156904697418212891e+00 1.668737053871154785e+00
-5.700124740600585938e+00 -6.809193611145019531e+00 2.159814596176147461e+00
-5.195267200469970703e+00 -5.759117603302001953e+00 1.665611743927001953e+00
-5.014236450195312500e+00 -5.985606193542480469e+00 1.597140192985534668e+00
-5.349279403686523438e+00 -6.882984638214111328e+00 1.697617769241333008e+00
-4.869400978088378906e+00 -5.386532783508300781e+00 4.784732758998870850e-01
-4.485856056213378906e+00 -5.339703083038330078e+00 3.935647904872894287e-01
-4.188591957092285156e+00 -5.370142936706542969e+00 3.199831545352935791e-01
-3.845044374465942383e+00 -5.313001632690429688e+00 2.462160289287567139e-01
-4.878754615783691406e+00 -5.394986629486083984e+00 2.158812731504440308e-01
-4.585940837860107422e+00 -5.454971313476562500e+00 1.443023532629013062e-01
-4.049939632415771484e+00 -5.186776161193847656e+00 7.006335258483886719e-02
-3.143971681594848633e+00 -4.341083049774169922e+00 6.548474077135324478e-03
-6.011654376983642578e+00 -6.577835559844970703e+00 2.626063108444213867e+00
-5.867087841033935547e+00 -6.926805973052978516e+00 2.572133064270019531e+00
-5.398629665374755859e+00 -6.876472473144531250e+00 2.385114908218383789e+00
-5.849684238433837891e+00 -6.402854442596435547e+00 2.202579736709594727e+00
-5.507451534271240234e+00 -6.497611522674560547e+00 2.071663856506347656e+00
-5.227209568023681641e+00 -5.723521709442138672e+00 1.664561867713928223e+00
-5.047066688537597656e+00 -5.950243949890136719e+00 1.595937848091125488e+00
-5.350737571716308594e+00 -6.798354148864746094e+00 1.684810519218444824e+00
-4.907846927642822266e+00 -6.726637840270996094e+00 1.540264010429382324e+00
-4.950865268707275391e+00 -5.409552097320556641e+00 4.832073748111724854e-01
-4.570933818817138672e+00 -5.373678684234619141e+00 3.981287181377410889e-01
-4.201031208038330078e+00 -5.318473815917968750e+00 3.184343874454498291e-01
-4.949563980102539062e+00 -5.406235218048095703e+00 2.175425738096237183e-01
-4.602476119995117188e+00 -5.406935214996337891e+00 1.437759846448898315e-01
-4.091612339019775391e+00 -5.174377918243408203e+00 7.023368775844573975e-02
-3.169366121292114258e+00 -4.320097446441650391e+00 6.546030752360820770e-03
-5.399156093597412109e+00 -5.835344791412353516e+00 2.342821121215820312e+00
-5.405298233032226562e+00 -6.798663616180419922e+00 2.369585990905761719e+00
-5.650997161865234375e+00 -6.584622859954833984e+00 2.110421657562255859e+00
-5.250282764434814453e+00 -5.678418636322021484e+00 1.660782575607299805e+00
-5.069438934326171875e+00 -5.902812480926513672e+00 1.591529250144958496e+00
-4.896798133850097656e+00 -6.143660068511962891e+00 1.529977798461914062e+00
-4.947274684906005859e+00 -6.694024562835693359e+00 1.539718270301818848e+00
-5.001597404479980469e+00 -5.398102760314941406e+00 4.849169254302978516e-01
-4.633139610290527344e+00 -5.379573822021484375e+00 4.006642103195190430e-01
-5.167000770568847656e+00 -6.958244800567626953e+00 3.253743052482604980e-01
-5.005745887756347656e+00 -5.400689125061035156e+00 2.185512334108352661e-01
-4.651231288909912109e+00 -5.396769523620605469e+00 1.442618668079376221e-01
-4.107659339904785156e+00 -5.129662036895751953e+00 6.996753811836242676e-02
-3.279317855834960938e+00 -4.412939548492431641e+00 6.717072799801826477e-03
-6.320122718811035156e+00 -6.747189044952392578e+00 2.724434375762939453e+00
-5.169325351715087891e+00 -5.949118614196777344e+00 1.916867852210998535e+00
-5.099776744842529297e+00 -5.864942073822021484e+00 1.589725732803344727e+00
-4.925771713256835938e+00 -6.102804660797119141e+00 1.527301669120788574e+00
-5.006523132324218750e+00 -6.687945842742919922e+00 1.545356988906860352e+00
-5.066027641296386719e+00 -5.400789260864257812e+00 4.879415035247802734e-01
-4.703462600708007812e+00 -5.393936634063720703e+00 4.038757979869842529e-01
-4.354632377624511719e+00 -5.375964641571044922e+00 3.250518143177032471e-01
-3.996848821640014648e+00 -5.314000606536865234e+00 2.496299594640731812e-01
-5.066148281097412109e+00 -5.399029254913330078e+00 2.197378873825073242e-01
-4.710551261901855469e+00 -5.398261070251464844e+00 1.450716406106948853e-01
-4.145984649658203125e+00 -5.112904548645019531e+00 7.008464634418487549e-02
-3.298515558242797852e+00 -4.382348537445068359e+00 6.701190024614334106e-03
-5.472338676452636719e+00 -5.770737648010253906e+00 2.343669414520263672e+00
-5.982159614562988281e+00 -6.804632186889648438e+00 2.567226171493530273e+00
-5.360425472259521484e+00 -5.654698371887207031e+00 1.978826403617858887e+00
-5.140846252441406250e+00 -5.839422702789306641e+00 1.591328859329223633e+00
-4.946353435516357422e+00 -6.051945686340332031e+00 1.522140502929687500e+00
-5.241141796112060547e+00 -6.912539958953857422e+00 1.604653954505920410e+00
-5.145107269287109375e+00 -5.418082237243652344e+00 4.923468232154846191e-01
-4.741096019744873047e+00 -5.370214462280273438e+00 4.042702317237854004e-01
-4.409708976745605469e+00 -5.376175403594970703e+00 3.266944587230682373e-01
-5.314978122711181641e+00 -6.976984977722167969e+00 3.292759656906127930e-01
-5.168711662292480469e+00 -5.441036701202392578e+00 2.227341681718826294e-01
-4.739614009857177734e+00 -5.364760398864746094e+00 1.449501663446426392e-01
-4.152531147003173828e+00 -5.057229518890380859e+00 6.966943293809890747e-02
-3.344137191772460938e+00 -4.386679649353027344e+00 6.739064119756221771e-03
-5.503658771514892578e+00 -5.732899665832519531e+00 2.341973304748535156e+00
-5.963670253753662109e+00 -6.700242519378662109e+00 2.541600227355957031e+00
-5.540579319000244141e+00 -6.711410045623779297e+00 2.374323844909667969e+00
-5.483170986175537109e+00 -6.634790897369384766e+00 2.006149053573608398e+00
-5.181142807006835938e+00 -5.812888622283935547e+00 1.592731595039367676e+00
-4.972755908966064453e+00 -6.008626461029052734e+00 1.518890976905822754e+00
-4.848659515380859375e+00 -6.314045906066894531e+00 1.472600102424621582e+00
-5.200384616851806641e+00 -5.409429073333740234e+00 4.944508969783782959e-01
-4.809887409210205078e+00 -5.381219863891601562e+00 4.073128402233123779e-01
-5.477797985076904297e+00 -6.595404148101806641e+00 4.028183221817016602e-01
-5.238721370697021484e+00 -5.447403907775878906e+00 2.243064790964126587e-01
-4.780440807342529297e+00 -5.344520092010498047e+00 1.451930999755859375e-01
-4.165583610534667969e+00 -5.010125637054443359e+00 6.937134265899658203e-02
-3.400324583053588867e+00 -4.404071331024169922e+00 6.797706708312034607e-03
-5.482972621917724609e+00 -6.084584236145019531e+00 2.320780992507934570e+00
-5.583401203155517578e+00 -5.746991157531738281e+00 2.034949302673339844e+00
-5.145207881927490234e+00 -5.705752849578857422e+00 1.868656754493713379e+00
-5.495653152465820312e+00 -6.567411899566650391e+00 1.995934367179870605e+00
-5.207523345947265625e+00 -5.770805835723876953e+00 1.589926123619079590e+00
-5.007638931274414062e+00 -5.975744247436523438e+00 1.518317461013793945e+00
-4.839016914367675781e+00 -6.222079753875732422e+00 1.458048820495605469e+00
-5.311423778533935547e+00 -5.457507610321044922e+00 5.018150210380554199e-01
-4.889709472656250000e+00 -5.403426170349121094e+00 4.112569093704223633e-01
-4.541571617126464844e+00 -5.400399684906005859e+00 3.315284252166748047e-01
-4.199810981750488281e+00 -5.374969005584716797e+00 2.560826838016510010e-01
-5.320856571197509766e+00 -5.465291023254394531e+00 2.263831198215484619e-01
-4.839988231658935547e+00 -5.344730377197265625e+00 1.460028886795043945e-01
-4.196890354156494141e+00 -4.985237121582031250e+00 6.938198953866958618e-02
-3.459929943084716797e+00 -4.424875736236572266e+00 6.862458307296037674e-03
-5.873699188232421875e+00 -6.939675331115722656e+00 2.480393171310424805e+00
-6.848021984100341797e+00 -6.962670326232910156e+00 2.480240583419799805e+00
-5.159361362457275391e+00 -6.089228630065917969e+00 1.860193610191345215e+00
-5.034685611724853516e+00 -5.933678627014160156e+00 1.515450239181518555e+00
-4.871019363403320312e+00 -6.184545993804931641e+00 1.456229805946350098e+00
-5.356015205383300781e+00 -5.436187267303466797e+00 5.028670430183410645e-01
-4.949749946594238281e+00 -5.402768611907958984e+00 4.135106801986694336e-01
-4.569441318511962891e+00 -5.366347312927246094e+00 3.311529755592346191e-01
-5.422038555145263672e+00 -6.852111816406250000e+00 3.280379474163055420e-01
-5.393582820892333984e+00 -5.472406387329101562e+00 2.280444204807281494e-01
-4.888231277465820312e+00 -5.331881999969482422e+00 1.464685052633285522e-01
-4.379838466644287109e+00 -5.138225078582763672e+00 7.188387215137481689e-02
-3.600621223449707031e+00 -4.547029495239257812e+00 7.086035329848527908e-03
-6.792176246643066406e+00 -6.819273471832275391e+00 2.836374044418334961e+00
-5.437112808227539062e+00 -5.886793613433837891e+00 2.270619630813598633e+00
-5.933119773864746094e+00 -6.923282623291015625e+00 2.487499475479125977e+00
-5.477752208709716797e+00 -5.501525402069091797e+00 1.971687912940979004e+00
-5.074197292327880859e+00 -5.906397342681884766e+00 1.516406059265136719e+00
-4.908875465393066406e+00 -6.154541492462158203e+00 1.456229805946350098e+00
-5.451281070709228516e+00 -5.465392112731933594e+00 5.086532235145568848e-01
-5.020149707794189453e+00 -5.412557125091552734e+00 4.166096448898315430e-01
-5.726110935211181641e+00 -6.641742229461669922e+00 4.120170176029205322e-01
-5.362123966217041016e+00 -6.691603660583496094e+00 3.219228684902191162e-01
-5.451063632965087891e+00 -5.463266849517822266e+00 2.290530800819396973e-01
-5.256166934967041016e+00 -5.663057327270507812e+00 1.564490050077438354e-01
-4.404097080230712891e+00 -5.102926731109619141e+00 7.176675647497177124e-02
-3.607808828353881836e+00 -4.499106407165527344e+00 7.045718375593423843e-03
-5.927199363708496094e+00 -6.338931083679199219e+00 2.458997488021850586e+00
-5.357138156890869141e+00 -6.174099445343017578e+00 2.230090379714965820e+00
-5.531325817108154297e+00 -6.872824192047119141e+00 2.319399833679199219e+00
-5.510029792785644531e+00 -5.466445922851562500e+00 1.971195697784423828e+00
-5.435692310333251953e+00 -6.741943359375000000e+00 1.935803294181823730e+00
-4.913182258605957031e+00 -6.082996845245361328e+00 1.446407556533813477e+00
-5.496766090393066406e+00 -5.443777084350585938e+00 5.097709894180297852e-01
-5.125709533691406250e+00 -5.458803176879882812e+00 4.225821197032928467e-01
-4.754503250122070312e+00 -5.446829795837402344e+00 3.396946489810943604e-01
-4.375482559204101562e+00 -5.392197608947753906e+00 2.606971263885498047e-01
-5.519999504089355469e+00 -5.464879035949707031e+00 2.305364012718200684e-01
-5.297662258148193359e+00 -5.637985706329345703e+00 1.566514521837234497e-01
-4.342552661895751953e+00 -4.969638347625732422e+00 7.026563584804534912e-02
-3.581135272979736328e+00 -4.410123348236083984e+00 6.940649356693029404e-03
-6.036754608154296875e+00 -6.377206325531005859e+00 2.488167524337768555e+00
-5.173342704772949219e+00 -5.888886451721191406e+00 2.138496637344360352e+00
-5.546928882598876953e+00 -5.435925960540771484e+00 1.972426414489746094e+00
-5.605333805084228516e+00 -6.865705013275146484e+00 1.981177091598510742e+00
-4.964110374450683594e+00 -6.069481372833251953e+00 1.450409173965454102e+00
-5.186622619628906250e+00 -5.456195354461669922e+00 4.248358905315399170e-01
-4.764020919799804688e+00 -5.390608787536621094e+00 3.380050659179687500e-01
-4.397701263427734375e+00 -5.352122783660888672e+00 2.600593566894531250e-01
-5.577725410461425781e+00 -5.454667568206787109e+00 2.315450459718704224e-01
-5.390729427337646484e+00 -5.666947364807128906e+00 1.583722382783889771e-01
-4.335859775543212891e+00 -4.900959491729736328e+00 6.966943293809890747e-02
-3.704666137695312500e+00 -4.505473136901855469e+00 7.126352284103631973e-03
-5.530342102050781250e+00 -5.351675510406494141e+00 2.267912149429321289e+00
-5.943297863006591797e+00 -6.201810359954833984e+00 2.433916807174682617e+00
-5.105511665344238281e+00 -5.740252494812011719e+00 2.095858573913574219e+00
-5.646028518676757812e+00 -6.841725826263427734e+00 2.332113027572631836e+00
-5.631711483001708984e+00 -5.451673984527587891e+00 1.990641832351684570e+00
-5.366232872009277344e+00 -5.595733642578125000e+00 1.885672569274902344e+00
-5.584551811218261719e+00 -6.755213260650634766e+00 1.959144592285156250e+00
-5.270542144775390625e+00 -5.476784229278564453e+00 4.289490282535552979e-01
-6.059868812561035156e+00 -6.772686481475830078e+00 4.269883632659912109e-01
-5.444759845733642578e+00 -6.544143199920654297e+00 3.195968866348266602e-01
-5.688012599945068359e+00 -5.494648933410644531e+00 2.347193211317062378e-01
-5.488509654998779297e+00 -5.699297904968261719e+00 1.602144837379455566e-01
-4.612696647644042969e+00 -5.149855613708496094e+00 7.360857725143432617e-02
-3.730962038040161133e+00 -4.481120109558105469e+00 7.123908959329128265e-03
-5.579715728759765625e+00 -5.333548069000244141e+00 2.274696111679077148e+00
-5.520319938659667969e+00 -5.690128326416015625e+00 2.246356964111328125e+00
-5.292990684509277344e+00 -5.878010272979736328e+00 2.157973527908325195e+00
-5.672761917114257812e+00 -5.424384117126464844e+00 1.993349552154541016e+00
-5.403173923492431641e+00 -5.565490245819091797e+00 1.886617779731750488e+00
-5.451750278472900391e+00 -6.512781620025634766e+00 1.898500680923461914e+00
-5.312408447265625000e+00 -5.452923297882080078e+00 4.296251535415649414e-01
-4.932418823242187500e+00 -5.445009231567382812e+00 3.451856970787048340e-01
-4.551253795623779297e+00 -5.402454853057861328e+00 2.651990056037902832e-01
-5.739698886871337891e+00 -5.476895809173583984e+00 2.354609817266464233e-01
-5.540824890136718750e+00 -5.683411121368408203e+00 1.607205867767333984e-01
-4.605249404907226562e+00 -5.078493118286132812e+00 7.299108803272247314e-02
-3.679107189178466797e+00 -4.364101886749267578e+00 6.973635870963335037e-03
-5.698122501373291016e+00 -5.380210876464843750e+00 2.309465408325195312e+00
-6.709302425384521484e+00 -6.831310272216796875e+00 2.713075637817382812e+00
-5.690981388092041016e+00 -6.242532253265380859e+00 2.304575920104980469e+00
-5.858870029449462891e+00 -6.924758434295654297e+00 2.384745597839355469e+00
-5.683390617370605469e+00 -5.368177413940429688e+00 1.985472440719604492e+00
-5.408615112304687500e+00 -5.503126144409179688e+00 1.876691937446594238e+00
-5.364696025848388672e+00 -5.439417362213134766e+00 4.311464428901672363e-01
-5.877190113067626953e+00 -6.408492088317871094e+00 4.085440635681152344e-01
-4.567455768585205078e+00 -5.354660034179687500e+00 2.642236053943634033e-01
-5.859027385711669922e+00 -5.522474765777587891e+00 2.389616072177886963e-01
-5.585425376892089844e+00 -5.659268379211425781e+00 1.610040068626403809e-01
-4.544354915618896484e+00 -4.949962139129638672e+00 7.154318690299987793e-02
-3.934994697570800781e+00 -4.609933376312255859e+00 7.404907140880823135e-03
-5.672806262969970703e+00 -5.290844917297363281e+00 2.286003589630126953e+00
-6.958672046661376953e+00 -6.998790264129638672e+00 2.796496152877807617e+00
-5.461469173431396484e+00 -5.489122390747070312e+00 1.883309125900268555e+00
-5.472041130065917969e+00 -5.480583667755126953e+00 4.370625913143157959e-01
-6.044855117797851562e+00 -6.510662555694580078e+00 4.174141883850097656e-01
-6.007791519165039062e+00 -6.956334114074707031e+00 3.450701236724853516e-01
-5.919138908386230469e+00 -5.510941028594970703e+00 2.400296032428741455e-01
-5.688590526580810547e+00 -5.693494796752929688e+00 1.629677116870880127e-01
-4.537200450897216797e+00 -4.881701469421386719e+00 7.095764577388763428e-02
-3.965821981430053711e+00 -4.588728427886962891e+00 7.409793790429830551e-03
-5.455425262451171875e+00 -5.025864124298095703e+00 2.185935974121093750e+00
-5.264606475830078125e+00 -5.634375572204589844e+00 2.103754520416259766e+00
-5.453561305999755859e+00 -6.287581920623779297e+00 2.188199043273925781e+00
-5.497805595397949219e+00 -5.458246707916259766e+00 1.884254574775695801e+00
-5.364779472351074219e+00 -5.735561370849609375e+00 1.830457687377929688e+00
-5.562346935272216797e+00 -5.503079891204833984e+00 4.415701329708099365e-01
-5.154952049255371094e+00 -5.484308719635009766e+00 3.536334633827209473e-01
-4.767669200897216797e+00 -5.452421665191650391e+00 2.719143331050872803e-01
-5.974914073944091797e+00 -5.494816303253173828e+00 2.409195750951766968e-01
-5.757545471191406250e+00 -5.692223548889160156e+00 1.639394611120223999e-01
-4.547196865081787109e+00 -4.832650184631347656e+00 7.064889371395111084e-02
-3.946490287780761719e+00 -4.510123729705810547e+00 7.321829441934823990e-03
-5.501734733581542969e+00 -5.399289608001708984e+00 2.184200286865234375e+00
-5.410457611083984375e+00 -5.719710826873779297e+00 2.147971868515014648e+00
-5.572447299957275391e+00 -6.345566272735595703e+00 2.220236539840698242e+00
-5.287374019622802734e+00 -5.583733081817626953e+00 1.792323231697082520e+00
-7.475478649139404297e+00 -6.807306766510009766e+00 2.171195030212402344e+00
-7.405954837799072266e+00 -6.741632938385009766e+00 1.769497990608215332e+00
-5.608147144317626953e+00 -5.480709552764892578e+00 4.425280094146728516e-01
-6.061635017395019531e+00 -6.370142459869384766e+00 4.131433963775634766e-01
-4.766590595245361328e+00 -5.384158134460449219e+00 2.699635326862335205e-01
-6.105440616607666016e+00 -5.546095848083496094e+00 2.448058724403381348e-01
-5.817398548126220703e+00 -5.681237220764160156e+00 1.646480113267898560e-01
-4.806429386138916016e+00 -5.045760154724121094e+00 7.419411838054656982e-02
-4.059632301330566406e+00 -4.582381248474121094e+00 7.479432504624128342e-03
-5.516109466552734375e+00 -5.347349166870117188e+00 2.176839828491210938e+00
-5.331645011901855469e+00 -5.561730861663818359e+00 1.795728087425231934e+00
-5.132942676544189453e+00 -5.763113498687744141e+00 1.725076913833618164e+00
-7.434964656829833984e+00 -6.687426567077636719e+00 2.147469520568847656e+00
-5.686206340789794922e+00 -5.489188194274902344e+00 4.460213482379913330e-01
-5.311263561248779297e+00 -5.513438701629638672e+00 3.596877157688140869e-01
-6.033437252044677734e+00 -6.731462955474853516e+00 3.393676877021789551e-01
-6.136379718780517578e+00 -5.505858421325683594e+00 2.446871846914291382e-01
-5.867259025573730469e+00 -5.660012245178222656e+00 1.650731414556503296e-01
-4.849099636077880859e+00 -5.028409957885742188e+00 7.437510788440704346e-02
-4.079659938812255859e+00 -4.548452377319335938e+00 7.464771624654531479e-03
-5.685017585754394531e+00 -5.443825244903564453e+00 2.230272531509399414e+00
-5.397643089294433594e+00 -5.567687034606933594e+00 2.115598440170288086e+00
-5.370418548583984375e+00 -5.533803939819335938e+00 1.797317028045654297e+00
-5.176050662994384766e+00 -5.740207195281982422e+00 1.727694630622863770e+00
-7.877714633941650391e+00 -6.993778228759765625e+00 1.467376232147216797e+00
-5.754463195800781250e+00 -5.487267017364501953e+00 4.487258493900299072e-01
-5.351270198822021484e+00 -5.487181663513183594e+00 3.601101040840148926e-01
-4.933032035827636719e+00 -5.436263561248779297e+00 2.755908668041229248e-01
-5.909839630126953125e+00 -5.631491661071777344e+00 1.652958244085311890e-01
-4.889641284942626953e+00 -5.008578777313232422e+00 7.452415674924850464e-02
-4.134382247924804688e+00 -4.552947044372558594e+00 7.513640448451042175e-03
-7.331829071044921875e+00 -6.429134368896484375e+00 2.873687505722045898e+00
-5.723206043243408203e+00 -5.413467884063720703e+00 2.232180833816528320e+00
-5.435082912445068359e+00 -5.537905693054199219e+00 2.116914510726928711e+00
-5.154129981994628906e+00 -5.655757427215576172e+00 2.011739730834960938e+00
-5.400859832763671875e+00 -5.497273921966552734e+00 1.796182036399841309e+00
-5.216438293457031250e+00 -5.714105606079101562e+00 1.729439735412597656e+00
-6.768934249877929688e+00 -6.880156040191650391e+00 1.879594087600708008e+00
-5.865788459777832031e+00 -5.525103092193603516e+00 4.547546803951263428e-01
-6.085927009582519531e+00 -6.164369106292724609e+00 4.069952964782714844e-01
-5.955362796783447266e+00 -6.482508659362792969e+00 3.304764330387115479e-01
-5.963211059570312500e+00 -5.612940311431884766e+00 1.658221781253814697e-01
-4.921686649322509766e+00 -4.979904651641845703e+00 7.454545050859451294e-02
-3.932133436203002930e+00 -4.277193069458007812e+00 7.098252885043621063e-03
-7.962802886962890625e+00 -6.896456241607666016e+00 3.104351282119750977e+00
-5.802713871002197266e+00 -5.421600818634033203e+00 2.250173568725585938e+00
-7.240065097808837891e+00 -6.759817123413085938e+00 2.409142017364501953e+00
-6.774395942687988281e+00 -6.811222553253173828e+00 2.239042043685913086e+00
-5.258687496185302734e+00 -5.689874172210693359e+00 1.731839299201965332e+00
-5.936127662658691406e+00 -5.523012161254882812e+00 4.575719237327575684e-01
-5.517769336700439453e+00 -5.520719051361083984e+00 3.667275309562683105e-01
-6.073971271514892578e+00 -6.530726432800292969e+00 3.348282873630523682e-01
-6.012183666229248047e+00 -5.589860916137695312e+00 1.662270724773406982e-01
-5.022874832153320312e+00 -5.020300388336181641e+00 7.561007887125015259e-02
-3.835671186447143555e+00 -4.121222972869873047e+00 6.878341082483530045e-03
-7.559600353240966797e+00 -6.466498374938964844e+00 2.931636095046997070e+00
-5.817488193511962891e+00 -5.368928432464599609e+00 2.243085622787475586e+00
-5.478687286376953125e+00 -5.446985244750976562e+00 2.107702493667602539e+00
-5.271998882293701172e+00 -5.644384860992431641e+00 2.030555486679077148e+00
-6.915565967559814453e+00 -6.868352890014648438e+00 2.271728754043579102e+00
-5.274830818176269531e+00 -5.637547016143798828e+00 1.725731253623962402e+00
-7.804812908172607422e+00 -6.680972576141357422e+00 2.206258296966552734e+00
-7.522702693939208984e+00 -6.932943344116210938e+00 2.092514276504516602e+00
