-5.397553920745849609e+00 -5.944002151489257812e+00 9.809272363781929016e-03
-5.384518623352050781e+00 -5.857030391693115234e+00 9.720085188746452332e-03
-5.425124168395996094e+00 -5.829005241394042969e+00 9.728637523949146271e-03
-5.607542991638183594e+00 -5.951360225677490234e+00 9.990087710320949554e-03
-5.641193389892578125e+00 -5.913947105407714844e+00 9.985201060771942139e-03
-5.551643371582031250e+00 -5.749020576477050781e+00 9.764067828655242920e-03
-5.605688095092773438e+00 -5.734154224395751953e+00 9.797054342925548553e-03
-5.642173290252685547e+00 -5.701072216033935547e+00 9.799497202038764954e-03
-5.710314273834228516e+00 -5.699548244476318359e+00 9.856919758021831512e-03
-5.753011226654052734e+00 -5.672125816345214844e+00 9.870358742773532867e-03
-4.649073600769042969e+00 -3.636543989181518555e+00 1.751791834831237793e-01
-5.825675010681152344e+00 -5.673696994781494141e+00 9.935109876096248627e-03
-4.632537364959716797e+00 -3.578010559082031250e+00 1.737255305051803589e-01
-5.923076152801513672e+00 -5.698161602020263672e+00 1.004140172153711319e-02
-4.612279415130615234e+00 -3.517393589019775391e+00 1.721532344818115234e-01
-5.983299255371093750e+00 -5.685820579528808594e+00 1.008416153490543365e-02
-6.080777168273925781e+00 -5.707858562469482422e+00 1.018922962248325348e-02
-6.088553428649902344e+00 -5.645283699035644531e+00 1.014402601867914200e-02
-5.948300838470458984e+00 -5.447749614715576172e+00 9.854475967586040497e-03
-4.625089168548583984e+00 -3.612662792205810547e+00 1.188348457217216492e-01
-6.199641704559326172e+00 -5.608381748199462891e+00 1.021366473287343979e-02
-4.629751682281494141e+00 -3.570782423019409180e+00 1.183894649147987366e-01
-6.243631362915039062e+00 -5.578897476196289062e+00 1.022954657673835754e-02
-4.641234397888183594e+00 -3.534433364868164062e+00 1.181262955069541931e-01
-6.286742210388183594e+00 -5.548422813415527344e+00 1.024420745670795441e-02
-6.283731937408447266e+00 -5.477546215057373047e+00 1.018434297293424606e-02
-6.345262527465820312e+00 -5.463027477264404297e+00 1.022954657673835754e-02
-6.330669403076171875e+00 -5.383179664611816406e+00 1.015257835388183594e-02
-4.617218971252441406e+00 -3.601408720016479492e+00 6.234477832913398743e-02
-6.174435138702392578e+00 -5.185386657714843750e+00 9.850811213254928589e-03
-4.637644767761230469e+00 -3.571789741516113281e+00 6.232348456978797913e-02
-6.254627227783203125e+00 -5.187622070312500000e+00 9.927779436111450195e-03
-4.671413421630859375e+00 -3.552345752716064453e+00 6.248318403959274292e-02
-6.592688560485839844e+00 -5.400077342987060547e+00 1.041158474981784821e-02
-6.630363941192626953e+00 -5.363297462463378906e+00 1.041891612112522125e-02
-6.665491104125976562e+00 -5.324385643005371094e+00 1.042257994413375854e-02
-4.586007118225097656e+00 -3.617425918579101562e+00 7.136126048862934113e-03
-4.609141349792480469e+00 -3.592602014541625977e+00 2.193922400474548340e-01
-4.627840042114257812e+00 -3.604580879211425781e+00 7.166669238358736038e-03
-4.663566589355468750e+00 -3.589242219924926758e+00 2.209303975105285645e-01
-4.650662899017333984e+00 -3.576726675033569336e+00 7.167891133576631546e-03
-4.683910846710205078e+00 -3.559350252151489258e+00 2.208553552627563477e-01
-4.678096294403076172e+00 -3.552356719970703125e+00 7.176443003118038177e-03
-4.701406002044677734e+00 -3.524785518646240234e+00 7.178886793553829193e-03
-6.936523437500000000e+00 -5.134338378906250000e+00 1.054353173822164536e-02
-6.984852313995361328e+00 -5.104070186614990234e+00 1.056918781250715256e-02
-6.801121711730957031e+00 -4.906082630157470703e+00 1.024543028324842453e-02
-7.053477764129638672e+00 -5.022611141204833984e+00 1.057896204292774200e-02
-6.525382518768310547e+00 -4.586487770080566406e+00 9.744520299136638641e-03
-7.085002899169921875e+00 -4.915155887603759766e+00 1.053497940301895142e-02
-7.198365211486816406e+00 -4.928650856018066406e+00 1.065837405622005463e-02
-6.960842609405517578e+00 -4.703548431396484375e+00 1.026375498622655869e-02
-7.005379676818847656e+00 -4.671289920806884766e+00 1.028696820139884949e-02
-7.016367435455322266e+00 -4.616674900054931641e+00 1.026131212711334229e-02
-7.099081039428710938e+00 -4.608931064605712891e+00 1.034072507172822952e-02
-1.406252384185791016e+01 -6.990259647369384766e+00 4.660863876342773438e-01
-6.768507957458496094e+00 -4.335510730743408203e+00 9.820267558097839355e-03
-1.408809185028076172e+01 -6.895493030548095703e+00 4.655227065086364746e-01
-7.026610851287841797e+00 -4.440268993377685547e+00 1.015502121299505234e-02
-1.411843109130859375e+01 -6.803279876708984375e+00 4.651370644569396973e-01
-7.271818637847900391e+00 -4.533024787902832031e+00 1.046900637447834015e-02
-1.468963050842285156e+01 -6.970928192138671875e+00 1.071419835090637207e+00
-1.413733100891113281e+01 -6.705812931060791016e+00 4.643954038619995117e-01
-7.198977470397949219e+00 -4.426513671875000000e+00 1.032484229654073715e-02
-1.477462005615234375e+01 -6.900509357452392578e+00 1.074510097503662109e+00
-1.418817520141601562e+01 -6.623592853546142578e+00 4.647217392921447754e-01
-7.230278015136718750e+00 -4.384850978851318359e+00 1.033095084130764008e-02
-1.483390808105468750e+01 -6.817640781402587891e+00 1.075759410858154297e+00
-1.422673320770263672e+01 -6.535576820373535156e+00 4.646624028682708740e-01
-6.989284038543701172e+00 -4.180256843566894531e+00 9.949770756065845490e-03
-1.482272911071777344e+01 -6.702648639678955078e+00 1.071945905685424805e+00
-7.846019268035888672e+00 -3.546220302581787109e+00 2.555450499057769775e-01
-7.378290176391601562e+00 -4.351675987243652344e+00 1.046534068882465363e-02
-1.477969837188720703e+01 -6.574261665344238281e+00 1.065896630287170410e+00
-1.417109966278076172e+01 -6.930182456970214844e+00 8.902396559715270996e-01
-7.845710277557373047e+00 -3.488265275955200195e+00 2.548330426216125488e-01
-1.422010993957519531e+01 -6.948000431060791016e+00 3.204694390296936035e-01
-7.623558044433593750e+00 -4.433510303497314453e+00 1.077443826943635941e-02
-1.488832283020019531e+01 -6.513447284698486328e+00 1.070828080177307129e+00
-1.418546867370605469e+01 -6.829673767089843750e+00 8.884930014610290527e-01
-1.430432415008544922e+01 -6.254981040954589844e+00 4.633570909500122070e-01
-1.411201095581054688e+01 -6.788239955902099609e+00 3.170886337757110596e-01
-7.389495849609375000e+00 -4.236929893493652344e+00 1.040669810026884079e-02
-1.498392105102539062e+01 -6.446024894714355469e+00 1.074838876724243164e+00
-1.418470382690429688e+01 -6.722408294677734375e+00 8.858448266983032227e-01
-1.436080074310302734e+01 -6.174990653991699219e+00 4.639504253864288330e-01
-1.414165019989013672e+01 -6.695960044860839844e+00 3.168254494667053223e-01
-7.616451740264892578e+00 -4.305178642272949219e+00 1.068891771137714386e-02
-1.421030235290527344e+01 -6.628071308135986328e+00 8.848869800567626953e-01
-1.442419815063476562e+01 -6.097655773162841797e+00 4.647810757160186768e-01
-1.417612552642822266e+01 -6.606106281280517578e+00 3.166837394237518311e-01
-7.828791618347167969e+00 -4.362036705017089844e+00 1.094914693385362625e-02
-1.425251865386962891e+01 -6.541586875915527344e+00 8.849996328353881836e-01
-1.448534011840820312e+01 -6.019008159637451172e+00 4.655523896217346191e-01
-1.423638725280761719e+01 -6.528167247772216797e+00 3.171291053295135498e-01
-7.666079521179199219e+00 -4.209944725036621094e+00 1.068525202572345734e-02
-1.428965854644775391e+01 -6.452778816223144531e+00 8.848305940628051758e-01
-1.403946495056152344e+01 -6.963907241821289062e+00 7.363179326057434082e-01
-1.458307456970214844e+01 -5.954954147338867188e+00 4.675103724002838135e-01
-7.799266338348388672e+00 -3.518636465072631836e+00 1.732518970966339111e-01
-7.748052597045898438e+00 -4.193289279937744141e+00 1.076344307512044907e-02
-1.431894683837890625e+01 -6.360519409179687500e+00 8.842108249664306641e-01
-1.405769634246826172e+01 -6.865795135498046875e+00 7.350507378578186035e-01
-1.498113441467285156e+01 -6.010516166687011719e+00 4.790801703929901123e-01
-7.840814590454101562e+00 -3.479636907577514648e+00 1.736972779035568237e-01
-7.306864738464355469e+00 -3.896740674972534180e+00 1.011714804917573929e-02
-1.436868381500244141e+01 -6.277337074279785156e+00 8.848869800567626953e-01
-1.416797733306884766e+01 -6.812306880950927734e+00 7.386175990104675293e-01
-1.423409938812255859e+01 -6.212624073028564453e+00 3.144770860671997070e-01
-7.333292961120605469e+00 -3.853228807449340820e+00 1.012081280350685120e-02
-1.443903732299804688e+01 -6.202847003936767578e+00 8.868589997291564941e-01
-1.424923706054687500e+01 -6.744047641754150391e+00 7.406826019287109375e-01
-1.433534526824951172e+01 -6.152375698089599609e+00 3.158739507198333740e-01
-7.973121166229248047e+00 -4.127192497253417969e+00 1.096869446337223053e-02
-1.452189254760742188e+01 -6.133167743682861328e+00 8.896198868751525879e-01
-1.420704460144042969e+01 -6.617685794830322266e+00 7.363648414611816406e-01
-1.442441082000732422e+01 -6.086064815521240234e+00 3.170076310634613037e-01
-1.490899372100830078e+01 -6.935157775878906250e+00 1.750678867101669312e-01
-7.983150005340576172e+00 -4.070470333099365234e+00 1.094792503863573074e-02
-1.459152603149414062e+01 -6.057345390319824219e+00 8.915919065475463867e-01
-1.414023208618164062e+01 -6.481275081634521484e+00 7.308268547058105469e-01
-1.451135253906250000e+01 -6.018125534057617188e+00 3.181008398532867432e-01
-7.961505889892578125e+00 -3.998074054718017578e+00 1.088439486920833588e-02
-1.481700420379638672e+01 -6.044633388519287109e+00 9.030861258506774902e-01
-1.418884086608886719e+01 -6.398496627807617188e+00 7.312961816787719727e-01
-1.405463886260986328e+01 -6.956348419189453125e+00 5.887350440025329590e-01
-1.470817947387695312e+01 -5.994250297546386719e+00 3.216031193733215332e-01
-7.806486129760742188e+00 -3.515439033508300781e+00 9.115368872880935669e-02
-7.903419971466064453e+00 -3.908366441726684570e+00 1.077199541032314301e-02
-1.424700832366943359e+01 -6.319820880889892578e+00 7.322817444801330566e-01
-1.405304145812988281e+01 -6.848529338836669922e+00 5.868967771530151367e-01
-1.487462520599365234e+01 -5.955919742584228516e+00 3.244373500347137451e-01
-7.826995849609375000e+00 -3.467068195343017578e+00 9.114304929971694946e-02
-7.938941478729248047e+00 -3.865489721298217773e+00 1.078787818551063538e-02
-1.437249660491943359e+01 -6.270229816436767578e+00 7.367402911186218262e-01
-1.410470867156982422e+01 -6.766926765441894531e+00 5.873094797134399414e-01
-7.888457775115966797e+00 -3.436549425125122070e+00 9.161148220300674438e-02
-7.991365909576416016e+00 -3.830536127090454102e+00 1.082697324454784393e-02
-1.445935344696044922e+01 -6.202795028686523438e+00 7.392277121543884277e-01
-1.411072444915771484e+01 -6.663612842559814453e+00 5.858463644981384277e-01
-7.899861335754394531e+00 -3.727238893508911133e+00 1.067181397229433060e-02
-1.447505187988281250e+01 -6.104641914367675781e+00 7.381013631820678711e-01
-1.412415885925292969e+01 -6.564270496368408203e+00 5.847208499908447266e-01
-7.873605251312255859e+00 -3.655954360961914062e+00 1.060584094375371933e-02
-1.453899574279785156e+01 -6.026802062988281250e+00 7.394623756408691406e-01
-1.411237049102783203e+01 -6.453793525695800781e+00 5.825824737548828125e-01
-1.472459793090820312e+01 -6.094706535339355469e+00 1.696702092885971069e-01
-7.925905227661132812e+00 -3.621287822723388672e+00 1.064615789800882339e-02
-1.469133853912353516e+01 -5.984583854675292969e+00 7.453289031982421875e-01
-1.419544696807861328e+01 -6.386761188507080078e+00 5.843832492828369141e-01
-1.480525112152099609e+01 -6.021950244903564453e+00 1.701705902814865112e-01
-7.792007446289062500e+00 -3.502480030059814453e+00 1.043724082410335541e-02
-1.424807643890380859e+01 -6.305605411529541016e+00 5.849459767341613770e-01
-1.498027610778808594e+01 -5.986281394958496094e+00 1.717568933963775635e-01
-7.827070713043212891e+00 -3.460669040679931641e+00 1.045556738972663879e-02
-1.428924655914306641e+01 -6.219258308410644531e+00 5.850585103034973145e-01
-7.886673927307128906e+00 -3.429325580596923828e+00 1.050687953829765320e-02
-1.434735012054443359e+01 -6.140113830566406250e+00 5.858838558197021484e-01
-7.946185588836669922e+00 -3.397380590438842773e+00 1.055819261819124222e-02
-1.443541526794433594e+01 -6.073278903961181641e+00 5.879472494125366211e-01
-8.134663581848144531e+00 -3.419080257415771484e+00 1.078054774552583694e-02
-1.455644226074218750e+01 -6.019340038299560547e+00 5.913611650466918945e-01
-8.303367614746093750e+00 -3.430192232131958008e+00 1.097602397203445435e-02
-1.460050964355468750e+01 -5.932919502258300781e+00 5.916612744331359863e-01
-8.282563209533691406e+00 -3.362253189086914062e+00 1.092104613780975342e-02
-8.653216361999511719e+00 -3.451025009155273438e+00 1.138163823634386063e-02
-8.603465080261230469e+00 -3.370145320892333984e+00 1.128878723829984665e-02
-8.418648719787597656e+00 -3.238308906555175781e+00 1.102000661194324493e-02
-8.474844932556152344e+00 -3.200369834899902344e+00 1.106765400618314743e-02
-8.604967117309570312e+00 -3.189317941665649414e+00 1.121181808412075043e-02
-1.104006099700927734e+01 -2.706591844558715820e+00 3.373645544052124023e-01
-8.606518745422363281e+00 -3.129965066909790039e+00 1.118860486894845963e-02
-8.729166984558105469e+00 -3.114057779312133789e+00 1.132299564778804779e-02
-8.733950614929199219e+00 -3.055484771728515625e+00 1.130467001348733902e-02
-8.766723632812500000e+00 -3.006703138351440430e+00 1.132299564778804779e-02
-8.598273277282714844e+00 -2.890089035034179688e+00 1.108231488615274429e-02
-1.098410606384277344e+01 -2.756405591964721680e+00 2.293087393045425415e-01
-8.621543884277343750e+00 -2.839153528213500977e+00 1.108964532613754272e-02
-1.102314949035644531e+01 -2.694416522979736328e+00 2.297743558883666992e-01
-8.995698928833007812e+00 -2.901306152343750000e+00 1.154779456555843353e-02
-8.916065216064453125e+00 -2.815341949462890625e+00 1.142317801713943481e-02
-8.731579780578613281e+00 -2.698283672332763672e+00 1.116539351642131805e-02
-8.832205772399902344e+00 -2.670122146606445312e+00 1.127290446311235428e-02
-8.983637809753417969e+00 -2.655852317810058594e+00 1.144516840577125549e-02
-1.099538803100585938e+01 -2.751205921173095703e+00 1.206759065389633179e-01
-8.872953414916992188e+00 -2.564034938812255859e+00 1.128389965742826462e-02
-1.100331783294677734e+01 -2.681556701660156250e+00 1.205800771713256836e-01
-8.853873252868652344e+00 -2.499761581420898438e+00 1.123991888016462326e-02
-8.886397361755371094e+00 -2.450172662734985352e+00 1.126190926879644394e-02
-8.899333000183105469e+00 -2.395080804824829102e+00 1.125946640968322754e-02
-8.899353027343750000e+00 -2.336621046066284180e+00 1.124113984405994415e-02
-8.249925613403320312e+00 -2.112082719802856445e+00 1.040425524115562439e-02
-8.652772903442382812e+00 -2.158732175827026367e+00 1.089539006352424622e-02
-8.998186111450195312e+00 -2.186347484588623047e+00 1.131322141736745834e-02
-8.623142242431640625e+00 -2.039268732070922852e+00 1.082575134932994843e-02
-8.592613220214843750e+00 -1.976456642150878906e+00 1.077199541032314301e-02
-8.240565299987792969e+00 -1.842314839363098145e+00 1.031628996133804321e-02
-9.002225875854492188e+00 -1.954677581787109375e+00 1.125457976013422012e-02
-9.624640464782714844e+00 -2.028065443038940430e+00 1.201693806797266006e-02
-8.996141433715820312e+00 -1.838053703308105469e+00 1.121792662888765335e-02
-9.239740371704101562e+00 -1.828837037086486816e+00 1.150747761130332947e-02
-9.016055107116699219e+00 -1.727142572402954102e+00 1.121548376977443695e-02
-9.255586624145507812e+00 -1.714220643043518066e+00 1.150014623999595642e-02
-8.840681076049804688e+00 -1.581332802772521973e+00 1.097236014902591705e-02
-9.411916732788085938e+00 -1.623975872993469238e+00 1.166874542832374573e-02
-9.856734275817871094e+00 -1.638510942459106445e+00 1.220752857625484467e-02
-9.416324615478515625e+00 -1.505985856056213379e+00 1.165041886270046234e-02
-9.472831726074218750e+00 -1.455469608306884766e+00 1.170906238257884979e-02
-9.102676391601562500e+00 -1.341477751731872559e+00 1.124113984405994415e-02
-9.176088333129882812e+00 -1.294821262359619141e+00 1.132177375257015228e-02
-9.539640426635742188e+00 -1.286472201347351074e+00 1.176037546247243881e-02
-9.555289268493652344e+00 -1.228934407234191895e+00 1.177014969289302826e-02
-9.879286766052246094e+00 -1.209031343460083008e+00 1.215988025069236755e-02
-9.383899688720703125e+00 -1.090007424354553223e+00 1.154168508946895599e-02
-9.585236549377441406e+00 -1.053828120231628418e+00 1.178114488720893860e-02
-9.636282920837402344e+00 -9.996376633644104004e-01 1.183612272143363953e-02
-1.003138732910156250e+01 -9.784492254257202148e-01 1.231381855905056000e-02
-9.855957031250000000e+00 -9.003229141235351562e-01 1.209146436303853989e-02
-9.927057266235351562e+00 -8.454315066337585449e-01 1.217209827154874802e-02
-9.889191627502441406e+00 -7.811183929443359375e-01 1.211956329643726349e-02
-1.026581287384033203e+01 -7.475133538246154785e-01 1.257526874542236328e-02
-1.027220153808593750e+01 -6.846424341201782227e-01 1.257771253585815430e-02
-9.812059402465820312e+00 -5.935243368148803711e-01 1.200960855931043625e-02
-1.001921463012695312e+01 -5.443751215934753418e-01 1.225884072482585907e-02
-1.015621089935302734e+01 -4.893368780612945557e-01 1.242255233228206635e-02
-9.952205657958984375e+00 -4.183172881603240967e-01 1.216965448111295700e-02
-1.017544174194335938e+01 -3.651697933673858643e-01 1.243965700268745422e-02
-1.070408153533935547e+01 8.436043262481689453e-01 3.186748027801513672e-01
-1.018848705291748047e+01 -3.030546605587005615e-01 1.245309691876173019e-02
-7.880109786987304688e+00 6.697192192077636719e-01 2.347193211317062378e-01
-9.389377593994140625e+00 -2.216316312551498413e-01 1.147449016571044922e-02
-7.880829334259033203e+00 7.185118794441223145e-01 2.348676621913909912e-01
-1.014444637298583984e+01 -1.771826595067977905e-01 1.239567529410123825e-02
-1.010534477233886719e+01 -1.144810467958450317e-01 1.234680600464344025e-02
-1.024085426330566406e+01 -5.317462608218193054e-02 1.251173857599496841e-02
-1.049898815155029297e+01 9.906518273055553436e-03 1.282694563269615173e-02
-1.075485324859619141e+01 8.550430536270141602e-01 2.184577137231826782e-01
-1.089171886444091797e+01 7.710912078619003296e-02 1.330708526074886322e-02
-7.897440433502197266e+00 6.766589879989624023e-01 1.604979038238525391e-01
-9.247185707092285156e+00 1.222125142812728882e-01 1.129856053739786148e-02
-7.892144203186035156e+00 7.250125408172607422e-01 1.604776531457901001e-01
-1.043703746795654297e+01 2.019958645105361938e-01 1.275364123284816742e-02
-1.044759845733642578e+01 2.663383483886718750e-01 1.276830211281776428e-02
-4.830121994018554688e+00 6.807099580764770508e-01 1.447712779045104980e-01
-1.154621696472167969e+01 3.652499020099639893e-01 1.411342807114124298e-02
-4.877277374267578125e+00 7.179033756256103516e-01 1.463139206171035767e-01
-1.113904666900634766e+01 4.208004474639892578e-01 1.361862663179636002e-02
-4.868828773498535156e+00 7.472097873687744141e-01 1.461952626705169678e-01
-1.369427680969238281e+01 1.597804903984069824e+00 2.791707813739776611e-01
-1.072396278381347656e+01 8.600038886070251465e-01 1.145436316728591919e-01
-1.068069458007812500e+01 4.691307842731475830e-01 1.306151878088712692e-02
-7.892167091369628906e+00 6.816709637641906738e-01 8.434005081653594971e-02
-1.068959999084472656e+01 5.352575182914733887e-01 1.307617779821157455e-02
-7.871904850006103516e+00 7.286089658737182617e-01 8.416970819234848022e-02
-1.108149051666259766e+01 6.230680346488952637e-01 1.355998404324054718e-02
-1.127407550811767578e+01 7.033167481422424316e-01 1.380066480487585068e-02
-4.840688705444335938e+00 6.855921745300292969e-01 9.899529814720153809e-02
-1.080862998962402344e+01 7.408859133720397949e-01 1.323622558265924454e-02
-4.795840263366699219e+00 7.092839479446411133e-01 9.816528111696243286e-02
-1.077595806121826172e+01 8.051063418388366699e-01 1.320201717317104340e-02
-4.864518642425537109e+00 7.499704957008361816e-01 9.966336935758590698e-02
-1.371506786346435547e+01 1.609785199165344238e+00 1.470255106687545776e-01
-7.879261016845703125e+00 6.373241543769836426e-01 9.657776914536952972e-03
-1.365928268432617188e+01 1.688266754150390625e+00 1.465357840061187744e-01
-7.876198291778564453e+00 6.857451200485229492e-01 9.658998809754848480e-03
-7.870846748352050781e+00 7.339667677879333496e-01 9.657776914536952972e-03
-4.881730556488037109e+00 6.642929911613464355e-01 5.245435610413551331e-02
-7.866195201873779297e+00 7.822476029396057129e-01 9.657776914536952972e-03
-4.875582695007324219e+00 6.939524412155151367e-01 5.243306607007980347e-02
-1.065271186828613281e+01 1.125402212142944336e+00 1.308717485517263412e-02
-4.890025615692138672e+00 7.266479730606079102e-01 5.263534560799598694e-02
-1.009702682495117188e+01 1.129384636878967285e+00 1.241277996450662613e-02
-4.852865695953369141e+00 7.515885233879089355e-01 5.228401720523834229e-02
-1.336714076995849609e+01 1.578261256217956543e+00 1.644448935985565186e-02
-1.356659317016601562e+01 1.686276912689208984e+00 1.670227386057376862e-02
-4.883567810058593750e+00 6.374610066413879395e-01 6.017021369189023972e-03
-4.877583026885986328e+00 6.671429872512817383e-01 6.014578044414520264e-03
-4.913741588592529297e+00 7.010790109634399414e-01 1.863408386707305908e-01
-4.866468429565429688e+00 6.960675716400146484e-01 6.006026174873113632e-03
-4.905394077301025391e+00 7.306271195411682129e-01 1.861907988786697388e-01
-4.853204250335693359e+00 7.245855927467346191e-01 5.995030049234628677e-03
-4.863488674163818359e+00 7.566566467285156250e-01 6.013356614857912064e-03
-4.848882675170898438e+00 7.848862409591674805e-01 6.001138594001531601e-03
-1.375297069549560547e+01 2.486787319183349609e+00 1.707490161061286926e-02
-1.445971965789794922e+01 2.798246383666992188e+00 1.799364201724529266e-02
-1.473734664916992188e+01 3.134451866149902344e+00 1.840780861675739288e-02
-1.279068088531494141e+01 2.884923696517944336e+00 1.601932570338249207e-02
-1.471682071685791016e+01 3.605267047882080078e+00 1.851165667176246643e-02
-2.404257059097290039e+00 1.044434070587158203e+00 1.727290451526641846e-01
-2.370642423629760742e+00 1.030323386192321777e+00 7.671691477298736572e-02
-2.389588356018066406e+00 1.055537939071655273e+00 1.721372753381729126e-01
-2.339590549468994141e+00 1.033940792083740234e+00 7.591591775417327881e-02
-2.363041162490844727e+00 1.061187267303466797e+00 1.706907600164413452e-01
-2.319526195526123047e+00 1.042132258415222168e+00 7.547093182802200317e-02
-2.376455307006835938e+00 1.084782481193542480e+00 1.721372753381729126e-01
-2.316725015640258789e+00 1.058005928993225098e+00 7.558958977460861206e-02
-2.298402786254882812e+00 1.066730737686157227e+00 7.520393282175064087e-02
-2.409646034240722656e+00 1.030707120895385742e+00 1.479037404060363770e-01
-2.413347005844116211e+00 1.049854040145874023e+00 1.485235244035720825e-01
-2.401381492614746094e+00 1.062219023704528809e+00 1.481854617595672607e-01
-2.338515758514404297e+00 1.035387396812438965e+00 5.178526788949966431e-02
-2.382981061935424805e+00 1.071610331535339355e+00 1.474529802799224854e-01
-2.322090148925781250e+00 1.045202732086181641e+00 5.156258121132850647e-02
-2.369096517562866211e+00 1.082891464233398438e+00 1.470022350549697876e-01
-2.310178041458129883e+00 1.056935429573059082e+00 5.144111439585685730e-02
-2.319061517715454102e+00 1.078256368637084961e+00 5.178526788949966431e-02
-2.421309947967529297e+00 1.037165164947509766e+00 1.237599775195121765e-01
-2.409405708312988281e+00 1.049608826637268066e+00 1.234783828258514404e-01
-2.394700288772583008e+00 1.060732007026672363e+00 1.230560019612312317e-01
-2.355517387390136719e+00 1.044851541519165039e+00 2.743553556501865387e-02
-2.380860090255737305e+00 1.072124481201171875e+00 1.226805448532104492e-01
-2.341769456863403320e+00 1.055996656417846680e+00 2.735036425292491913e-02
-2.372420549392700195e+00 1.085881590843200684e+00 1.225866824388504028e-01
-2.336154937744140625e+00 1.070762276649475098e+00 2.736101113259792328e-02
-2.431621313095092773e+00 1.009899616241455078e+00 3.216815646737813950e-03
-2.422615528106689453e+00 1.023633122444152832e+00 3.213150426745414734e-03
-2.389645338058471680e+00 1.027027845382690430e+00 3.177720354869961739e-03
-2.382901906967163086e+00 1.040507078170776367e+00 9.761605411767959595e-02
-2.368637800216674805e+00 1.035263180732727051e+00 3.158172592520713806e-03
-2.255913496017456055e+00 1.001582741737365723e+00 9.266395866870880127e-02
-2.374120712280273438e+00 1.055056810379028320e+00 3.174055134877562523e-03
-2.370336294174194336e+00 1.070839405059814453e+00 3.177720354869961739e-03
-2.353724718093872070e+00 1.080773234367370605e+00 3.164281370118260384e-03
-2.350673675537109375e+00 1.096886396408081055e+00 3.169168252497911453e-03
-8.091947555541992188e+00 6.543235301971435547e+00 3.088552653789520264e-01
-8.149865150451660156e+00 6.673185825347900391e+00 3.126228749752044678e-01
-8.104149818420410156e+00 6.719239234924316406e+00 3.124448955059051514e-01
-8.055112838745117188e+00 6.762411594390869141e+00 3.121482431888580322e-01
-3.755224227905273438e+00 3.306055307388305664e+00 1.270643353462219238e+00
-3.754162311553955078e+00 3.303957700729370117e+00 1.073944687843322754e+00
-3.744385242462158203e+00 3.296512842178344727e+00 8.814432024955749512e-01
-8.130958557128906250e+00 6.667044162750244141e+00 2.129107415676116943e-01
-3.734144449234008789e+00 3.328389883041381836e+00 1.270397186279296875e+00
-3.727979183197021484e+00 3.321727037429809570e+00 1.072265028953552246e+00
-3.717471599578857422e+00 3.313528776168823242e+00 8.798772096633911133e-01
-3.671838521957397461e+00 3.274004459381103516e+00 6.852629780769348145e-01
-8.071435928344726562e+00 6.701481342315673828e+00 2.124248743057250977e-01
-3.704297304153442383e+00 3.342798233032226562e+00 1.267197251319885254e+00
-3.706075191497802734e+00 3.343229055404663086e+00 1.071845054626464844e+00
-3.706574201583862305e+00 3.344852924346923828e+00 8.821390867233276367e-01
-3.666384696960449219e+00 3.309746503829956055e+00 6.880223155021667480e-01
-3.695369720458984375e+00 3.338253974914550781e+00 5.102338194847106934e-01
-8.016388893127441406e+00 6.739300251007080078e+00 2.120604813098907471e-01
-3.677992105484008789e+00 3.360234498977661133e+00 1.265228033065795898e+00
-3.700652599334716797e+00 3.379752397537231445e+00 1.076254367828369141e+00
-3.663443088531494141e+00 3.346942424774169922e+00 8.767453432083129883e-01
-3.647469520568847656e+00 3.333517074584960938e+00 6.882982254028320312e-01
-3.690232992172241211e+00 3.374964475631713867e+00 5.123742818832397461e-01
-3.742299795150756836e+00 3.424982786178588867e+00 3.342803418636322021e-01
-3.850643396377563477e+00 3.525374889373779297e+00 1.549467891454696655e-01
-3.656593322753906250e+00 3.382080793380737305e+00 1.264981865882873535e+00
-3.634618759155273438e+00 3.360579013824462891e+00 1.063026785850524902e+00
-3.606691360473632812e+00 3.335925340652465820e+00 8.680458068847656250e-01
-3.618949890136718750e+00 3.348435401916503906e+00 6.867806315422058105e-01
-3.667994976043701172e+00 3.396191835403442383e+00 5.121703743934631348e-01
-3.708770990371704102e+00 3.436351537704467773e+00 3.331626057624816895e-01
-3.821608781814575195e+00 3.542140960693359375e+00 1.546501368284225464e-01
-3.628697395324707031e+00 3.397828817367553711e+00 1.262520313262939453e+00
-3.606078386306762695e+00 3.375467777252197266e+00 1.060717225074768066e+00
-3.779350280761718750e+00 3.286280155181884766e+00 1.024414181709289551e+00
-3.564590215682983398e+00 3.337800264358520508e+00 8.628259897232055664e-01
-3.595444917678833008e+00 3.367869853973388672e+00 6.862288117408752441e-01
-3.626765489578247070e+00 3.399585485458374023e+00 5.093165040016174316e-01
-3.678155183792114258e+00 3.450168848037719727e+00 3.323078155517578125e-01
-3.789597988128662109e+00 3.555947542190551758e+00 1.542348116636276245e-01
-3.597229480743408203e+00 3.410028219223022461e+00 1.258828043937683105e+00
-3.771714925765991211e+00 3.318164348602294922e+00 1.221823096275329590e+00
-3.582460403442382812e+00 3.394840717315673828e+00 1.059877395629882812e+00
-3.762055873870849609e+00 3.311997175216674805e+00 1.025215744972229004e+00
-3.538325548171997070e+00 3.354189634323120117e+00 8.614341020584106445e-01
-3.564650535583496094e+00 3.380326032638549805e+00 6.842972636222839355e-01
-3.615218400955200195e+00 3.430676698684692383e+00 5.106415748596191406e-01
-3.663428068161010742e+00 3.478856563568115234e+00 3.328995704650878906e-01
-3.764808893203735352e+00 3.576379299163818359e+00 1.541161388158798218e-01
-8.135308265686035156e+00 6.679965496063232422e+00 1.120736822485923767e-01
-3.539382219314575195e+00 3.397853136062622070e+00 1.445889353752136230e+00
-3.574140071868896484e+00 3.430022716522216797e+00 1.258089542388916016e+00
-3.736772537231445312e+00 3.328319311141967773e+00 1.217096447944641113e+00
-3.553801536560058594e+00 3.409312963485717773e+00 1.057567834854125977e+00
-3.746051311492919922e+00 3.338929653167724609e+00 1.026418089866638184e+00
-3.515546560287475586e+00 3.373791694641113281e+00 8.609121441841125488e-01
-3.707868576049804688e+00 3.307219743728637695e+00 8.278763294219970703e-01
-3.536697387695312500e+00 3.395275831222534180e+00 6.829176545143127441e-01
-3.627817153930664062e+00 3.485186100006103516e+00 5.154320001602172852e-01
-3.608204364776611328e+00 3.468767166137695312e+00 3.298092484474182129e-01
-3.707491159439086914e+00 3.565462350845336914e+00 1.526625007390975952e-01
-8.081095695495605469e+00 6.718889236450195312e+00 1.118926927447319031e-01
-3.530160665512084961e+00 3.430871486663818359e+00 1.450694918632507324e+00
-3.555807352066040039e+00 3.454590320587158203e+00 1.259074211120605469e+00
-3.706177473068237305e+00 3.342075109481811523e+00 1.213787913322448730e+00
-3.525100469589233398e+00 3.423561573028564453e+00 1.055258274078369141e+00
-3.723311662673950195e+00 3.359883308410644531e+00 1.025816917419433594e+00
-3.489128589630126953e+00 3.389809370040893555e+00 8.595201373100280762e-01
-3.684577941894531250e+00 3.327264308929443359e+00 8.272189497947692871e-01
-3.517928600311279297e+00 3.418983221054077148e+00 6.833315491676330566e-01
-3.673097372055053711e+00 3.319225549697875977e+00 6.412195563316345215e-01
-3.557157516479492188e+00 3.459524393081665039e+00 5.083992481231689453e-01
-3.736202239990234375e+00 3.378620862960815430e+00 4.681819975376129150e-01
-3.483880758285522461e+00 3.390625715255737305e+00 3.203410506248474121e-01
-3.781436204910278320e+00 3.421925544738769531e+00 2.878066003322601318e-01
-3.454929113388061523e+00 3.363623619079589844e+00 1.431099772453308105e-01
-8.028244018554687500e+00 6.758687973022460938e+00 1.117330044507980347e-01
-3.506307601928710938e+00 3.449776411056518555e+00 1.449564099311828613e+00
-3.531088352203369141e+00 3.472944974899291992e+00 1.257843375205993652e+00
-3.673402070999145508e+00 3.353615760803222656e+00 1.209770321846008301e+00
-3.501935958862304688e+00 3.443070411682128906e+00 1.054628372192382812e+00
-3.676586389541625977e+00 3.358876705169677734e+00 1.018602728843688965e+00
-3.466859340667724609e+00 3.409773588180541992e+00 8.591721653938293457e-01
-3.645892381668090820e+00 3.333170652389526367e+00 8.231099843978881836e-01
-3.504650115966796875e+00 3.448145627975463867e+00 6.848491430282592773e-01
-3.642417907714843750e+00 3.332329034805297852e+00 6.394212841987609863e-01
-3.469228982925415039e+00 3.415679693222045898e+00 4.988182783126831055e-01
-3.691165447235107422e+00 3.379294157028198242e+00 4.651280343532562256e-01
-3.451637983322143555e+00 3.400733709335327148e+00 3.192890286445617676e-01
-3.769938707351684570e+00 3.453831434249877930e+00 2.885390818119049072e-01
-3.414291620254516602e+00 3.365112781524658203e+00 1.422793120145797729e-01
-3.854283809661865234e+00 3.533579826354980469e+00 1.058784052729606628e-01
-3.483715057373046875e+00 3.469871997833251953e+00 1.448998808860778809e+00
-3.506965160369873047e+00 3.491810560226440430e+00 1.256858825683593750e+00
-3.634916305541992188e+00 3.359604120254516602e+00 1.203862071037292480e+00
-3.475200176239013672e+00 3.458975315093994141e+00 1.052948832511901855e+00
-3.617068529129028320e+00 3.345450162887573242e+00 1.007781505584716797e+00
-3.459130764007568359e+00 3.444183111190795898e+00 8.624780178070068359e-01
-3.602206468582153320e+00 3.334037780761718750e+00 8.178504705429077148e-01
-3.480619668960571289e+00 3.466788768768310547e+00 6.842972636222839355e-01
-3.610989093780517578e+00 3.344507694244384766e+00 6.374945640563964844e-01
-3.442568778991699219e+00 3.431283950805664062e+00 4.980029165744781494e-01
-3.664518833160400391e+00 3.396464347839355469e+00 4.643876850605010986e-01
-3.415163516998291016e+00 3.406345844268798828e+00 3.178424835205078125e-01
-3.749407291412353516e+00 3.477577209472656250e+00 2.885954082012176514e-01
-3.390749454498291016e+00 3.383175373077392578e+00 1.421606540679931641e-01
-3.828133106231689453e+00 3.553082227706909180e+00 1.057569459080696106e-01
-3.479920387268066406e+00 3.508890390396118164e+00 1.456348419189453125e+00
-3.498443603515625000e+00 3.526336669921875000e+00 1.261535763740539551e+00
-3.602881431579589844e+00 3.371221780776977539e+00 1.200080752372741699e+00
-3.449778556823730469e+00 3.476069927215576172e+00 1.051689028739929199e+00
-3.580739974975585938e+00 3.352849245071411133e+00 1.003372788429260254e+00
-3.463594198226928711e+00 3.491209268569946289e+00 8.689157962799072266e-01
-3.566565752029418945e+00 3.341914415359497070e+00 8.143989443778991699e-01
-3.448820829391479492e+00 3.477531671524047852e+00 6.822278499603271484e-01
-3.580271482467651367e+00 3.357104539871215820e+00 6.356962919235229492e-01
-3.415148019790649414e+00 3.445983648300170898e+00 4.970856010913848877e-01
-3.654501438140869141e+00 3.429105758666992188e+00 4.657758772373199463e-01
-3.401219844818115234e+00 3.434326648712158203e+00 3.185000121593475342e-01
-3.719264507293701172e+00 3.492316484451293945e+00 2.879192829132080078e-01
-3.368520259857177734e+00 3.402496337890625000e+00 1.421013176441192627e-01
-3.792416095733642578e+00 3.563496351242065430e+00 1.053723022341728210e-01
-8.120029449462890625e+00 6.593675613403320312e+00 1.277929730713367462e-02
-3.495243787765502930e+00 3.567862749099731445e+00 1.471895575523376465e+00
-3.483524322509765625e+00 3.554658412933349609e+00 1.263997197151184082e+00
-3.573663234710693359e+00 3.385246753692626953e+00 1.197244882583618164e+00
-3.758292913436889648e+00 3.305119991302490234e+00 1.166508316993713379e+00
-3.438651561737060547e+00 3.507644414901733398e+00 1.054838418960571289e+00
-3.554411411285400391e+00 3.369364738464355469e+00 1.001769661903381348e+00
-3.730293512344360352e+00 3.285117864608764648e+00 9.679918885231018066e-01
-3.444864034652709961e+00 3.515208721160888672e+00 8.696116805076599121e-01
-3.529533147811889648e+00 3.348121643066406250e+00 8.106186389923095703e-01
-3.430190563201904297e+00 3.501457929611206055e+00 6.827797293663024902e-01
-3.564640045166015625e+00 3.383788824081420898e+00 6.365954279899597168e-01
-3.394635438919067383e+00 3.467584371566772461e+00 4.971875250339508057e-01
-3.639167308807373047e+00 3.456950664520263672e+00 4.665162265300750732e-01
-3.374500989913940430e+00 3.449425458908081055e+00 3.179740011692047119e-01
-3.698489665985107422e+00 3.515759706497192383e+00 2.879756093025207520e-01
-3.794384717941284180e+00 3.609438896179199219e+00 1.060403659939765930e-01
-8.127307891845703125e+00 6.682753086090087891e+00 1.285504549741744995e-02
-3.578127622604370117e+00 3.428979158401489258e+00 1.404245615005493164e+00
-3.460299491882324219e+00 3.574573278427124023e+00 1.263504981994628906e+00
-3.547914981842041016e+00 3.402402639389038086e+00 1.195590496063232422e+00
-3.734305381774902344e+00 3.324880123138427734e+00 1.165373325347900391e+00
-3.428627014160156250e+00 3.540617942810058594e+00 1.058407783508300781e+00
-3.532963752746582031e+00 3.390432596206665039e+00 1.001569271087646484e+00
-3.713729381561279297e+00 3.311210870742797852e+00 9.689477086067199707e-01
-3.470489978790283203e+00 3.585100173950195312e+00 8.816171884536743164e-01
-3.504654169082641602e+00 3.365616083145141602e+00 8.096324801445007324e-01
-3.677437305450439453e+00 3.280004739761352539e+00 7.734156250953674316e-01
-3.403820276260375977e+00 3.517457246780395508e+00 6.818139553070068359e-01
-3.537374734878540039e+00 3.399412631988525391e+00 6.354393362998962402e-01
-3.391274690628051758e+00 3.506941318511962891e+00 4.998375475406646729e-01
-3.617887258529663086e+00 3.479215145111083984e+00 4.665162265300750732e-01
-8.113539695739746094e+00 6.750505447387695312e+00 3.962416052818298340e-01
-3.557559967041015625e+00 3.425983905792236328e+00 1.000075191259384155e-01
-8.091529846191406250e+00 6.736974239349365234e+00 1.286359690129756927e-02
-3.559092283248901367e+00 3.452879667282104492e+00 1.405063509941101074e+00
-3.438301324844360352e+00 3.595738172531127930e+00 1.263504981994628906e+00
-3.529063224792480469e+00 3.426138877868652344e+00 1.196299552917480469e+00
-3.708770275115966797e+00 3.343166351318359375e+00 1.163784384727478027e+00
-3.468337774276733398e+00 3.625882625579833984e+00 1.077514052391052246e+00
-3.518418312072753906e+00 3.418190956115722656e+00 1.003372788429260254e+00
-3.726130008697509766e+00 3.363532781600952148e+00 9.775495529174804688e-01
-3.433454275131225586e+00 3.590668916702270508e+00 8.777893185615539551e-01
-3.486059188842773438e+00 3.389119625091552734e+00 8.101255893707275391e-01
-3.672639608383178711e+00 3.316411256790161133e+00 7.766717672348022461e-01
-3.368486166000366211e+00 3.523957252502441406e+00 6.790547370910644531e-01
-3.527112245559692383e+00 3.431427001953125000e+00 6.373661160469055176e-01
-3.676373004913330078e+00 3.325611352920532227e+00 5.955173373222351074e-01
-3.527980327606201172e+00 3.434669494628906250e+00 4.576319456100463867e-01
-3.763433218002319336e+00 3.406754493713378906e+00 4.235970377922058105e-01
-3.524197578430175781e+00 3.433383464813232422e+00 2.776646316051483154e-01
-3.456292390823364258e+00 3.369580745697021484e+00 9.774013608694076538e-02
-8.053863525390625000e+00 6.789719104766845703e+00 1.286970637738704681e-02
-3.520678043365478516e+00 3.457798480987548828e+00 1.398248076438903809e+00
-3.414176702499389648e+00 3.614653348922729492e+00 1.262766480445861816e+00
-3.516290426254272461e+00 3.455901384353637695e+00 1.199135541915893555e+00
-3.670202970504760742e+00 3.349447488784790039e+00 1.158109545707702637e+00
-3.419836759567260742e+00 3.619379997253417969e+00 1.069325685501098633e+00
-3.486900806427001953e+00 3.429410219192504883e+00 1.000366926193237305e+00
-3.670642614364624023e+00 3.354548454284667969e+00 9.683742523193359375e-01
-3.387015104293823242e+00 3.585896730422973633e+00 8.715256452560424805e-01
-3.477149486541748047e+00 3.422208309173583984e+00 8.129196763038635254e-01
-3.660241842269897461e+00 3.346216201782226562e+00 7.783773541450500488e-01
-3.342720270156860352e+00 3.540238618850708008e+00 6.782269477844238281e-01
-3.498218774795532227e+00 3.445349454879760742e+00 6.359531283378601074e-01
-3.637593269348144531e+00 3.331342697143554688e+00 5.925356149673461914e-01
-3.450814962387084961e+00 3.401035785675048828e+00 4.503209292888641357e-01
-3.709398269653320312e+00 3.399483919143676758e+00 4.198550283908843994e-01
-3.449750423431396484e+00 3.402361392974853516e+00 2.734388113021850586e-01
-3.787672758102416992e+00 3.473652124404907227e+00 2.414657324552536011e-01
-3.399972915649414062e+00 3.355609655380249023e+00 9.672792255878448486e-02
-3.493254899978637695e+00 3.473230838775634766e+00 1.395794630050659180e+00
-3.385321617126464844e+00 3.628447771072387695e+00 1.260304927825927734e+00
-3.484686851501464844e+00 3.467131614685058594e+00 1.195590496063232422e+00
-3.628122329711914062e+00 3.352077245712280273e+00 1.151299715042114258e+00
-3.383554935455322266e+00 3.625285387039184570e+00 1.064916372299194336e+00
-3.472735404968261719e+00 3.457653522491455078e+00 1.002370834350585938e+00
-3.619009256362915039e+00 3.348343849182128906e+00 9.601547122001647949e-01
-3.370994567871093750e+00 3.613091707229614258e+00 8.730915188789367676e-01
-3.474253654479980469e+00 3.461580991744995117e+00 8.171930313110351562e-01
-3.630940675735473633e+00 3.360559463500976562e+00 7.765166759490966797e-01
-3.460860252380371094e+00 3.450644493103027344e+00 6.329988241195678711e-01
-3.619268178939819336e+00 3.355624914169311523e+00 5.928934216499328613e-01
-3.429881572723388672e+00 3.422145605087280273e+00 4.503209292888641357e-01
-3.682625293731689453e+00 3.416758060455322266e+00 4.191897809505462646e-01
-3.424569845199584961e+00 3.419232130050659180e+00 2.731007337570190430e-01
-3.767751455307006836e+00 3.498186588287353516e+00 2.415595948696136475e-01
-3.375782728195190430e+00 3.372874975204467773e+00 9.662669897079467773e-02
-3.843103647232055664e+00 3.571896553039550781e+00 5.586117506027221680e-02
-3.480693101882934570e+00 3.503472566604614258e+00 1.399338603019714355e+00
-3.313731431961059570e+00 3.595696687698364258e+00 1.241843342781066895e+00
-3.459240198135375977e+00 3.484310865402221680e+00 1.194172620773315430e+00
-3.598239660263061523e+00 3.365627288818359375e+00 1.148348808288574219e+00
-3.764436721801757812e+00 3.270861387252807617e+00 1.114711999893188477e+00
-3.375163793563842773e+00 3.661074161529541016e+00 1.069325685501098633e+00
-3.450764417648315430e+00 3.478201389312744141e+00 1.002170443534851074e+00
-3.583352088928222656e+00 3.356395483016967773e+00 9.561405777931213379e-01
-3.324069976806640625e+00 3.606914997100830078e+00 8.666538596153259277e-01
-3.472393751144409180e+00 3.502446889877319336e+00 8.217950463294982910e-01
-3.602322340011596680e+00 3.375344753265380859e+00 7.748110890388488770e-01
-3.436830282211303711e+00 3.468996763229370117e+00 6.324850320816040039e-01
-3.612364768981933594e+00 3.390679597854614258e+00 5.951595902442932129e-01
-3.407418251037597656e+00 3.441711425781250000e+00 4.501358568668365479e-01
-3.667402029037475586e+00 3.444747924804687500e+00 4.198550283908843994e-01
-3.382459878921508789e+00 3.418888092041015625e+00 2.714104056358337402e-01
-3.740393400192260742e+00 3.515766382217407227e+00 2.411841303110122681e-01
-3.350103139877319336e+00 3.388547897338867188e+00 9.648498892784118652e-02
-3.816745042800903320e+00 3.591298580169677734e+00 5.579729750752449036e-02
-3.659886121749877930e+00 3.462003231048583984e+00 1.374428272247314453e+00
-3.439156293869018555e+00 3.506858348846435547e+00 1.194645285606384277e+00
-3.569742202758789062e+00 3.380276679992675781e+00 1.145852088928222656e+00
-3.787528038024902344e+00 3.331929206848144531e+00 1.127582430839538574e+00
-3.279567003250122070e+00 3.601473331451416016e+00 1.046020150184631348e+00
-3.423871517181396484e+00 3.493711233139038086e+00 1.000567197799682617e+00
-3.548444986343383789e+00 3.364811420440673828e+00 9.523175358772277832e-01
-3.746927261352539062e+00 3.302017211914062500e+00 9.238310456275939941e-01
-3.448767423629760742e+00 3.521573066711425781e+00 8.213019967079162598e-01
-3.581543684005737305e+00 3.397384643554687500e+00 7.748110890388488770e-01
-3.425884723663330078e+00 3.500651121139526367e+00 6.344117522239685059e-01
-3.592211723327636719e+00 3.413464546203613281e+00 5.952788591384887695e-01
-3.386236190795898438e+00 3.462554216384887695e+00 4.501358568668365479e-01
-3.651251554489135742e+00 3.471992731094360352e+00 4.204370975494384766e-01
-3.326526880264282227e+00 3.403875350952148438e+00 2.685931921005249023e-01
-3.725263357162475586e+00 3.544847965240478516e+00 2.416065186262130737e-01
-3.801877975463867188e+00 3.621547222137451172e+00 5.590376257896423340e-02
-3.613490819931030273e+00 3.460373640060424805e+00 1.364953160285949707e+00
-3.437855958938598633e+00 3.548831462860107422e+00 1.201735019683837891e+00
-3.549637079238891602e+00 3.402790546417236328e+00 1.146079063415527344e+00
-3.738590240478515625e+00 3.329792022705078125e+00 1.119074821472167969e+00
-3.443255901336669922e+00 3.556889295578002930e+00 1.012591004371643066e+00
-3.529148340225219727e+00 3.387880325317382812e+00 9.526997804641723633e-01
-3.709720134735107422e+00 3.309888839721679688e+00 9.196474552154541016e-01
-3.431895256042480469e+00 3.547630786895751953e+00 8.224524855613708496e-01
-3.568468570709228516e+00 3.426823854446411133e+00 7.765166759490966797e-01
-3.676836013793945312e+00 3.285161972045898438e+00 7.272173166275024414e-01
-3.398826599121093750e+00 3.515901803970336914e+00 6.333841681480407715e-01
-3.559035778045654297e+00 3.423740386962890625e+00 5.932512879371643066e-01
-3.349706649780273438e+00 3.467511415481567383e+00 4.480998516082763672e-01
-3.622699499130249023e+00 3.487419605255126953e+00 4.196055233478546143e-01
-3.466479063034057617e+00 3.342866182327270508e+00 5.127261951565742493e-02
-3.574180841445922852e+00 3.465021133422851562e+00 1.358109951019287109e+00
-3.713406085968017578e+00 3.342575788497924805e+00 1.313529849052429199e+00
-3.425421237945556641e+00 3.579687595367431641e+00 1.205043792724609375e+00
-3.528691053390502930e+00 3.424506664276123047e+00 1.146079063415527344e+00
-3.709391355514526367e+00 3.344826459884643555e+00 1.116457104682922363e+00
-3.455221176147460938e+00 3.613353729248046875e+00 1.022610664367675781e+00
-3.510406017303466797e+00 3.411523580551147461e+00 9.532732963562011719e-01
-3.681314468383789062e+00 3.325338363647460938e+00 9.176466464996337891e-01
-3.428462505340576172e+00 3.587876796722412109e+00 8.268901705741882324e-01
-3.545957803726196289e+00 3.447277545928955078e+00 7.762065529823303223e-01
-3.652207374572753906e+00 3.303678989410400391e+00 7.263418436050415039e-01
-3.372395038604736328e+00 3.531669855117797852e+00 6.324850320816040039e-01
-3.535115718841552734e+00 3.442742824554443359e+00 5.927741527557373047e-01
-3.703714847564697266e+00 3.353798866271972656e+00 5.525065064430236816e-01
-3.482048273086547852e+00 3.393431186676025391e+00 4.057184755802154541e-01
-3.760926246643066406e+00 3.409190654754638672e+00 3.754403293132781982e-01
-3.473379611968994141e+00 3.387347698211669922e+00 2.279492765665054321e-01
-3.428730010986328125e+00 3.347308635711669922e+00 5.101710930466651917e-02
-3.548032999038696289e+00 3.482156515121459961e+00 1.356267571449279785e+00
-3.699259996414184570e+00 3.371160745620727539e+00 1.315818190574645996e+00
-3.406729459762573242e+00 3.604168653488159180e+00 1.206225395202636719e+00
-3.490939140319824219e+00 3.429713010787963867e+00 1.140631198883056641e+00
-3.702492237091064453e+00 3.380025386810302734e+00 1.120601892471313477e+00
-3.417512178421020508e+00 3.618105649948120117e+00 1.018001556396484375e+00
-3.483109712600708008e+00 3.426803112030029297e+00 9.515528678894042969e-01
-3.638346672058105469e+00 3.327292442321777344e+00 9.120080471038818359e-01
-3.393518447875976562e+00 3.595216751098632812e+00 8.237673640251159668e-01
-3.521922826766967773e+00 3.466198682785034180e+00 7.755863666534423828e-01
-3.637704133987426758e+00 3.331371307373046875e+00 7.275090813636779785e-01
-3.347259283065795898e+00 3.548688888549804688e+00 6.318427920341491699e-01
-3.500491380691528320e+00 3.451124906539916992e+00 5.905080437660217285e-01
-3.666947841644287109e+00 3.361684322357177734e+00 5.500884652137756348e-01
-3.449101448059082031e+00 3.402834892272949219e+00 4.043048620223999023e-01
-3.734059095382690430e+00 3.426808595657348633e+00 3.748502731323242188e-01
-3.436891317367553711e+00 3.393156766891479492e+00 2.269167602062225342e-01
-3.815621614456176758e+00 3.505342245101928711e+00 1.945192962884902954e-01
-3.399592161178588867e+00 3.359848976135253906e+00 5.088935047388076782e-02
-3.527284383773803711e+00 3.504541158676147461e+00 1.356530785560607910e+00
-3.674240350723266602e+00 3.389860630035400391e+00 1.314292550086975098e+00
-3.378582477569580078e+00 3.618612289428710938e+00 1.204098463058471680e+00
-3.476043939590454102e+00 3.457249641418457031e+00 1.142674207687377930e+00
