-9.603878974914550781e+00 -5.921278476715087891e+00 5.300981998443603516e-01
-1.317065620422363281e+01 -6.852101325988769531e+00 4.406327307224273682e-01
-4.790287494659423828e+00 -2.716391324996948242e+00 1.115063652396202087e-01
-7.645092487335205078e+00 -4.708064079284667969e+00 9.559319168329238892e-02
-5.297298431396484375e+00 -3.532316207885742188e+00 7.778756320476531982e-03
-1.169032669067382812e+01 -6.009140491485595703e+00 2.822700500488281250e+00
-1.161906623840332031e+01 -6.521482467651367188e+00 2.725358486175537109e+00
-1.227534961700439453e+01 -6.884203910827636719e+00 2.345074415206909180e+00
-1.249185371398925781e+01 -6.999892234802246094e+00 1.854681491851806641e+00
-1.143097591400146484e+01 -6.956805229187011719e+00 1.116619706153869629e+00
-1.163222980499267578e+01 -6.507529258728027344e+00 7.521961331367492676e-01
-9.673316001892089844e+00 -5.882480144500732422e+00 5.319285988807678223e-01
-9.036026000976562500e+00 -4.630810737609863281e+00 3.013497292995452881e-01
-4.799882888793945312e+00 -2.683044910430908203e+00 1.113444119691848755e-01
-8.046461105346679688e+00 -4.887397289276123047e+00 1.002349928021430969e-01
-5.334744930267333984e+00 -3.510190010070800781e+00 7.801969069987535477e-03
-1.175140285491943359e+01 -5.949662685394287109e+00 2.828579425811767578e+00
-1.162714385986328125e+01 -6.432518482208251953e+00 2.717943906784057617e+00
-1.256512165069580078e+01 -6.945711612701416016e+00 2.392245531082153320e+00
-1.147068595886230469e+01 -6.903954505920410156e+00 2.101308822631835938e+00
-1.150449180603027344e+01 -6.910632133483886719e+00 1.612178683280944824e+00
-1.149566268920898438e+01 -6.899868965148925781e+00 1.118781805038452148e+00
-1.165795135498046875e+01 -6.428319454193115234e+00 7.512946724891662598e-01
-9.713511466979980469e+00 -5.825583934783935547e+00 5.321632623672485352e-01
-9.083008766174316406e+00 -4.584738254547119141e+00 3.019727170467376709e-01
-4.796990394592285156e+00 -2.642928600311279297e+00 1.108990237116813660e-01
-7.947626113891601562e+00 -4.760855197906494141e+00 9.863804280757904053e-02
-5.449282646179199219e+00 -3.537833690643310547e+00 7.937581278383731842e-03
-1.178243732452392578e+01 -5.874827861785888672e+00 2.827319622039794922e+00
-1.160618305206298828e+01 -6.328224658966064453e+00 2.703916549682617188e+00
-1.148564720153808594e+01 -6.817306041717529297e+00 2.096346855163574219e+00
-1.146210956573486328e+01 -6.789815425872802734e+00 1.600370883941650391e+00
-1.151462936401367188e+01 -6.815498352050781250e+00 1.116536617279052734e+00
-1.167875385284423828e+01 -6.346655368804931641e+00 7.501114606857299805e-01
-9.752512931823730469e+00 -5.767907142639160156e+00 5.323509573936462402e-01
-9.127083778381347656e+00 -5.850770473480224609e+00 4.070086479187011719e-01
-9.108283996582031250e+00 -4.527585029602050781e+00 3.018837273120880127e-01
-4.804330825805664062e+00 -2.608674287796020508e+00 1.106965839862823486e-01
-8.171262741088867188e+00 -4.826938629150390625e+00 1.010441035032272339e-01
-5.494465351104736328e+00 -3.519433498382568359e+00 7.971789687871932983e-03
-1.178403568267822266e+01 -5.785616874694824219e+00 2.819131374359130859e+00
-1.160682010650634766e+01 -6.236487865447998047e+00 2.695098876953125000e+00
-1.152214527130126953e+01 -6.743709087371826172e+00 2.095416545867919922e+00
-1.150612735748291016e+01 -6.720860004425048828e+00 1.600728750228881836e+00
-1.149340248107910156e+01 -6.708047866821289062e+00 1.110466241836547852e+00
-1.169283199310302734e+01 -6.261679172515869141e+00 7.485337853431701660e-01
-1.149364662170410156e+01 -6.702812671661376953e+00 6.251357197761535645e-01
-9.132406234741210938e+00 -5.775429248809814453e+00 4.056580662727355957e-01
-9.109856605529785156e+00 -4.458868503570556641e+00 3.010233938694000244e-01
-8.553259849548339844e+00 -4.982051849365234375e+00 1.053877994418144226e-01
-5.505813121795654297e+00 -3.479243516921997070e+00 7.957128807902336121e-03
-1.179554653167724609e+01 -5.701713562011718750e+00 2.813462257385253906e+00
-1.159464836120605469e+01 -6.138564586639404297e+00 2.683476209640502930e+00
-1.158053684234619141e+01 -6.685521125793457031e+00 2.604058980941772461e+00
-1.158298683166503906e+01 -6.684240341186523438e+00 2.098982810974121094e+00
-1.159705162048339844e+01 -6.678872585296630859e+00 1.607646465301513672e+00
-1.158185100555419922e+01 -6.664735794067382812e+00 1.115039825439453125e+00
-1.170100975036621094e+01 -6.173973560333251953e+00 7.466180920600891113e-01
-1.131460571289062500e+01 -6.505693912506103516e+00 6.132150292396545410e-01
-9.177845954895019531e+00 -5.725632190704345703e+00 4.061082601547241211e-01
-9.180267333984375000e+00 -4.423715591430664062e+00 3.024473786354064941e-01
-8.654001235961914062e+00 -4.562375068664550781e+00 1.980918198823928833e-01
-8.379894256591796875e+00 -4.812451362609863281e+00 1.028859168291091919e-01
-5.623799800872802734e+00 -3.505701303482055664e+00 8.096406236290931702e-03
-1.182412910461425781e+01 -5.626289367675781250e+00 2.811992645263671875e+00
-1.167726612091064453e+01 -6.090866565704345703e+00 2.693896770477294922e+00
-1.160257339477539062e+01 -6.603656768798828125e+00 2.599853515625000000e+00
-1.194835948944091797e+01 -6.797701835632324219e+00 2.157593727111816406e+00
-1.214290523529052734e+01 -6.894363880157470703e+00 1.677419781684875488e+00
-1.207844829559326172e+01 -6.852192878723144531e+00 1.158779859542846680e+00
-1.441017246246337891e+01 -6.838311672210693359e+00 1.051036834716796875e+00
-1.173601531982421875e+01 -6.100680351257324219e+00 7.464490532875061035e-01
-1.141427040100097656e+01 -6.470134735107421875e+00 6.164532899856567383e-01
-9.194932937622070312e+00 -5.658212184906005859e+00 4.053204357624053955e-01
-1.330556488037109375e+01 -6.311277866363525391e+00 4.370727837085723877e-01
-8.685380935668945312e+00 -4.511032581329345703e+00 1.981727927923202515e-01
-4.801565170288085938e+00 -2.718427419662475586e+00 5.874632671475410461e-02
-5.649464130401611328e+00 -3.473747253417968750e+00 8.102514781057834625e-03
-1.185311698913574219e+01 -5.551144123077392578e+00 2.810732841491699219e+00
-1.167869091033935547e+01 -6.000743389129638672e+00 2.685680389404296875e+00
-1.203750324249267578e+01 -6.753750801086425781e+00 2.687974452972412109e+00
-1.230434608459472656e+01 -6.900641918182373047e+00 2.214188814163208008e+00
-1.247782039642333984e+01 -6.983624458312988281e+00 1.717733025550842285e+00
-1.176539897918701172e+01 -6.579501628875732422e+00 1.124852180480957031e+00
-1.144424057006835938e+01 -6.954103946685791016e+00 9.904544353485107422e-01
-1.089607906341552734e+01 -5.089030742645263672e+00 7.924364805221557617e-01
-1.176878356933593750e+01 -6.026279449462890625e+00 7.461673617362976074e-01
-4.837871551513671875e+00 -2.703240871429443359e+00 2.603793740272521973e-01
-9.276461601257324219e+00 -5.630202770233154297e+00 4.073837995529174805e-01
-1.334403896331787109e+01 -6.229517459869384766e+00 4.370727837085723877e-01
-8.681744575500488281e+00 -4.441717147827148438e+00 1.974642425775527954e-01
-4.784974575042724609e+00 -2.670397281646728516e+00 5.834176763892173767e-02
-5.765582561492919922e+00 -3.496576309204101562e+00 8.238127455115318298e-03
-1.187452316284179688e+01 -5.472581386566162109e+00 2.807793378829956055e+00
-1.170742321014404297e+01 -5.924989700317382812e+00 2.683876991271972656e+00
-1.254771041870117188e+01 -6.939125537872314453e+00 2.792343139648437500e+00
-1.497422027587890625e+01 -6.897962570190429688e+00 2.912972927093505859e+00
-1.148516941070556641e+01 -6.899195671081542969e+00 1.976064085960388184e+00
-1.148560714721679688e+01 -6.891277790069580078e+00 1.481117486953735352e+00
-1.179158496856689453e+01 -6.499490261077880859e+00 1.123521685600280762e+00
-1.148840522766113281e+01 -6.884778022766113281e+00 9.906018972396850586e-01
-1.091440582275390625e+01 -5.016243457794189453e+00 7.915158867835998535e-01
-1.180108165740966797e+01 -5.951705932617187500e+00 7.458856105804443359e-01
-4.831617832183837891e+00 -2.660976409912109375e+00 2.591591179370880127e-01
-8.665085792541503906e+00 -4.366318225860595703e+00 1.964722722768783569e-01
-4.801269531250000000e+00 -2.640986919403076172e+00 5.834176763892173767e-02
-5.733718872070312500e+00 -3.429309368133544922e+00 8.162379264831542969e-03
-1.190253639221191406e+01 -5.397194862365722656e+00 2.806533575057983398e+00
-1.174443531036376953e+01 -5.853480339050292969e+00 2.684077501296997070e+00
-1.266589641571044922e+01 -6.903340816497802734e+00 2.809164762496948242e+00
-1.150446033477783203e+01 -6.825926780700683594e+00 2.474462985992431641e+00
-1.148319339752197266e+01 -6.794354438781738281e+00 1.475402235984802246e+00
-1.182861518859863281e+01 -6.425588607788085938e+00 1.123272180557250977e+00
-1.095770835876464844e+01 -4.954936027526855469e+00 7.924364805221557617e-01
-1.182307147979736328e+01 -5.872077941894531250e+00 7.449841499328613281e-01
-1.144539546966552734e+01 -6.212241172790527344e+00 6.118539571762084961e-01
-8.689026832580566406e+00 -4.311734676361083984e+00 1.964115351438522339e-01
-4.798923015594482422e+00 -2.601469516754150391e+00 5.811819434165954590e-02
-5.591858386993408203e+00 -3.298048019409179688e+00 7.931472733616828918e-03
-1.193274974822998047e+01 -5.322865486145019531e+00 2.805903673171997070e+00
-1.177837085723876953e+01 -5.780443668365478516e+00 2.683676481246948242e+00
-1.272444534301757812e+01 -6.834319114685058594e+00 2.812796592712402344e+00
-1.146210193634033203e+01 -6.706048965454101562e+00 2.456455707550048828e+00
-1.151942348480224609e+01 -6.728794574737548828e+00 1.967601418495178223e+00
-1.143795680999755859e+01 -6.673178672790527344e+00 1.464301586151123047e+00
-1.307680892944335938e+01 -6.400691986083984375e+00 1.353183865547180176e+00
-1.191262722015380859e+01 -6.376874923706054688e+00 1.127513170242309570e+00
-1.151774311065673828e+01 -6.711646556854248047e+00 9.859550595283508301e-01
-1.220777034759521484e+01 -5.430223941802978516e+00 8.804118633270263672e-01
-1.181223964691162109e+01 -5.776614189147949219e+00 7.420542240142822266e-01
-1.148505878448486328e+01 -6.142838954925537109e+00 6.119478344917297363e-01
-8.841979980468750000e+00 -4.320225238800048828e+00 1.992660015821456909e-01
-9.110096931457519531e+00 -4.866446018218994141e+00 1.099657118320465088e-01
-5.608531951904296875e+00 -3.261664152145385742e+00 7.926586084067821503e-03
-1.197413921356201172e+01 -5.253475666046142578e+00 2.808003187179565430e+00
-1.181361675262451172e+01 -5.708064079284667969e+00 2.683676481246948242e+00
-1.284508800506591797e+01 -6.797895431518554688e+00 2.830191373825073242e+00
-1.156691551208496094e+01 -6.672443389892578125e+00 2.470097541809082031e+00
-1.159135532379150391e+01 -6.675760746002197266e+00 1.972854137420654297e+00
-1.160533809661865234e+01 -6.675723552703857422e+00 1.480457901954650879e+00
-1.475680255889892578e+01 -6.462046623229980469e+00 1.650564670562744141e+00
-1.318400859832763672e+01 -6.353184700012207031e+00 1.360217332839965820e+00
-1.201499462127685547e+01 -6.337132930755615234e+00 1.133500456809997559e+00
-1.144975280761718750e+01 -6.578250408172607422e+00 9.766612052917480469e-01
-1.236518859863281250e+01 -5.409608364105224609e+00 8.893541097640991211e-01
-1.044321823120117188e+01 -5.027945518493652344e+00 6.541007757186889648e-01
-1.148100090026855469e+01 -6.050364494323730469e+00 6.097419857978820801e-01
-9.009709358215332031e+00 -4.741994380950927734e+00 1.084007024765014648e-01
-4.849411010742187500e+00 -2.780516147613525391e+00 6.829471793025732040e-03
-1.198639774322509766e+01 -5.171383857727050781e+00 2.803384065628051758e+00
-1.183426284790039062e+01 -5.628736972808837891e+00 2.680470228195190430e+00
-1.305540752410888672e+01 -6.806988716125488281e+00 2.867274761199951172e+00
-1.163157272338867188e+01 -6.614955425262451172e+00 2.475190401077270508e+00
-1.201321125030517578e+01 -6.820900917053222656e+00 2.037492513656616211e+00
-1.216743183135986328e+01 -6.900042533874511719e+00 1.546732425689697266e+00
-1.481444931030273438e+01 -6.379248142242431641e+00 1.652603149414062500e+00
-1.324703216552734375e+01 -6.283690929412841797e+00 1.362715959548950195e+00
-1.201562786102294922e+01 -6.243533134460449219e+00 1.129924654960632324e+00
-1.118011379241943359e+01 -6.332409381866455078e+00 9.503287672996520996e-01
-1.213966274261474609e+01 -5.222435474395751953e+00 8.708121776580810547e-01
-1.044680595397949219e+01 -4.950945377349853516e+00 6.524104475975036621e-01
-1.148599338531494141e+01 -5.963234901428222656e+00 6.080524325370788574e-01
-4.813291549682617188e+00 -2.722917556762695312e+00 2.076123058795928955e-01
-1.348936367034912109e+01 -5.800282001495361328e+00 4.357971549034118652e-01
-9.151374816894531250e+00 -4.745078563690185547e+00 1.097527816891670227e-01
-4.783678054809570312e+00 -2.703961133956909180e+00 6.713407579809427261e-03
-1.119162845611572266e+01 -4.747251033782958984e+00 2.610641002655029297e+00
-1.186059188842773438e+01 -5.552278995513916016e+00 2.678666591644287109e+00
-1.316590595245361328e+01 -6.762181282043457031e+00 2.882375717163085938e+00
-1.212139129638671875e+01 -6.795428276062011719e+00 2.570502042770385742e+00
-1.183784294128417969e+01 -5.018923759460449219e+00 2.271812677383422852e+00
-1.241914176940917969e+01 -6.950961112976074219e+00 2.099066495895385742e+00
-1.174936389923095703e+01 -4.978991985321044922e+00 1.777517437934875488e+00
-1.251232814788818359e+01 -6.994515895843505859e+00 1.585090279579162598e+00
-1.183666324615478516e+01 -5.011113643646240234e+00 1.316965937614440918e+00
-1.389253997802734375e+01 -6.485764026641845703e+00 1.424998283386230469e+00
-1.204129219055175781e+01 -6.163332462310791016e+00 1.128760457038879395e+00
-1.120569705963134766e+01 -6.256397724151611328e+00 9.492223858833312988e-01
-1.190588188171386719e+01 -5.035517692565917969e+00 8.518100380897521973e-01
-1.048603630065917969e+01 -4.890972137451171875e+00 6.529738903045654297e-01
-1.151347446441650391e+01 -5.888097763061523438e+00 6.075831651687622070e-01
-4.834272384643554688e+00 -2.695765733718872070e+00 2.077998667955398560e-01
-9.008448600769042969e+00 -4.601055622100830078e+00 1.076980456709861755e-01
-4.797558307647705078e+00 -2.673097848892211914e+00 6.709742359817028046e-03
-1.123949623107910156e+01 -4.686392307281494141e+00 2.615050315856933594e+00
-1.187930965423583984e+01 -5.472430706024169922e+00 2.675260066986083984e+00
-1.318963241577148438e+01 -6.672408103942871094e+00 2.878552675247192383e+00
-1.255273818969726562e+01 -6.936363697052001953e+00 2.652899265289306641e+00
-1.124486255645751953e+01 -4.686326503753662109e+00 2.152454137802124023e+00
-1.120003414154052734e+01 -4.665349960327148438e+00 1.690048813819885254e+00
-1.117192745208740234e+01 -4.649066448211669922e+00 1.239809155464172363e+00
-1.239120388031005859e+01 -5.692522525787353516e+00 1.267395257949829102e+00
-1.210023975372314453e+01 -6.100099086761474609e+00 1.130756258964538574e+00
-1.123426342010498047e+01 -6.182234287261962891e+00 9.484110474586486816e-01
-1.112757873535156250e+01 -4.626054763793945312e+00 7.940801978111267090e-01
-1.049951553344726562e+01 -4.819042205810546875e+00 6.519596576690673828e-01
-1.143876266479492188e+01 -5.761621475219726562e+00 6.017635464668273926e-01
-4.853349685668945312e+00 -2.667496681213378906e+00 2.079124301671981812e-01
-1.310815715789794922e+01 -5.446755409240722656e+00 4.212903380393981934e-01
-9.043657302856445312e+00 -4.549289226531982422e+00 1.077832207083702087e-01
-4.799845695495605469e+00 -2.635908603668212891e+00 6.690194830298423767e-03
-1.191444873809814453e+01 -5.400246143341064453e+00 2.675660848617553711e+00
-1.324526119232177734e+01 -6.598793506622314453e+00 2.881802320480346680e+00
-1.275969886779785156e+01 -5.225980758666992188e+00 2.436235189437866211e+00
-1.197365188598632812e+01 -4.901599884033203125e+00 1.802212834358215332e+00
-1.116065025329589844e+01 -4.564237117767333984e+00 1.235426306724548340e+00
-1.242136287689208984e+01 -5.614333629608154297e+00 1.266932487487792969e+00
-1.210263061523437500e+01 -6.008456230163574219e+00 1.127513170242309570e+00
-1.277719593048095703e+01 -6.929512977600097656e+00 1.075057625770568848e+00
-1.115760135650634766e+01 -4.558444976806640625e+00 7.942117452621459961e-01
-1.192928123474121094e+01 -5.386903762817382812e+00 7.386735677719116211e-01
-1.152401256561279297e+01 -5.716182708740234375e+00 6.043917536735534668e-01
-1.276365661621093750e+01 -6.913523674011230469e+00 5.449541807174682617e-01
-1.314133071899414062e+01 -5.366222381591796875e+00 4.212903380393981934e-01
-9.530167579650878906e+00 -4.720973014831542969e+00 1.132341325283050537e-01
-4.834397792816162109e+00 -2.616403102874755859e+00 6.715850904583930969e-03
-1.194109630584716797e+01 -5.324246406555175781e+00 2.674257993698120117e+00
-1.328197574615478516e+01 -6.515668392181396484e+00 2.881037473678588867e+00
-1.341456508636474609e+01 -5.398315906524658203e+00 2.554897785186767578e+00
-1.372642612457275391e+01 -5.521031856536865234e+00 2.060893774032592773e+00
-1.496418190002441406e+01 -6.659646987915039062e+00 2.121470928192138672e+00
-1.316933917999267578e+01 -5.291621208190917969e+00 1.454156279563903809e+00
-1.491485023498535156e+01 -6.631456375122070312e+00 1.517080068588256836e+00
-1.210166740417480469e+01 -5.915701389312744141e+00 1.124020576477050781e+00
-1.288632106781005859e+01 -6.886707305908203125e+00 1.080663442611694336e+00
-1.196667194366455078e+01 -5.315631866455078125e+00 7.389552593231201172e-01
-9.927092552185058594e+00 -4.848403453826904297e+00 5.190691947937011719e-01
-1.148699188232421875e+01 -6.131147861480712891e+00 4.888305366039276123e-01
-1.340871334075927734e+01 -5.379652500152587891e+00 4.287959039211273193e-01
-9.763867378234863281e+00 -4.762353897094726562e+00 1.156614869832992554e-01
-5.948904991149902344e+00 -3.172542572021484375e+00 8.236904628574848175e-03
-1.196995162963867188e+01 -5.249302864074707031e+00 2.673456430435180664e+00
-1.331817054748535156e+01 -6.432341575622558594e+00 2.880273103713989258e+00
-1.442326831817626953e+01 -5.698749542236328125e+00 2.160227298736572266e+00
-1.490028572082519531e+01 -6.521972656250000000e+00 2.106699228286743164e+00
-1.362350654602050781e+01 -5.377259731292724609e+00 1.500633835792541504e+00
-1.490873146057128906e+01 -6.519469261169433594e+00 1.512360215187072754e+00
-1.214761543273925781e+01 -5.846089363098144531e+00 1.124935388565063477e+00
-1.386386871337890625e+01 -5.466539382934570312e+00 9.819978475570678711e-01
-1.199448871612548828e+01 -5.240107536315917969e+00 7.386735677719116211e-01
-9.988162994384765625e+00 -4.802550792694091797e+00 5.207117795944213867e-01
-1.149078655242919922e+01 -6.042874813079833984e+00 4.874049425125122070e-01
-9.560341835021972656e+00 -4.590682506561279297e+00 1.129147484898567200e-01
-6.035537242889404297e+00 -3.171331882476806641e+00 8.329756557941436768e-03
-1.202172756195068359e+01 -5.184293270111083984e+00 2.677865266799926758e+00
-1.334143161773681641e+01 -6.342915534973144531e+00 2.876832246780395508e+00
-1.342657089233398438e+01 -5.209929943084716797e+00 2.006122350692749023e+00
-1.494457721710205078e+01 -6.432383537292480469e+00 2.107341289520263672e+00
-1.341879272460937500e+01 -5.201523303985595703e+00 1.474541187286376953e+00
-1.486155509948730469e+01 -6.390501976013183594e+00 1.503568530082702637e+00
-1.214903545379638672e+01 -5.755230903625488281e+00 1.121775388717651367e+00
-1.343189525604248047e+01 -5.201210021972656250e+00 9.491221308708190918e-01
-1.202458095550537109e+01 -5.165623664855957031e+00 7.385608553886413574e-01
-1.001924800872802734e+01 -4.742028713226318359e+00 5.208056569099426270e-01
-1.148151016235351562e+01 -5.948351383209228516e+00 4.854541122913360596e-01
-9.281857490539550781e+00 -4.387080192565917969e+00 1.093056425452232361e-01
-6.091293811798095703e+00 -3.153086662292480469e+00 8.379847742617130280e-03
-1.201813316345214844e+01 -5.095516681671142578e+00 2.670049667358398438e+00
-1.337654304504394531e+01 -6.259270191192626953e+00 2.876067638397216797e+00
-1.186305332183837891e+01 -5.024880409240722656e+00 2.146693229675292969e+00
-1.114694976806640625e+01 -4.716969013214111328e+00 1.567725419998168945e+00
-1.339746093750000000e+01 -5.098919868469238281e+00 1.468731522560119629e+00
-1.183821487426757812e+01 -5.004614830017089844e+00 1.194562792778015137e+00
-1.215702438354492188e+01 -5.667944908142089844e+00 1.119280815124511719e+00
-1.342438316345214844e+01 -5.103802204132080078e+00 9.463605880737304688e-01
-1.177368736267089844e+01 -4.972492218017578125e+00 7.212631702423095703e-01
-1.004634571075439453e+01 -4.679618835449218750e+00 5.207117795944213867e-01
-1.153470420837402344e+01 -5.886420726776123047e+00 4.861669242382049561e-01
-9.679422378540039062e+00 -4.502538681030273438e+00 1.136599853634834290e-01
-6.127452850341796875e+00 -3.124282360076904297e+00 8.403060026466846466e-03
-1.123076248168945312e+01 -4.680593967437744141e+00 2.488693237304687500e+00
-1.340132427215576172e+01 -6.170917510986328125e+00 2.873200416564941406e+00
-1.123345947265625000e+01 -4.677115917205810547e+00 2.027532815933227539e+00
-1.115279006958007812e+01 -4.638961791992187500e+00 1.564514040946960449e+00
-1.115334033966064453e+01 -4.634624481201171875e+00 1.122563242912292480e+00
-1.215987110137939453e+01 -5.578699588775634766e+00 1.116370201110839844e+00
-1.110409259796142578e+01 -4.609615325927734375e+00 6.784978508949279785e-01
-1.173570251464843750e+01 -5.379142284393310547e+00 6.065506339073181152e-01
-9.463450431823730469e+00 -4.756451129913330078e+00 3.976297080516815186e-01
-9.490471839904785156e+00 -4.344013214111328125e+00 1.111261621117591858e-01
-5.814071178436279297e+00 -2.919684648513793945e+00 7.948577404022216797e-03
-1.343088817596435547e+01 -6.084926605224609375e+00 2.871479988098144531e+00
-1.396488380432128906e+01 -6.951416015625000000e+00 2.885539293289184570e+00
-1.277285099029541016e+01 -5.226324558258056641e+00 2.299546957015991211e+00
-1.196959304809570312e+01 -4.892775058746337891e+00 1.674852132797241211e+00
-1.119447422027587891e+01 -4.571372032165527344e+00 1.123858928680419922e+00
-1.193682479858398438e+01 -5.387958526611328125e+00 1.092837095260620117e+00
-1.401544284820556641e+01 -6.946086883544921875e+00 1.156931638717651367e+00
-1.174663352966308594e+01 -5.297176837921142578e+00 6.054242849349975586e-01
-9.505889892578125000e+00 -4.704943656921386719e+00 3.981924355030059814e-01
-9.680152893066406250e+00 -4.359193801879882812e+00 1.130318492650985718e-01
-5.658874034881591797e+00 -2.798402786254882812e+00 7.712782826274633408e-03
-1.346259307861328125e+01 -6.000004291534423828e+00 2.870333194732666016e+00
-1.403111457824707031e+01 -6.877283573150634766e+00 2.890450477600097656e+00
-1.362378978729248047e+01 -5.477159976959228516e+00 2.446648359298706055e+00
-1.373777770996093750e+01 -5.517416477203369141e+00 1.917493104934692383e+00
-1.387079334259033203e+01 -5.565217018127441406e+00 1.389091134071350098e+00
-1.199242973327636719e+01 -5.324724674224853516e+00 1.094915986061096191e+00
-1.406407260894775391e+01 -6.863020420074462891e+00 1.157447934150695801e+00
-1.177161026000976562e+01 -5.221760272979736328e+00 6.050487756729125977e-01
-9.532783508300781250e+00 -4.645652770996093750e+00 3.981173932552337646e-01
-1.330511379241943359e+01 -5.327475070953369141e+00 2.902040183544158936e-01
-9.316328048706054688e+00 -4.126787185668945312e+00 1.084858775138854980e-01
-6.148858070373535156e+00 -2.993893861770629883e+00 8.355412632226943970e-03
-1.344791316986083984e+01 -5.894824981689453125e+00 2.859437465667724609e+00
-1.409164619445800781e+01 -6.800034999847412109e+00 2.894270181655883789e+00
-1.338374042510986328e+01 -5.285491943359375000e+00 2.397669315338134766e+00
-1.442820739746093750e+01 -5.692150592803955078e+00 2.008949041366577148e+00
-1.487263011932373047e+01 -6.500783443450927734e+00 1.949833512306213379e+00
-1.400565242767333984e+01 -5.519797325134277344e+00 1.399178385734558105e+00
-1.203766155242919922e+01 -5.256623268127441406e+00 1.096080183982849121e+00
-1.398726081848144531e+01 -6.719591140747070312e+00 1.147711515426635742e+00
-1.397313976287841797e+01 -5.501348972320556641e+00 8.474743366241455078e-01
-1.182082462310791016e+01 -5.157021999359130859e+00 6.059405207633972168e-01
-9.577326774597167969e+00 -4.594853401184082031e+00 3.987926840782165527e-01
-9.502818107604980469e+00 -4.139833927154541016e+00 1.103596240282058716e-01
-6.248270511627197266e+00 -2.995010614395141602e+00 8.465369231998920441e-03
-1.202358436584472656e+01 -5.182761192321777344e+00 2.549771785736083984e+00
-1.417485046386718750e+01 -6.733272075653076172e+00 2.902819156646728516e+00
-1.336258029937744141e+01 -5.182583808898925781e+00 2.388136386871337891e+00
-1.337352371215820312e+01 -5.181458950042724609e+00 1.857635736465454102e+00
-1.477814674377441406e+01 -6.351770877838134766e+00 1.932300567626953125e+00
-1.339110660552978516e+01 -5.182895660400390625e+00 1.334582448005676270e+00
-1.218414974212646484e+01 -5.231811523437500000e+00 1.106474757194519043e+00
-1.401740932464599609e+01 -6.628524780273437500e+00 1.146826386451721191e+00
-1.341716384887695312e+01 -5.187596797943115234e+00 8.118084073066711426e-01
-1.187703132629394531e+01 -5.095026493072509766e+00 6.072076559066772461e-01
-9.692990303039550781e+00 -4.577393054962158203e+00 4.024316966533660889e-01
-9.767943382263183594e+00 -4.184212684631347656e+00 1.131383180618286133e-01
-6.195987224578857422e+00 -2.923332929611206055e+00 8.370073512196540833e-03
-1.195574665069580078e+01 -5.066757678985595703e+00 2.528745174407958984e+00
-1.422658729553222656e+01 -6.651167392730712891e+00 2.905001878738403320e+00
-1.178831481933593750e+01 -4.993374824523925781e+00 2.009361028671264648e+00
-1.160672569274902344e+01 -4.904514312744140625e+00 1.513661384582519531e+00
-1.334261035919189453e+01 -5.070214271545410156e+00 1.326623678207397461e+00
-1.182032871246337891e+01 -4.989911556243896484e+00 1.070634484291076660e+00
-1.139959907531738281e+01 -5.305278301239013672e+00 9.299709200859069824e-01
-1.343287372589111328e+01 -5.099149227142333984e+00 8.108505606651306152e-01
-1.186205005645751953e+01 -5.002646446228027344e+00 6.048610806465148926e-01
-1.177254867553710938e+01 -5.471348285675048828e+00 4.873674213886260986e-01
-9.980509757995605469e+00 -4.202980518341064453e+00 1.152995154261589050e-01
-5.936267852783203125e+00 -2.756389617919921875e+00 7.996223866939544678e-03
-1.125358772277832031e+01 -4.687945365905761719e+00 2.374103546142578125e+00
-1.425641059875488281e+01 -6.558817863464355469e+00 2.902819156646728516e+00
-1.122410106658935547e+01 -4.673363685607910156e+00 1.908264875411987305e+00
-1.119281196594238281e+01 -4.648879051208496094e+00 1.455934405326843262e+00
-1.115210533142089844e+01 -4.627408027648925781e+00 1.007519006729125977e+00
-1.143375015258789062e+01 -5.236062049865722656e+00 9.301184415817260742e-01
-1.209761524200439453e+01 -5.532416820526123047e+00 4.994099736213684082e-01
-9.150555610656738281e+00 -3.787536382675170898e+00 1.054410338401794434e-01
-5.953069210052490234e+00 -2.719913482666015625e+00 7.996223866939544678e-03
-1.426413726806640625e+01 -6.456621170043945312e+00 2.896270990371704102e+00
-1.277948379516601562e+01 -5.229201316833496094e+00 2.167207241058349609e+00
-1.113839530944824219e+01 -4.546345233917236328e+00 1.445200085639953613e+00
-1.117475318908691406e+01 -4.556635379791259766e+00 1.007019996643066406e+00
-1.142474651336669922e+01 -5.147372722625732422e+00 9.267992377281188965e-01
-1.244522285461425781e+01 -5.069618701934814453e+00 6.313777565956115723e-01
-1.341263389587402344e+01 -6.034560680389404297e+00 5.521571636199951172e-01
-1.026197242736816406e+01 -4.173997879028320312e+00 1.179504469037055969e-01
-6.117405414581298828e+00 -2.749752283096313477e+00 8.194144815206527710e-03
-1.430618095397949219e+01 -6.370176315307617188e+00 2.896816730499267578e+00
-1.363443660736083984e+01 -5.481613159179687500e+00 2.306446790695190430e+00
-1.382651519775390625e+01 -5.544825077056884766e+00 1.789533853530883789e+00
-1.490103435516357422e+01 -6.613246917724609375e+00 1.802707552909851074e+00
-1.336529636383056641e+01 -5.354448795318603516e+00 1.201439023017883301e+00
-1.147982120513916016e+01 -5.087680816650390625e+00 9.287169575691223145e-01
-1.344057369232177734e+01 -5.379162788391113281e+00 6.801871061325073242e-01
-1.344575309753417969e+01 -5.950531005859375000e+00 5.520071387290954590e-01
-9.215845108032226562e+00 -3.682752132415771484e+00 1.056646034121513367e-01
-6.208243846893310547e+00 -2.744919300079345703e+00 8.293104358017444611e-03
-1.432608222961425781e+01 -6.273991584777832031e+00 2.892997026443481445e+00
-1.435327243804931641e+01 -5.668559551239013672e+00 2.422117948532104492e+00
-1.413463783264160156e+01 -5.567959785461425781e+00 1.824957251548767090e+00
-1.471906185150146484e+01 -6.424673557281494141e+00 1.775890111923217773e+00
-1.431779861450195312e+01 -5.634338855743408203e+00 1.283929705619812012e+00
-1.398924636840820312e+01 -6.097400665283203125e+00 1.128681421279907227e+00
-1.347559833526611328e+01 -5.865125656127929688e+00 5.517445206642150879e-01
-1.052371501922607422e+01 -4.130689144134521484e+00 1.203671544790267944e-01
-6.140600681304931641e+00 -2.670088768005371094e+00 8.180704899132251740e-03
-1.436159992218017578e+01 -6.184803485870361328e+00 2.892451286315917969e+00
-1.335436153411865234e+01 -5.179563999176025391e+00 2.248146057128906250e+00
-1.339626216888427734e+01 -5.182371139526367188e+00 1.725485682487487793e+00
-1.477555847167968750e+01 -6.341686248779296875e+00 1.777978301048278809e+00
-1.343743324279785156e+01 -5.192906379699707031e+00 1.202104210853576660e+00
-1.436738491058349609e+01 -6.157590866088867188e+00 1.156120300292968750e+00
-1.346550178527832031e+01 -5.198351860046386719e+00 6.781690120697021484e-01
-1.350214481353759766e+01 -5.778398990631103516e+00 5.513693094253540039e-01
-9.630758285522460938e+00 -3.712157487869262695e+00 1.098911911249160767e-01
-6.644195556640625000e+00 -2.840716600418090820e+00 8.828222751617431641e-03
-1.190371799468994141e+01 -5.039960861206054688e+00 2.391156196594238281e+00
-1.179373836517333984e+01 -4.983689308166503906e+00 1.888372063636779785e+00
-1.162919235229492188e+01 -4.906982421875000000e+00 1.395719051361083984e+00
-1.342804813385009766e+01 -5.094803810119628906e+00 1.198445320129394531e+00
-1.181598567962646484e+01 -4.978513717651367188e+00 9.483372569084167480e-01
-1.350603008270263672e+01 -5.682266712188720703e+00 5.500938296318054199e-01
-1.058951091766357422e+01 -4.007252216339111328e+00 1.205481439828872681e-01
-6.406139850616455078e+00 -2.692564487457275391e+00 8.489803411066532135e-03
-1.121070671081542969e+01 -4.677115917205810547e+00 2.715229034423828125e+00
-1.120088672637939453e+01 -4.661547183990478516e+00 2.244187116622924805e+00
-1.120374679565429688e+01 -4.653563976287841797e+00 1.789298892021179199e+00
-1.119543552398681641e+01 -4.643239974975585938e+00 1.340215563774108887e+00
-1.116632461547851562e+01 -4.624315738677978516e+00 8.939020633697509766e-01
-1.253130340576171875e+01 -5.181909561157226562e+00 5.090890526771545410e-01
-1.037111854553222656e+01 -3.852027416229248047e+00 1.177907437086105347e-01
-6.248783588409423828e+00 -2.581425905227661133e+00 8.260117843747138977e-03
-1.272554397583007812e+01 -5.204699516296386719e+00 2.543218135833740234e+00
-1.323431873321533203e+01 -5.402004718780517578e+00 2.108258962631225586e+00
-1.115100193023681641e+01 -4.544823169708251953e+00 1.331532955169677734e+00
-1.114091396331787109e+01 -4.533910274505615234e+00 8.896239995956420898e-01
-1.311277675628662109e+01 -5.328379154205322266e+00 5.313734412193298340e-01
-1.074123287200927734e+01 -3.914664745330810547e+00 1.217192411422729492e-01
-6.082899093627929688e+00 -2.469313383102416992e+00 8.020658977329730988e-03
-1.372907638549804688e+01 -5.505923271179199219e+00 2.181651830673217773e+00
-1.360818481445312500e+01 -5.449171543121337891e+00 1.620920181274414062e+00
-1.328536701202392578e+01 -5.311834812164306641e+00 1.058240294456481934e+00
-1.337909889221191406e+01 -5.341187477111816406e+00 5.408273935317993164e-01
-1.074339485168457031e+01 -3.840941667556762695e+00 1.214743778109550476e-01
-6.059852600097656250e+00 -2.416754722595214844e+00 7.970567792654037476e-03
-1.420744132995605469e+01 -5.588226318359375000e+00 1.688183665275573730e+00
-1.429423713684082031e+01 -5.613725185394287109e+00 1.135836124420166016e+00
-1.446289157867431641e+01 -5.671221256256103516e+00 5.832202434539794922e-01
-9.842007637023925781e+00 -3.450720310211181641e+00 1.110409870743751526e-01
-6.523363113403320312e+00 -2.555328845977783203e+00 8.559442125260829926e-03
-1.340347766876220703e+01 -5.185330390930175781e+00 2.119639873504638672e+00
-1.342090892791748047e+01 -5.183996677398681641e+00 1.590915322303771973e+00
-1.346492958068847656e+01 -5.192899703979492188e+00 1.067386507987976074e+00
-1.098168468475341797e+01 -3.774799585342407227e+00 1.236355751752853394e-01
-6.523052692413330078e+00 -2.509150743484497070e+00 8.538672700524330139e-03
-1.261429595947265625e+01 -3.264187097549438477e+00 1.335006594657897949e+00
-1.275064659118652344e+01 -3.294722080230712891e+00 8.677875995635986328e-01
-1.031477546691894531e+01 -3.474938631057739258e+00 1.158850565552711487e-01
-6.689879417419433594e+00 -2.526310443878173828e+00 8.736592717468738556e-03
-1.264759063720703125e+01 -3.190132141113281250e+00 1.336433529853820801e+00
-1.276578426361083984e+01 -3.215204954147338867e+00 8.674588203430175781e-01
-1.027893066406250000e+01 -3.392777681350708008e+00 1.152462884783744812e-01
-6.740885734558105469e+00 -2.498420715332031250e+00 8.783018216490745544e-03
-1.291141986846923828e+01 -3.177323102951049805e+00 1.852155447006225586e+00
-1.266209697723388672e+01 -3.111280918121337891e+00 1.335923910140991211e+00
-1.281240653991699219e+01 -3.143472433090209961e+00 8.692998886108398438e-01
-1.248851013183593750e+01 -3.061695098876953125e+00 3.816265761852264404e-01
-1.022343826293945312e+01 -3.305036544799804688e+00 1.143945828080177307e-01
-6.802138328552246094e+00 -2.473759412765502930e+00 8.842883631587028503e-03
-1.287673473358154297e+01 -3.085117578506469727e+00 1.844429492950439453e+00
-1.272061634063720703e+01 -3.043018579483032227e+00 1.340102791786193848e+00
-1.282854175567626953e+01 -3.064102411270141602e+00 8.691025972366333008e-01
-1.249150562286376953e+01 -2.981296777725219727e+00 3.811519145965576172e-01
-1.128646755218505859e+01 -3.572352886199951172e+00 1.260416358709335327e-01
-6.812479496002197266e+00 -2.430295705795288086e+00 8.836775086820125580e-03
-1.288963508605957031e+01 -3.004700183868408203e+00 1.843601822853088379e+00
-1.277005290985107422e+01 -2.972125053405761719e+00 1.343364357948303223e+00
-1.132918834686279297e+01 -3.509542942047119141e+00 1.262758672237396240e-01
-6.798946380615234375e+00 -2.378542900085449219e+00 8.800122886896133423e-03
-1.279290103912353516e+01 -2.894811153411865234e+00 1.343873977661132812e+00
-1.139261531829833984e+01 -3.452723026275634766e+00 1.267443001270294189e-01
-6.829493045806884766e+00 -2.342295646667480469e+00 8.820892311632633209e-03
-1.272272205352783203e+01 -3.290023565292358398e+00 1.702083468437194824e+00
-1.279876327514648438e+01 -2.813697814941406250e+00 1.342650890350341797e+00
-1.260927200317382812e+01 -3.255990505218505859e+00 1.210387945175170898e+00
-1.274325084686279297e+01 -3.285842657089233398e+00 7.426739931106567383e-01
-1.149316024780273438e+01 -3.406338453292846680e+00 1.276279389858245850e-01
-6.652263641357421875e+00 -2.235987663269042969e+00 8.574102073907852173e-03
-1.277536582946777344e+01 -3.220137834548950195e+00 1.706450819969177246e+00
-1.263384151458740234e+01 -3.179775476455688477e+00 1.210850596427917480e+00
-1.285612964630126953e+01 -3.230951070785522461e+00 7.480830550193786621e-01
-1.182887172698974609e+01 -3.427022218704223633e+00 1.311199367046356201e-01
-6.652560710906982422e+00 -2.190749168395996094e+00 8.556998334825038910e-03
-1.278140068054199219e+01 -3.138378381729125977e+00 1.704652547836303711e+00
-1.264247608184814453e+01 -3.099587678909301758e+00 1.209832668304443359e+00
-1.287862205505371094e+01 -3.152718782424926758e+00 7.482520937919616699e-01
-1.248966598510742188e+01 -3.052880764007568359e+00 2.603434622287750244e-01
-1.166205978393554688e+01 -3.301266908645629883e+00 1.290438920259475708e-01
-6.570705413818359375e+00 -2.119193553924560547e+00 8.434825576841831207e-03
-1.279559421539306641e+01 -3.058741092681884766e+00 1.704010248184204102e+00
-1.270193386077880859e+01 -3.031665325164794922e+00 1.213719487190246582e+00
-1.290063762664794922e+01 -3.074332237243652344e+00 7.484211325645446777e-01
-9.017242431640625000e+00 -1.804124474525451660e+00 2.729294598102569580e-01
-1.250135421752929688e+01 -2.974568128585815430e+00 2.602017521858215332e-01
-1.135922622680664062e+01 -3.140386581420898438e+00 1.254773736000061035e-01
-6.595981597900390625e+00 -2.082750797271728516e+00 8.450708352029323578e-03
-1.283440589904785156e+01 -2.984888792037963867e+00 1.706707715988159180e+00
-1.275133323669433594e+01 -2.960877418518066406e+00 1.216680884361267090e+00
-9.027160644531250000e+00 -1.748571515083312988e+00 2.728997766971588135e-01
-1.132035827636718750e+01 -3.054996967315673828e+00 1.248386055231094360e-01
-6.599082946777343750e+00 -2.039287090301513672e+00 8.438491262495517731e-03
-1.265534973144531250e+01 -3.348635435104370117e+00 1.572580933570861816e+00
-1.279451465606689453e+01 -2.888281583786010742e+00 1.219087004661560059e+00
-1.181561470031738281e+01 -3.110998392105102539e+00 1.300872415304183960e-01
-6.446830272674560547e+00 -1.948983669281005859e+00 8.228353224694728851e-03
-1.269584655761718750e+01 -3.276130199432373047e+00 1.575085639953613281e+00
-1.265037631988525391e+01 -3.259687423706054688e+00 1.090092897415161133e+00
-1.268439674377441406e+01 -3.263732433319091797e+00 6.153738498687744141e-01
-1.170082283020019531e+01 -3.004124641418457031e+00 1.286180466413497925e-01
-7.115562915802001953e+00 -2.103589534759521484e+00 9.065238758921623230e-03
-1.269741535186767578e+01 -3.193567037582397461e+00 1.572819471359252930e+00
-1.262664699554443359e+01 -3.171082019805908203e+00 1.086351037025451660e+00
-1.259082317352294922e+01 -3.157413244247436523e+00 6.098828315734863281e-01
-1.167441463470458984e+01 -2.921108245849609375e+00 1.281283199787139893e-01
-6.652793407440185547e+00 -1.922470927238464355e+00 8.460481651127338409e-03
-1.271194934844970703e+01 -3.114415645599365234e+00 1.572223067283630371e+00
-1.254325771331787109e+01 -3.068445682525634766e+00 1.077536344528198242e+00
-1.288263416290283203e+01 -3.146701335906982422e+00 6.230707764625549316e-01
-1.146575641632080078e+01 -2.794255256652832031e+00 1.256477236747741699e-01
-6.602872371673583984e+00 -1.864224433898925781e+00 8.382291533052921295e-03
-1.275496482849121094e+01 -3.042116641998291016e+00 1.575204849243164062e+00
-1.258802509307861328e+01 -2.997657060623168945e+00 1.079781651496887207e+00
-9.018641471862792969e+00 -1.797959327697753906e+00 1.862083375453948975e-01
-1.104680633544921875e+01 -2.620453357696533203e+00 1.208781749010086060e-01
-7.241768360137939453e+00 -1.996712684631347656e+00 9.177637286484241486e-03
-1.279370117187500000e+01 -2.968508958816528320e+00 1.577709555625915527e+00
-1.279549217224121094e+01 -2.964217901229858398e+00 1.095996975898742676e+00
-9.001034736633300781e+00 -1.737093925476074219e+00 1.856212466955184937e-01
-1.183338165283203125e+01 -2.730455875396728516e+00 1.292994022369384766e-01
-7.192082405090332031e+00 -1.935607910156250000e+00 9.099447168409824371e-03
-1.290658950805664062e+01 -2.911362648010253906e+00 1.589398026466369629e+00
-1.253244781494140625e+01 -3.309241056442260742e+00 1.433307528495788574e+00
-1.290676975250244141e+01 -2.906669139862060547e+00 1.103980064392089844e+00
-1.243240737915039062e+01 -2.788443088531494141e+00 1.356552541255950928e-01
-7.220266342163085938e+00 -1.895758748054504395e+00 9.120215661823749542e-03
-1.263433265686035156e+01 -3.253348827362060547e+00 1.442649722099304199e+00
-1.267359256744384766e+01 -3.256383419036865234e+00 9.678099751472473145e-01
-7.449732780456542969e+00 -1.907223463058471680e+00 9.395105764269828796e-03
-1.266176986694335938e+01 -3.177700519561767578e+00 1.443529009819030762e+00
-1.274170589447021484e+01 -3.190670967102050781e+00 9.714980125427246094e-01
-1.240853595733642578e+01 -3.100337982177734375e+00 4.801644086837768555e-01
-1.267700576782226562e+01 -2.680347442626953125e+00 1.379548460245132446e-01
-7.331279754638671875e+00 -1.829040169715881348e+00 9.231393225491046906e-03
-1.289209175109863281e+01 -3.158699274063110352e+00 1.957679510116577148e+00
-1.268875312805175781e+01 -3.101837635040283203e+00 1.444408178329467773e+00
-1.275716781616210938e+01 -3.111484050750732422e+00 9.712029695510864258e-01
-1.281668090820312500e+01 -3.118890285491943359e+00 4.952082335948944092e-01
-8.993393898010253906e+00 -1.843931794166564941e+00 9.774375706911087036e-02
-7.356941223144531250e+00 -1.787563562393188477e+00 9.249719791114330292e-03
-1.290834331512451172e+01 -3.078846931457519531e+00 1.957241773605346680e+00
-1.275202655792236328e+01 -3.034507036209106445e+00 1.449463963508605957e+00
-1.273720741271972656e+01 -3.023934602737426758e+00 9.682525396347045898e-01
-8.985903739929199219e+00 -1.785012960433959961e+00 9.754147380590438843e-02
-7.294783592224121094e+00 -1.725127935409545898e+00 9.158089756965637207e-03
-1.280526638031005859e+01 -2.964274644851684570e+00 1.453420639038085938e+00
-1.284589004516601562e+01 -2.966593027114868164e+00 9.751122593879699707e-01
-8.999632835388183594e+00 -1.730409145355224609e+00 9.757340699434280396e-02
-7.378323078155517578e+00 -1.697147965431213379e+00 9.249719791114330292e-03
-1.285230445861816406e+01 -2.892193555831909180e+00 1.456717848777770996e+00
-1.237030506134033203e+01 -2.299889326095581055e+00 1.339624822139739990e-01
-7.366151809692382812e+00 -1.646825313568115234e+00 9.221619926393032074e-03
-1.283970642089843750e+01 -2.806698799133300781e+00 1.453310728073120117e+00
-1.332669067382812500e+01 -1.410245895385742188e+00 3.977353572845458984e-01
-1.212238788604736328e+01 -2.176929950714111328e+00 1.311305761337280273e-01
-7.373186111450195312e+00 -1.600959897041320801e+00 9.217955172061920166e-03
-1.351711177825927734e+01 -1.346581101417541504e+00 4.031642973423004150e-01
-1.278382110595703125e+01 -2.214827775955200195e+00 1.381358355283737183e-01
-7.392655849456787109e+00 -1.557750582695007324e+00 9.230172261595726013e-03
-1.335738563537597656e+01 -2.229867935180664062e+00 1.441829353570938110e-01
-7.586269378662109375e+00 -1.549994707107543945e+00 9.459856897592544556e-03
-9.001274108886718750e+00 -1.784902453422546387e+00 3.445073664188385010e-01
-1.347152042388916016e+01 -2.164043188095092773e+00 1.452688723802566528e-01
-7.722181797027587891e+00 -1.528464198112487793e+00 9.617459960281848907e-03
-1.339263916015625000e+01 -2.067157268524169922e+00 1.442787647247314453e-01
-7.715701103210449219e+00 -1.478042721748352051e+00 9.597912430763244629e-03
-1.284718513488769531e+01 -1.902334332466125488e+00 1.382742524147033691e-01
-7.757072925567626953e+00 -1.436681985855102539e+00 9.638229385018348694e-03
-1.332084941864013672e+01 -1.400371432304382324e+00 2.712147235870361328e-01
-1.353877162933349609e+01 -1.919921875000000000e+00 1.455882489681243896e-01
-7.734241962432861328e+00 -1.383424043655395508e+00 9.599134325981140137e-03
-1.315295410156250000e+01 -1.782951474189758301e+00 1.413190811872482300e-01
-7.701196670532226562e+00 -1.328800201416015625e+00 9.547822177410125732e-03
-1.217791080474853516e+01 -1.574745774269104004e+00 1.307366639375686646e-01
-7.805878639221191406e+00 -1.297591805458068848e+00 9.667551144957542419e-03
-1.220719242095947266e+01 -1.502436757087707520e+00 1.309495866298675537e-01
-7.949961662292480469e+00 -1.271465301513671875e+00 9.836150333285331726e-03
-1.371887111663818359e+01 -1.603101611137390137e+00 1.470574438571929932e-01
-7.972438812255859375e+00 -1.224939227104187012e+00 9.854475967586040497e-03
-1.412600040435791016e+01 -1.562878370285034180e+00 1.513159722089767456e-01
-7.774027824401855469e+00 -1.145672440528869629e+00 9.600356221199035645e-03
-1.322333621978759766e+01 -1.380933165550231934e+00 1.415533125400543213e-01
-7.964096546173095703e+00 -1.123799204826354980e+00 9.826376102864742279e-03
-1.322061443328857422e+01 -1.298694968223571777e+00 1.414362043142318726e-01
-7.960931301116943359e+00 -1.073574781417846680e+00 9.814158082008361816e-03
-1.435849285125732422e+01 -1.321571469306945801e+00 1.535197645425796509e-01
-8.074487686157226562e+00 -1.038484096527099609e+00 9.946106001734733582e-03
-1.388214015960693359e+01 -1.191873550415039062e+00 1.483456492424011230e-01
-7.895092010498046875e+00 -9.662047028541564941e-01 9.717642329633235931e-03
-1.437263202667236328e+01 -1.145191669464111328e+00 1.535091102123260498e-01
-7.955504894256591797e+00 -9.240891337394714355e-01 9.784838184714317322e-03
-8.053467750549316406e+00 -8.854210972785949707e-01 9.898458607494831085e-03
-1.489641761779785156e+01 -1.003129601478576660e+00 1.589600145816802979e-01
-8.099530220031738281e+00 -8.402197957038879395e-01 9.948549792170524597e-03
-1.490029621124267578e+01 -9.115858674049377441e-01 1.589387357234954834e-01
-8.230933189392089844e+00 -8.028351068496704102e-01 1.010370906442403793e-02
-8.100268363952636719e+00 -7.399441599845886230e-01 9.937554597854614258e-03
-8.204295158386230469e+00 -6.987135410308837891e-01 1.005972642451524734e-02
-8.204440116882324219e+00 -6.480448246002197266e-01 1.005483977496623993e-02
-1.494515991210937500e+01 -5.466265082359313965e-01 1.592261791229248047e-01
-8.207264900207519531e+00 -5.976185202598571777e-01 1.005361787974834442e-02
-8.266654014587402344e+00 -5.509725809097290039e-01 1.012203563004732132e-02
-8.397644996643066406e+00 -5.079674720764160156e-01 1.027841586619615555e-02
-8.003190040588378906e+00 -4.348382055759429932e-01 9.792167693376541138e-03
-8.272397994995117188e+00 -3.985728025436401367e-01 1.011836994439363480e-02
-8.307659149169921875e+00 -3.491926789283752441e-01 1.015868689864873886e-02
-8.370605468750000000e+00 -3.003989756107330322e-01 1.023321226239204407e-02
-8.458253860473632812e+00 -2.515891790390014648e-01 1.033828221261501312e-02
-8.453639030456542969e+00 -1.995439827442169189e-01 1.033095084130764008e-02
-8.481700897216796875e+00 -1.481411904096603394e-01 1.036393828690052032e-02
-8.506447792053222656e+00 -9.636752307415008545e-02 1.039325818419456482e-02
-8.633877754211425781e+00 -4.483055695891380310e-02 1.054841931909322739e-02
-8.614990234375000000e+00 8.128836750984191895e-03 1.052520610392093658e-02
-8.615777969360351562e+00 6.099634617567062378e-02 1.052642706781625748e-02
-8.616241455078125000e+00 1.138738393783569336e-01 1.052764989435672760e-02
-8.754354476928710938e+00 1.694296300411224365e-01 1.069747004657983780e-02
-8.748151779174804688e+00 2.230147272348403931e-01 1.069136150181293488e-02
-8.770606994628906250e+00 2.774470150470733643e-01 1.072068326175212860e-02
-1.394849872589111328e+01 2.053128004074096680e+00 4.184423983097076416e-01
-8.774734497070312500e+00 3.314836919307708740e-01 1.072801277041435242e-02
-8.951362609863281250e+00 3.931728899478912354e-01 1.094670221209526062e-02
-8.914824485778808594e+00 4.463897049427032471e-01 1.090516429394483566e-02
-8.921902656555175781e+00 5.016430020332336426e-01 1.091738138347864151e-02
-8.895700454711914062e+00 5.549452900886535645e-01 1.088928151875734329e-02
-9.606539726257324219e+00 1.716591715812683105e+00 2.896315455436706543e-01
-8.887139320373535156e+00 6.091758608818054199e-01 1.088317204266786575e-02
-9.572237014770507812e+00 1.771139264106750488e+00 2.889195680618286133e-01
-1.392366218566894531e+01 2.059249162673950195e+00 2.850011885166168213e-01
-8.972984313964843750e+00 6.704003810882568359e-01 1.099312864243984222e-02
-8.996610641479492188e+00 7.277023792266845703e-01 1.102733612060546875e-02
-9.292838096618652344e+00 8.090855479240417480e-01 1.139629911631345749e-02
