-6.535562992095947266e+00 -3.770077705383300781e+00 1.395659685134887695e+00
-8.655887603759765625e+00 -3.795840740203857422e+00 1.669974684715270996e+00
-7.470679283142089844e+00 -3.606441974639892578e+00 1.382259368896484375e+00
-7.170244693756103516e+00 -3.793044805526733398e+00 1.273158669471740723e+00
-6.517940521240234375e+00 -3.753849983215332031e+00 1.109356522560119629e+00
-8.423548698425292969e+00 -3.692200899124145508e+00 1.281125903129577637e+00
-7.455926895141601562e+00 -3.596111774444580078e+00 1.072167396545410156e+00
-7.233245849609375000e+00 -3.818297386169433594e+00 9.825499653816223145e-01
-6.522941112518310547e+00 -3.752183198928833008e+00 8.321119546890258789e-01
-8.463701248168945312e+00 -3.706279516220092773e+00 9.466743469238281250e-01
-7.449529647827148438e+00 -3.589821577072143555e+00 7.685810327529907227e-01
-7.011023998260498047e+00 -3.697862148284912109e+00 6.614234447479248047e-01
-6.433514595031738281e+00 -3.696260452270507812e+00 5.487772822380065918e-01
-7.551069736480712891e+00 -3.635504961013793945e+00 4.729538857936859131e-01
-2.481423139572143555e+00 -1.307683467864990234e+00 1.317853778600692749e-01
-7.621171951293945312e+00 -4.373301982879638672e+00 3.298762142658233643e-01
-1.114105319976806641e+01 -4.871748924255371094e+00 3.608898818492889404e-01
-7.972749710083007812e+00 -3.835097312927246094e+00 1.791430115699768066e-01
-2.462583303451538086e+00 -1.296108007431030273e+00 2.962867543101310730e-02
-7.522225856781005859e+00 -4.313033103942871094e+00 1.059362292289733887e-02
-8.392054557800292969e+00 -3.998703956604003906e+00 2.634016990661621094e+00
-7.411993503570556641e+00 -3.876080513000488281e+00 2.281940460205078125e+00
-6.705412387847900391e+00 -3.828917980194091797e+00 2.030046701431274414e+00
-9.410019874572753906e+00 -4.057888984680175781e+00 2.602578878402709961e+00
-7.838944435119628906e+00 -3.731797218322753906e+00 2.111603498458862305e+00
-7.297055721282958984e+00 -3.811110019683837891e+00 1.918757319450378418e+00
-6.674704551696777344e+00 -3.803662776947021484e+00 1.717223644256591797e+00
-1.045847415924072266e+01 -4.512179851531982422e+00 2.446032524108886719e+00
-7.779506206512451172e+00 -3.700170755386352539e+00 1.762064456939697266e+00
-7.340620040893554688e+00 -3.827342510223388672e+00 1.612172961235046387e+00
-6.630372524261474609e+00 -3.770738363265991211e+00 1.410938620567321777e+00
-8.712472915649414062e+00 -3.757085561752319336e+00 1.676412224769592285e+00
-7.642341613769531250e+00 -3.631660461425781250e+00 1.409871578216552734e+00
-7.235434532165527344e+00 -3.770893573760986328e+00 1.280601382255554199e+00
-6.665594100952148438e+00 -3.784613370895385742e+00 1.130513548851013184e+00
-8.650692939758300781e+00 -3.728653669357299805e+00 1.312167644500732422e+00
-7.607754230499267578e+00 -3.611969470977783203e+00 1.090792655944824219e+00
-7.352552413940429688e+00 -3.823776483535766602e+00 9.955504536628723145e-01
-6.685905456542968750e+00 -3.791517496109008789e+00 8.499169349670410156e-01
-8.653488159179687500e+00 -3.726277112960815430e+00 9.653266072273254395e-01
-7.653141021728515625e+00 -3.630244970321655273e+00 7.872749567031860352e-01
-7.236966133117675781e+00 -3.760455846786499023e+00 6.805492639541625977e-01
-6.548054695129394531e+00 -3.708813905715942383e+00 5.565958619117736816e-01
-8.399868965148925781e+00 -3.613591194152832031e+00 6.025462746620178223e-01
-7.695034503936767578e+00 -3.646827220916748047e+00 4.805603921413421631e-01
-7.321035385131835938e+00 -3.800894737243652344e+00 3.875653743743896484e-01
-7.643513679504394531e+00 -4.323996543884277344e+00 3.296886086463928223e-01
-1.113033199310302734e+01 -4.785923480987548828e+00 3.595845401287078857e-01
-2.466051101684570312e+00 -1.278671979904174805e+00 2.957544289529323578e-02
-2.398368120193481445e+00 -1.355671167373657227e+00 3.365866839885711670e-03
-7.572000503540039062e+00 -3.900777101516723633e+00 2.323789358139038086e+00
-6.808001518249511719e+00 -3.832296848297119141e+00 2.053947687149047852e+00
-7.964640140533447266e+00 -3.731863498687744141e+00 2.139253854751586914e+00
-7.574041366577148438e+00 -3.896811485290527344e+00 1.985265731811523438e+00
-6.798318386077880859e+00 -3.819037437438964844e+00 1.742964506149291992e+00
-1.035995101928710938e+01 -4.394471168518066406e+00 2.416638135910034180e+00
-7.832232475280761719e+00 -3.666489839553833008e+00 1.768877983093261719e+00
-7.452152729034423828e+00 -3.827522993087768555e+00 1.631479382514953613e+00
-6.756311416625976562e+00 -3.787686586380004883e+00 1.432765603065490723e+00
-7.786891460418701172e+00 -3.641951322555541992e+00 1.432388782501220703e+00
-7.377959728240966797e+00 -3.787789344787597656e+00 1.301688790321350098e+00
-6.742214202880859375e+00 -3.773599624633789062e+00 1.139559984207153320e+00
-8.849411964416503906e+00 -3.750088214874267578e+00 1.338794589042663574e+00
-7.777121543884277344e+00 -3.634073734283447266e+00 1.111858248710632324e+00
-7.457172393798828125e+00 -3.820237398147583008e+00 1.006523370742797852e+00
-6.787126541137695312e+00 -3.794071435928344727e+00 8.598086833953857422e-01
-8.828257560729980469e+00 -3.737489223480224609e+00 9.822459816932678223e-01
-7.744743824005126953e+00 -3.615651130676269531e+00 7.944009304046630859e-01
-7.455950260162353516e+00 -3.816326141357421875e+00 6.989268064498901367e-01
-6.727423667907714844e+00 -3.756074905395507812e+00 5.698727369308471680e-01
-1.019558906555175781e+01 -4.312160015106201172e+00 7.294465899467468262e-01
-7.821321010589599609e+00 -3.648076772689819336e+00 4.870399534702301025e-01
-7.515863418579101562e+00 -3.843682289123535156e+00 3.966232836246490479e-01
-2.443755626678466797e+00 -1.362726926803588867e+00 1.050441712141036987e-01
-9.178198814392089844e+00 -3.879972696304321289e+00 2.957428097724914551e-01
-7.574719905853271484e+00 -3.868780136108398438e+00 9.055749326944351196e-02
-2.405767917633056641e+00 -1.340442776679992676e+00 3.364645177498459816e-03
-7.707634925842285156e+00 -3.910993337631225586e+00 2.358005285263061523e+00
-6.965004920959472656e+00 -3.864590167999267578e+00 2.094121456146240234e+00
-8.159455299377441406e+00 -3.762261867523193359e+00 2.185338258743286133e+00
-7.737672805786132812e+00 -3.921142101287841797e+00 2.021811485290527344e+00
-6.866873264312744141e+00 -3.802307367324829102e+00 1.754526138305664062e+00
-1.000319766998291016e+01 -4.170908451080322266e+00 2.327405214309692383e+00
-8.039668083190917969e+00 -3.703626394271850586e+00 1.810559988021850586e+00
-7.600746154785156250e+00 -3.845086336135864258e+00 1.658813953399658203e+00
-6.851720809936523438e+00 -3.786108255386352539e+00 1.448044657707214355e+00
-1.010865020751953125e+01 -4.212807178497314453e+00 1.934964299201965332e+00
-8.013392448425292969e+00 -3.688131570816040039e+00 1.469862699508666992e+00
-7.516551971435546875e+00 -3.800846576690673828e+00 1.322000980377197266e+00
-6.838005065917968750e+00 -3.772300243377685547e+00 1.151816487312316895e+00
-1.010837364196777344e+01 -4.210620880126953125e+00 1.525320768356323242e+00
-7.965963363647460938e+00 -3.662933588027954102e+00 1.135621428489685059e+00
-7.615208148956298828e+00 -3.842392444610595703e+00 1.024652481079101562e+00
-6.889498710632324219e+00 -3.796003580093383789e+00 8.698102831840515137e-01
-1.010286140441894531e+01 -4.204186916351318359e+00 1.121169090270996094e+00
-7.900693416595458984e+00 -3.629580497741699219e+00 8.080974817276000977e-01
-8.017587661743164062e+00 -4.041909694671630859e+00 7.492362260818481445e-01
-6.832473278045654297e+00 -3.759921312332153320e+00 5.768061876296997070e-01
-1.019605731964111328e+01 -4.238794803619384766e+00 7.276055216789245605e-01
-7.976945877075195312e+00 -3.661239385604858398e+00 4.953225851058959961e-01
-7.587480545043945312e+00 -3.821758747100830078e+00 3.991576135158538818e-01
-2.423171758651733398e+00 -1.331822991371154785e+00 1.038061529397964478e-01
-9.170448303222656250e+00 -3.810542583465576172e+00 2.947341501712799072e-01
-7.575983047485351562e+00 -3.810995578765869141e+00 9.029132872819900513e-02
-2.432354211807250977e+00 -1.335764527320861816e+00 3.390301251783967018e-03
-7.545081615447998047e+00 -3.770475149154663086e+00 2.301154136657714844e+00
-7.056469917297363281e+00 -3.858903646469116211e+00 2.114462614059448242e+00
-8.383251190185546875e+00 -3.803252220153808594e+00 2.238984823226928711e+00
-7.521079540252685547e+00 -3.753560543060302734e+00 1.959161758422851562e+00
-7.002296924591064453e+00 -3.821344137191772461e+00 1.783102989196777344e+00
-1.000598335266113281e+01 -4.100183010101318359e+00 2.322156190872192383e+00
-8.249631881713867188e+00 -3.739161252975463867e+00 1.852642655372619629e+00
-7.705903053283691406e+00 -3.839083194732666016e+00 1.676591157913208008e+00
-6.943044185638427734e+00 -3.781148672103881836e+00 1.462414026260375977e+00
-1.014706707000732422e+01 -4.155927181243896484e+00 1.937400221824645996e+00
-8.113147735595703125e+00 -3.673886060714721680e+00 1.483997583389282227e+00
-7.554765701293945312e+00 -3.762140989303588867e+00 1.324636936187744141e+00
-6.966188907623291016e+00 -3.787449836730957031e+00 1.169471621513366699e+00
-1.013585281372070312e+01 -4.149268150329589844e+00 1.525596618652343750e+00
-8.094907760620117188e+00 -3.662222146987915039e+00 1.150778532028198242e+00
-7.696435451507568359e+00 -3.824311733245849609e+00 1.032405018806457520e+00
-7.043681144714355469e+00 -3.824804782867431641e+00 8.862963914871215820e-01
-1.014780426025390625e+01 -4.150025367736816406e+00 1.123309493064880371e+00
-8.103374481201171875e+00 -3.662645339965820312e+00 8.265138864517211914e-01
-8.043130874633789062e+00 -3.993082046508789062e+00 7.493193745613098145e-01
-6.863305091857910156e+00 -3.722206354141235352e+00 5.774700641632080078e-01
-1.022279739379882812e+01 -4.176530361175537109e+00 7.276712656021118164e-01
-8.180338859558105469e+00 -3.693994283676147461e+00 5.065351128578186035e-01
-7.791550159454345703e+00 -3.864793300628662109e+00 4.086379110813140869e-01
-2.453264951705932617e+00 -1.328828096389770508e+00 1.047440394759178162e-01
-9.136282920837402344e+00 -3.730773448944091797e+00 2.928948402404785156e-01
-7.737213134765625000e+00 -3.832794189453125000e+00 9.193086624145507812e-02
-2.443142890930175781e+00 -1.322242617607116699e+00 3.393966471776366234e-03
-7.871906280517578125e+00 -3.873618125915527344e+00 2.393537282943725586e+00
-7.135354518890380859e+00 -3.845356702804565430e+00 2.130989789962768555e+00
-8.910425186157226562e+00 -3.976672649383544922e+00 2.373220205307006836e+00
-7.478415489196777344e+00 -3.675126075744628906e+00 1.942137479782104492e+00
-7.133909702301025391e+00 -3.836548328399658203e+00 1.810588955879211426e+00
-1.006904506683349609e+01 -4.054047107696533203e+00 2.330974340438842773e+00
-8.475538253784179688e+00 -3.779037952423095703e+00 1.898131966590881348e+00
-7.487855434417724609e+00 -3.673277378082275391e+00 1.624215602874755859e+00
-7.141999721527099609e+00 -3.832867622375488281e+00 1.499338150024414062e+00
-1.018790721893310547e+01 -4.099837779998779297e+00 1.940358042716979980e+00
-8.378819465637207031e+00 -3.732407569885253906e+00 1.528374552726745605e+00
-7.500537872314453125e+00 -3.677875041961669922e+00 1.311147212982177734e+00
-7.102660655975341797e+00 -3.805371522903442383e+00 1.188439965248107910e+00
-1.020614624023437500e+01 -4.105107784271240234e+00 1.532356858253479004e+00
-8.278501510620117188e+00 -3.684257268905639648e+00 1.173642396926879883e+00
-7.481635093688964844e+00 -3.660510540008544922e+00 1.000559806823730469e+00
-7.130991935729980469e+00 -3.815746068954467773e+00 8.943196535110473633e-01
-1.018969154357910156e+01 -4.094357967376708984e+00 1.125144124031066895e+00
-8.281275749206542969e+00 -3.682029485702514648e+00 8.423389196395874023e-01
-7.511503219604492188e+00 -3.671875000000000000e+00 6.976794600486755371e-01
-7.113818645477294922e+00 -3.801766872406005859e+00 5.965739488601684570e-01
-1.021396923065185547e+01 -4.099972248077392578e+00 7.252384424209594727e-01
-8.396287918090820312e+00 -3.729656696319580078e+00 5.184801220893859863e-01
-7.855507850646972656e+00 -3.836639165878295898e+00 4.107498824596405029e-01
-2.420819520950317383e+00 -1.292105197906494141e+00 1.030183136463165283e-01
-9.142305374145507812e+00 -3.667944908142089844e+00 2.923608422279357910e-01
-7.771369934082031250e+00 -3.790507793426513672e+00 9.205862134695053101e-02
-2.451210021972656250e+00 -1.307226896286010742e+00 3.393966471776366234e-03
-8.176826477050781250e+00 -3.961529254913330078e+00 2.478813886642456055e+00
-7.281815528869628906e+00 -3.866818904876708984e+00 2.167603969573974609e+00
-9.094808578491210938e+00 -3.992223501205444336e+00 2.415759325027465820e+00
-7.228026866912841797e+00 -3.830173254013061523e+00 1.828476667404174805e+00
-8.733641624450683594e+00 -3.830051422119140625e+00 1.950635194778442383e+00
-7.508485794067382812e+00 -3.626409769058227539e+00 1.623833298683166504e+00
-7.214063167572021484e+00 -3.814714193344116211e+00 1.509524226188659668e+00
-1.023118782043457031e+01 -4.044489383697509766e+00 1.943838000297546387e+00
-8.669899940490722656e+00 -3.798490524291992188e+00 1.577189207077026367e+00
-7.455349445343017578e+00 -3.599141836166381836e+00 1.299362897872924805e+00
-7.179244041442871094e+00 -3.789891004562377930e+00 1.197340488433837891e+00
-1.025601387023925781e+01 -4.052233695983886719e+00 1.536081910133361816e+00
-8.430867195129394531e+00 -3.690257310867309570e+00 1.192010760307312012e+00
-7.455651760101318359e+00 -3.591268539428710938e+00 9.941191673278808594e-01
-7.229884624481201172e+00 -3.811784982681274414e+00 9.037718176841735840e-01
-1.023775482177734375e+01 -4.040888309478759766e+00 1.127692222595214844e+00
-8.457891464233398438e+00 -3.698568344116210938e+00 8.579789400100708008e-01
-7.431524276733398438e+00 -3.576451301574707031e+00 6.881996393203735352e-01
-7.089361667633056641e+00 -3.732954978942871094e+00 5.925909280776977539e-01
-1.023336410522460938e+01 -4.035027027130126953e+00 7.248439192771911621e-01
-8.542528152465820312e+00 -3.732027769088745117e+00 5.260865688323974609e-01
-7.762769699096679688e+00 -3.732527732849121094e+00 4.046956002712249756e-01
-2.447275876998901367e+00 -1.286994695663452148e+00 1.038061529397964478e-01
-9.150689125061035156e+00 -3.606282234191894531e+00 2.919158339500427246e-01
-2.460955381393432617e+00 -1.293092250823974609e+00 3.396410029381513596e-03
-8.276738166809082031e+00 -3.947413444519042969e+00 2.501712322235107422e+00
-7.415949821472167969e+00 -3.879900932312011719e+00 2.200403928756713867e+00
-9.278820991516113281e+00 -4.005273818969726562e+00 2.458062171936035156e+00
-7.294648170471191406e+00 -3.808333396911621094e+00 1.839383840560913086e+00
-1.054993629455566406e+01 -4.549592494964599609e+00 2.350020408630371094e+00
-7.646723270416259766e+00 -3.635480880737304688e+00 1.648874044418334961e+00
-7.300995349884033203e+00 -3.803542852401733398e+00 1.522802352905273438e+00
-8.735621452331542969e+00 -3.763565301895141602e+00 1.584913969039916992e+00
-7.625411510467529297e+00 -3.623717308044433594e+00 1.325102210044860840e+00
-7.315585613250732422e+00 -3.804652929306030273e+00 1.216162919998168945e+00
-1.026960468292236328e+01 -3.984928131103515625e+00 1.534426331520080566e+00
-8.681081771850585938e+00 -3.736475706100463867e+00 1.224123120307922363e+00
-7.606733322143554688e+00 -3.606707096099853516e+00 1.011294126510620117e+00
-7.370450019836425781e+00 -3.828284740447998047e+00 9.183894991874694824e-01
-1.026421260833740234e+01 -3.978714227676391602e+00 1.127896070480346680e+00
-8.700874328613281250e+00 -3.741395235061645508e+00 8.802821040153503418e-01
-7.283872604370117188e+00 -3.778474330902099609e+00 6.069004535675048828e-01
-1.027095699310302734e+01 -3.977205038070678711e+00 7.257644534111022949e-01
-8.725801467895507812e+00 -3.748505592346191406e+00 5.359467864036560059e-01
-7.873105049133300781e+00 -3.726276397705078125e+00 4.092480242252349854e-01
-7.350295543670654297e+00 -3.808048009872436523e+00 3.107806742191314697e-01
-9.139086723327636719e+00 -3.537078857421875000e+00 2.908478677272796631e-01
-1.332385444641113281e+01 -6.297534942626953125e+00 1.569052934646606445e-01
-2.469731330871582031e+00 -1.278427481651306152e+00 3.397631691768765450e-03
-8.514763832092285156e+00 -3.996991395950317383e+00 2.566195964813232422e+00
-7.553093910217285156e+00 -3.892809629440307617e+00 2.233966827392578125e+00
-9.577819824218750000e+00 -4.064803600311279297e+00 2.530615329742431641e+00
-7.925739288330078125e+00 -3.715429067611694336e+00 2.040197849273681641e+00
-7.606879234313964844e+00 -3.912132501602172852e+00 1.912025570869445801e+00
-1.054608345031738281e+01 -4.471388816833496094e+00 2.343006610870361328e+00
-7.846694469451904297e+00 -3.671694755554199219e+00 1.687104344367980957e+00
-7.405555725097656250e+00 -3.800426006317138672e+00 1.539718270301818848e+00
-1.070976543426513672e+01 -4.082434654235839844e+00 2.025092124938964844e+00
-7.704773902893066406e+00 -3.603646993637084961e+00 1.335025668144226074e+00
-7.413633346557617188e+00 -3.798034906387329102e+00 1.228565335273742676e+00
-8.830795288085937500e+00 -3.736859798431396484e+00 1.241977572441101074e+00
-7.757380962371826172e+00 -3.620004892349243164e+00 1.028349876403808594e+00
-7.463704586029052734e+00 -3.818754196166992188e+00 9.270722270011901855e-01
-1.051900577545166016e+01 -4.003412723541259766e+00 1.153173327445983887e+00
-8.830053329467773438e+00 -3.732912063598632812e+00 8.910172581672668457e-01
-7.794584751129150391e+00 -3.634053468704223633e+00 7.176368832588195801e-01
-7.400165081024169922e+00 -3.781356811523437500e+00 6.146452426910400391e-01
-1.018068504333496094e+01 -4.299704551696777344e+00 6.236748695373535156e-01
-8.001763343811035156e+00 -3.727246046066284180e+00 4.147391021251678467e-01
-7.538190364837646484e+00 -3.846909284591674805e+00 3.177211284637451172e-01
-9.138193130493164062e+00 -3.472414493560791016e+00 2.901358902454376221e-01
-9.178417205810546875e+00 -3.872632503509521484e+00 2.017155736684799194e-01
-7.659761428833007812e+00 -3.905580282211303711e+00 1.050443667918443680e-02
-8.702904701232910156e+00 -4.020327568054199219e+00 2.615414381027221680e+00
-7.680322647094726562e+00 -3.898925781250000000e+00 2.264478445053100586e+00
-9.702121734619140625e+00 -4.047484397888183594e+00 2.556848049163818359e+00
-8.163280487060546875e+00 -3.765861511230468750e+00 2.095356702804565430e+00
-7.627258300781250000e+00 -3.863620042800903320e+00 1.911153078079223633e+00
-1.013743877410888672e+01 -4.224934101104736328e+00 2.246417045593261719e+00
-7.591088294982910156e+00 -3.836977481842041016e+00 1.573368430137634277e+00
-7.899043560028076172e+00 -3.635607719421386719e+00 1.364796280860900879e+00
-7.502157688140869141e+00 -3.785453319549560547e+00 1.239362716674804688e+00
-1.011992168426513672e+01 -4.209343910217285156e+00 1.419623255729675293e+00
-7.930127143859863281e+00 -3.641531229019165039e+00 1.048268079757690430e+00
-7.513623714447021484e+00 -3.786304473876953125e+00 9.303694367408752441e-01
-1.077075290679931641e+01 -4.023738861083984375e+00 1.178042888641357422e+00
-1.017133235931396484e+01 -4.226563930511474609e+00 1.023725867271423340e+00
-7.599610805511474609e+00 -3.824647188186645508e+00 6.292498111724853516e-01
-1.022439575195312500e+01 -4.244429111480712891e+00 6.247453689575195312e-01
-8.123459815979003906e+00 -3.723444938659667969e+00 4.198546707630157471e-01
-7.575938224792480469e+00 -3.807763576507568359e+00 3.183213472366333008e-01
-9.146215438842773438e+00 -3.411387920379638672e+00 2.897205650806427002e-01
-9.189077377319335938e+00 -3.810879707336425781e+00 2.014321535825729370e-01
-1.445846748352050781e+01 -6.617981433868408203e+00 1.692975908517837524e-01
-7.513787746429443359e+00 -3.773241043090820312e+00 1.027230732142925262e-02
-7.485245227813720703e+00 -3.742308139801025391e+00 2.200149774551391602e+00
-8.364483833312988281e+00 -3.796608686447143555e+00 2.140981674194335938e+00
-7.753868579864501953e+00 -3.868154287338256836e+00 1.936893939971923828e+00
-1.018674278259277344e+01 -4.172307014465332031e+00 2.251626968383789062e+00
-8.203195571899414062e+00 -3.716495990753173828e+00 1.753816246986389160e+00
-7.670827388763427734e+00 -3.818371295928955078e+00 1.585009574890136719e+00
-1.012534427642822266e+01 -4.143032073974609375e+00 1.822905898094177246e+00
-8.134487152099609375e+00 -3.683656215667724609e+00 1.401544451713562012e+00
-7.611180305480957031e+00 -3.782052516937255859e+00 1.253516077995300293e+00
-1.116408634185791016e+01 -4.097217082977294922e+00 1.656523704528808594e+00
-1.014280509948730469e+01 -4.146044254302978516e+00 1.419237852096557617e+00
-8.133282661437988281e+00 -3.674561023712158203e+00 1.072122097015380859e+00
-7.672935962677001953e+00 -3.807731151580810547e+00 9.471853375434875488e-01
-1.099698448181152344e+01 -4.031535625457763672e+00 1.200058579444885254e+00
-1.013807773590087891e+01 -4.139982700347900391e+00 1.017803072929382324e+00
-7.649742603302001953e+00 -3.791230678558349609e+00 6.314626932144165039e-01
-1.112948989868164062e+01 -4.075706005096435547e+00 7.809956669807434082e-01
-1.023268222808837891e+01 -4.174448013305664062e+00 6.236748695373535156e-01
-8.227196693420410156e+00 -3.710077047348022461e+00 4.240316450595855713e-01
-7.666329383850097656e+00 -3.794452428817749023e+00 3.211350440979003906e-01
-9.081556320190429688e+00 -3.323939561843872070e+00 2.870209217071533203e-01
-9.200250625610351562e+00 -3.749519586563110352e+00 2.011689692735671997e-01
-1.387515830993652344e+01 -6.248300552368164062e+00 1.620155125856399536e-01
-7.495565414428710938e+00 -3.706675767898559570e+00 1.021610852330923080e-02
-7.528023242950439453e+00 -3.706133842468261719e+00 2.205997943878173828e+00
-8.562808990478515625e+00 -3.823437690734863281e+00 2.185699224472045898e+00
-7.463871479034423828e+00 -3.666462421417236328e+00 1.858798742294311523e+00
-1.023669147491455078e+01 -4.119599342346191406e+00 2.257037639617919922e+00
-8.436534881591796875e+00 -3.759992361068725586e+00 1.798737049102783203e+00
-7.487499237060546875e+00 -3.669961929321289062e+00 1.542446732521057129e+00
-1.019358921051025391e+01 -4.098119735717773438e+00 1.830630660057067871e+00
-8.385248184204101562e+00 -3.735380649566650391e+00 1.440773367881774902e+00
-7.503613948822021484e+00 -3.671365737915039062e+00 1.232067108154296875e+00
-1.016345214843750000e+01 -4.081882953643798828e+00 1.418595552444458008e+00
-8.348930358886718750e+00 -3.710474014282226562e+00 1.097526788711547852e+00
-7.527372837066650391e+00 -3.678106784820556641e+00 9.264128208160400391e-01
-1.134259319305419922e+01 -4.079462051391601562e+00 1.235018730163574219e+00
-1.024091529846191406e+01 -4.108843326568603516e+00 1.025576829910278320e+00
-8.333768844604492188e+00 -3.700252771377563477e+00 7.608780860900878906e-01
-7.493608951568603516e+00 -3.656749486923217773e+00 6.167105436325073242e-01
-1.142755889892578125e+01 -4.105516433715820312e+00 8.001293540000915527e-01
-1.023493480682373047e+01 -4.102296829223632812e+00 6.222662329673767090e-01
-8.417816162109375000e+00 -3.734053134918212891e+00 4.326671659946441650e-01
-7.871822834014892578e+00 -3.836209535598754883e+00 3.287507295608520508e-01
-9.094255447387695312e+00 -3.265451431274414062e+00 2.867836058139801025e-01
-9.198951721191406250e+00 -3.683334589004516602e+00 2.006426155567169189e-01
-1.499937915802001953e+01 -6.644167423248291016e+00 1.746633201837539673e-01
-7.329359531402587891e+00 -3.568682909011840820e+00 9.959544986486434937e-03
-7.701180934906005859e+00 -3.732850790023803711e+00 2.249985456466674805e+00
-9.047113418579101562e+00 -3.973288536071777344e+00 2.303053617477416992e+00
-7.595169067382812500e+00 -3.673283815383911133e+00 1.885848402976989746e+00
-1.030186462402343750e+01 -4.072558403015136719e+00 2.265855073928833008e+00
-8.737233161926269531e+00 -3.829922199249267578e+00 1.857802867889404297e+00
-7.512533664703369141e+00 -3.625232458114624023e+00 1.542992472648620605e+00
-1.024239635467529297e+01 -4.044916152954101562e+00 1.834904074668884277e+00
-8.552787780761718750e+00 -3.747292280197143555e+00 1.465582251548767090e+00
-7.429741382598876953e+00 -3.578887701034545898e+00 1.216308832168579102e+00
-1.024919319152832031e+01 -4.043465137481689453e+00 1.427073240280151367e+00
-8.492536544799804688e+00 -3.712063312530517578e+00 1.113389611244201660e+00
-7.485309600830078125e+00 -3.600827217102050781e+00 9.184994101524353027e-01
-1.021683597564697266e+01 -4.026578903198242188e+00 1.020671963691711426e+00
-8.449468612670898438e+00 -3.689726114273071289e+00 7.693600058555603027e-01
-7.480847358703613281e+00 -3.593858718872070312e+00 6.138339042663574219e-01
-1.186568832397460938e+01 -4.180896282196044922e+00 8.289942741394042969e-01
-1.027106189727783203e+01 -4.043807983398437500e+00 6.229423880577087402e-01
-8.637413978576660156e+00 -3.768208980560302734e+00 4.427575469017028809e-01
-7.939360618591308594e+00 -3.809016942977905273e+00 3.305889964103698730e-01
-9.063209533691406250e+00 -3.191659927368164062e+00 2.851816415786743164e-01
-9.116242408752441406e+00 -3.585470438003540039e+00 1.983549892902374268e-01
-7.349315166473388672e+00 -3.522779226303100586e+00 9.957101196050643921e-03
-8.143787384033203125e+00 -3.885859489440917969e+00 2.372286796569824219e+00
-9.308252334594726562e+00 -4.020026683807373047e+00 2.363206148147583008e+00
-7.727709293365478516e+00 -3.679049491882324219e+00 1.913116335868835449e+00
-8.765075683593750000e+00 -3.778182029724121094e+00 1.858758687973022461e+00
-7.596810340881347656e+00 -3.608601808547973633e+00 1.555724859237670898e+00
-8.730764389038085938e+00 -3.761585712432861328e+00 1.492096543312072754e+00
-7.617826938629150391e+00 -3.612068891525268555e+00 1.243448138236999512e+00
-1.027473449707031250e+01 -3.980859279632568359e+00 1.427201628684997559e+00
-8.724953651428222656e+00 -3.750058174133300781e+00 1.140821933746337891e+00
-7.580924987792968750e+00 -3.589710950851440430e+00 9.275118112564086914e-01
-1.025899314880371094e+01 -3.970642328262329102e+00 1.022430300712585449e+00
-8.729257583618164062e+00 -3.748298406600952148e+00 7.927268147468566895e-01
-1.170720577239990234e+01 -4.044475078582763672e+00 8.161727190017700195e-01
-1.031896114349365234e+01 -3.989711046218872070e+00 6.243509650230407715e-01
-8.880692481994628906e+00 -3.809652805328369141e+00 4.540212750434875488e-01
-8.259870529174804688e+00 -3.900620222091674805e+00 3.429317176342010498e-01
-9.078842163085937500e+00 -3.134683847427368164e+00 2.850629389286041260e-01
-9.128744125366210938e+00 -3.525864362716674805e+00 1.981525421142578125e-01
-7.184487342834472656e+00 -3.389717578887939453e+00 9.705425240099430084e-03
-8.429221153259277344e+00 -3.958743810653686523e+00 2.448311805725097656e+00
-9.482447624206542969e+00 -4.026402950286865234e+00 2.401113748550415039e+00
-7.864136219024658203e+00 -3.684981346130371094e+00 1.941256761550903320e+00
-1.011932086944580078e+01 -4.288494110107421875e+00 2.140325069427490234e+00
-7.845066547393798828e+00 -3.667699575424194336e+00 1.601925492286682129e+00
-1.080379772186279297e+01 -4.114095211029052734e+00 1.926287651062011719e+00
-7.747424602508544922e+00 -3.615461826324462891e+00 1.260957360267639160e+00
-8.747799873352050781e+00 -3.696452379226684570e+00 1.140821933746337891e+00
-7.755963325500488281e+00 -3.614502429962158203e+00 9.461961984634399414e-01
-9.947926521301269531e+00 -3.372388839721679688e+00 1.076220393180847168e+00
-1.050654888153076172e+01 -3.992506265640258789e+00 1.044640898704528809e+00
-9.029353141784667969e+00 -3.811711072921752930e+00 8.178399205207824707e-01
-7.832703113555908203e+00 -3.645274639129638672e+00 6.389861702919006348e-01
-9.874636650085449219e+00 -3.343700885772705078e+00 6.869711279869079590e-01
-1.054860019683837891e+01 -4.004272460937500000e+00 6.367467641830444336e-01
-9.712006568908691406e+00 -4.095897197723388672e+00 4.952276349067687988e-01
-8.520168304443359375e+00 -3.959789037704467773e+00 3.527233302593231201e-01
-9.123470306396484375e+00 -3.087569713592529297e+00 2.858639359474182129e-01
-9.113747596740722656e+00 -3.455960035324096680e+00 1.973630189895629883e-01
-9.180594444274902344e+00 -3.866121053695678711e+00 1.060585230588912964e-01
-7.931653022766113281e+00 -3.682907581329345703e+00 1.068403106182813644e-02
-8.550800323486328125e+00 -3.951986551284790039e+00 2.476535081863403320e+00
-9.641787528991699219e+00 -4.024414062500000000e+00 2.435162544250488281e+00
-1.019165420532226562e+01 -4.245572090148925781e+00 2.150073528289794922e+00
-8.008566856384277344e+00 -3.684428930282592773e+00 1.630664467811584473e+00
-7.900722026824951172e+00 -3.628132581710815430e+00 1.282260298728942871e+00
-1.001762485504150391e+01 -3.331510066986083984e+00 1.470549345016479492e+00
-1.008609294891357422e+01 -4.189208507537841797e+00 1.311975002288818359e+00
-7.920744419097900391e+00 -3.632306575775146484e+00 9.635615944862365723e-01
-1.012420368194580078e+01 -3.363029956817626953e+00 1.093037962913513184e+00
-1.080699443817138672e+01 -4.030965328216552734e+00 1.072034120559692383e+00
-7.866710662841796875e+00 -3.602543592453002930e+00 6.399450898170471191e-01
-1.013646888732910156e+01 -3.363176107406616211e+00 7.037377357482910156e-01
-1.000640296936035156e+01 -4.147921085357666016e+00 5.089318752288818359e-01
-8.558844566345214844e+00 -3.914085149765014648e+00 3.533235490322113037e-01
-9.427819252014160156e+00 -3.126226902008056641e+00 2.947934865951538086e-01
-9.127285003662109375e+00 -3.397183895111083984e+00 1.972010582685470581e-01
-9.194904327392578125e+00 -3.805892944335937500e+00 1.059520542621612549e-01
-8.007765769958496094e+00 -3.658689260482788086e+00 1.075611356645822525e-02
-8.772973060607910156e+00 -3.989524841308593750e+00 2.533744573593139648e+00
-9.836595535278320312e+00 -4.035033702850341797e+00 2.478063821792602539e+00
-8.366457939147949219e+00 -3.795854091644287109e+00 2.053600549697875977e+00
-1.020116138458251953e+01 -4.176263809204101562e+00 2.146632909774780273e+00
-8.185104370117187500e+00 -3.704964160919189453e+00 1.661949872970581055e+00
-1.011697769165039062e+01 -4.139737606048583984e+00 1.715686321258544922e+00
-8.093228340148925781e+00 -3.656571149826049805e+00 1.309837341308593750e+00
-1.008025646209716797e+01 -3.283785581588745117e+00 1.476757645606994629e+00
-1.121505451202392578e+01 -4.109399318695068359e+00 1.547044992446899414e+00
-1.013183021545410156e+01 -4.135497093200683594e+00 1.314598917961120605e+00
-8.076065063476562500e+00 -3.643725872039794922e+00 9.797180891036987305e-01
-1.101479244232177734e+01 -4.031659126281738281e+00 1.090172767639160156e+00
-1.021045780181884766e+01 -4.163432598114013672e+00 9.201219677925109863e-01
-8.310560226440429688e+00 -3.744288444519042969e+00 6.741698980331420898e-01
-1.031196689605712891e+01 -4.200626850128173828e+00 5.231522321701049805e-01
-8.623708724975585938e+00 -3.879945993423461914e+00 3.550117611885070801e-01
-9.572312355041503906e+00 -3.109078645706176758e+00 2.987094223499298096e-01
-9.104759216308593750e+00 -3.325338363647460938e+00 1.962698251008987427e-01
-9.165287017822265625e+00 -3.727927684783935547e+00 1.053452193737030029e-01
-8.097558021545410156e+00 -3.639824151992797852e+00 1.084652077406644821e-02
-8.990624427795410156e+00 -4.022112369537353516e+00 2.589428424835205078e+00
-8.582086563110351562e+00 -3.830361366271972656e+00 2.100719451904296875e+00
-1.025027179718017578e+01 -4.123115539550781250e+00 2.151602983474731445e+00
-8.388239860534667969e+00 -3.735068798065185547e+00 1.698510289192199707e+00
-1.017426872253417969e+01 -4.090480804443359375e+00 1.721113204956054688e+00
-8.211339950561523438e+00 -3.649432659149169922e+00 1.325303912162780762e+00
-1.021691417694091797e+01 -4.097272872924804688e+00 1.322351574897766113e+00
-8.369000434875488281e+00 -3.714256525039672852e+00 1.012470602989196777e+00
-1.128485012054443359e+01 -4.052161693572998047e+00 1.114419460296630859e+00
-1.022841072082519531e+01 -4.097739219665527344e+00 9.194566607475280762e-01
-1.132723712921142578e+01 -4.062918663024902344e+00 6.791176199913024902e-01
-1.025130081176757812e+01 -4.102757453918457031e+00 5.187876224517822266e-01
-8.916013717651367188e+00 -3.945856571197509766e+00 3.660414218902587891e-01
-9.524531364440917969e+00 -3.029079914093017578e+00 2.966327965259552002e-01
-9.096755981445312500e+00 -3.259293317794799805e+00 1.956624984741210938e-01
-9.137846946716308594e+00 -3.651583194732666016e+00 1.047703176736831665e-01
-8.299914360046386719e+00 -3.669732570648193359e+00 1.108720246702432632e-02
-8.717128753662109375e+00 -3.826665401458740234e+00 2.127987384796142578e+00
-1.026898765563964844e+01 -4.057618618011474609e+00 2.150264978408813477e+00
-8.681219100952148438e+00 -3.801869392395019531e+00 1.753077983856201172e+00
-1.023868656158447266e+01 -4.043579578399658203e+00 1.727780580520629883e+00
-8.542688369750976562e+00 -3.734095573425292969e+00 1.375059366226196289e+00
-1.124499702453613281e+01 -3.964539051055908203e+00 1.544347643852233887e+00
-1.025387096405029297e+01 -4.039236068725585938e+00 1.323902010917663574e+00
-8.523719787597656250e+00 -3.720489501953125000e+00 1.028407216072082520e+00
-1.155274677276611328e+01 -4.068505764007568359e+00 1.138388395309448242e+00
-1.023945236206054688e+01 -4.029428005218505859e+00 9.182093739509582520e-01
-1.170608425140380859e+01 -4.117914199829101562e+00 7.003030776977539062e-01
-1.027535247802734375e+01 -4.039413928985595703e+00 5.187406539916992188e-01
-9.718545913696289062e+00 -3.025245428085327148e+00 3.020913898944854736e-01
-9.106206893920898438e+00 -3.199769258499145508e+00 1.954398006200790405e-01
-9.173111915588378906e+00 -3.600560665130615234e+00 1.049193665385246277e-01
-8.343367576599121094e+00 -3.627907514572143555e+00 1.111530140042304993e-02
-9.481433868408203125e+00 -4.092978954315185547e+00 2.308392047882080078e+00
-1.042820739746093750e+01 -4.046732902526855469e+00 2.178364276885986328e+00
-8.723348617553710938e+00 -3.756698369979858398e+00 1.756897687911987305e+00
-1.027527809143066406e+01 -3.985324144363403320e+00 1.729796290397644043e+00
-8.690867424011230469e+00 -3.735519647598266602e+00 1.395195007324218750e+00
-1.027938842773437500e+01 -3.976602077484130859e+00 1.324021339416503906e+00
-8.698920249938964844e+00 -3.733585834503173828e+00 1.046761751174926758e+00
-1.028071498870849609e+01 -3.972990036010742188e+00 9.197061657905578613e-01
-1.192650890350341797e+01 -4.113394260406494141e+00 7.119663357734680176e-01
-1.033442306518554688e+01 -3.989599943161010742e+00 5.204771161079406738e-01
-1.059367561340332031e+01 -3.226495265960693359e+00 3.286723196506500244e-01
-9.102037429809570312e+00 -3.135693311691284180e+00 1.949336826801300049e-01
-9.117589950561523438e+00 -3.514358043670654297e+00 1.040357202291488647e-01
-8.365470886230468750e+00 -3.576645374298095703e+00 1.111530140042304993e-02
-9.537811279296875000e+00 -4.048069953918457031e+00 2.316026926040649414e+00
-1.008965206146240234e+01 -4.263592243194580078e+00 1.615519642829895020e+00
-1.041497516632080078e+01 -3.955757856369018555e+00 1.338333845138549805e+00
-9.935240745544433594e+00 -3.362410306930541992e+00 9.748624563217163086e-01
-1.049776649475097656e+01 -3.983010768890380859e+00 9.369194507598876953e-01
-9.891502380371093750e+00 -3.343760013580322266e+00 5.892484784126281738e-01
-1.063145351409912109e+01 -4.029489040374755859e+00 5.341813564300537109e-01
-9.384125709533691406e+00 -3.948096275329589844e+00 3.822107315063476562e-01
-9.840196609497070312e+00 -2.931152582168579102e+00 3.047316670417785645e-01
-9.135313987731933594e+00 -3.084582567214965820e+00 1.952373385429382324e-01
-9.126825332641601562e+00 -3.453746795654296875e+00 1.038973182439804077e-01
-8.363289833068847656e+00 -3.515174150466918945e+00 1.108353678137063980e-02
-9.719187736511230469e+00 -4.054853439331054688e+00 2.353983879089355469e+00
-1.008697032928466797e+01 -4.197961330413818359e+00 2.021005392074584961e+00
-1.095821380615234375e+01 -4.096222877502441406e+00 1.836164355278015137e+00
-1.010100460052490234e+01 -4.195531368255615234e+00 1.613185048103332520e+00
-1.001344394683837891e+01 -3.324419021606445312e+00 1.366573572158813477e+00
-1.010472106933593750e+01 -4.190872669219970703e+00 1.209645152091979980e+00
-1.013147354125976562e+01 -3.359678268432617188e+00 9.920756816864013672e-01
-1.082925415039062500e+01 -4.032945156097412109e+00 9.642778635025024414e-01
-1.027626228332519531e+01 -4.255713939666748047e+00 8.226495981216430664e-01
-1.013930034637451172e+01 -3.358345746994018555e+00 6.027711629867553711e-01
-1.089564800262451172e+01 -4.053340435028076172e+00 5.461959242820739746e-01
-9.666741371154785156e+00 -3.997364044189453125e+00 3.927151262760162354e-01
-9.305941581726074219e+00 -3.078715801239013672e+00 1.984764635562896729e-01
-9.117848396301269531e+00 -3.386539220809936523e+00 1.035566329956054688e-01
-8.445701599121093750e+00 -3.488991260528564453e+00 1.116417068988084793e-02
-9.840502738952636719e+00 -4.034755706787109375e+00 2.377325296401977539e+00
-1.011344909667968750e+01 -4.136362552642822266e+00 2.021187305450439453e+00
-1.012930583953857422e+01 -4.134595394134521484e+00 1.613622903823852539e+00
-1.120494270324707031e+01 -4.099179744720458984e+00 1.433272957801818848e+00
-1.013024616241455078e+01 -4.128792285919189453e+00 1.209645152091979980e+00
-1.102695465087890625e+01 -4.029701232910156250e+00 9.796616435050964355e-01
-1.091562271118164062e+01 -3.984697103500366211e+00 5.459612607955932617e-01
-9.816067695617675781e+00 -3.988760709762573242e+00 3.977797627449035645e-01
-9.360797882080078125e+00 -3.033268928527832031e+00 1.992457360029220581e-01
-9.107453346252441406e+00 -3.319230318069458008e+00 1.032053083181381226e-01
-7.657132148742675781e+00 -3.108363151550292969e+00 1.009637769311666489e-02
-1.001715087890625000e+01 -4.035566329956054688e+00 2.413973331451416016e+00
-1.014046382904052734e+01 -4.074963092803955078e+00 2.021550893783569336e+00
-1.018937587738037109e+01 -4.086358070373535156e+00 1.619167327880859375e+00
-1.015815734863281250e+01 -4.067665100097656250e+00 1.209974884986877441e+00
-1.127285957336425781e+01 -4.041332244873046875e+00 9.992865324020385742e-01
-1.024437236785888672e+01 -4.095966339111328125e+00 8.160111308097839355e-01
-1.132919979095458984e+01 -4.057068347930908203e+00 5.653911828994750977e-01
-1.008444023132324219e+01 -4.025897979736328125e+00 4.076463878154754639e-01
-9.603184700012207031e+00 -3.046828508377075195e+00 2.040031999349594116e-01
-9.073977470397949219e+00 -3.244097471237182617e+00 1.025984659790992737e-01
-8.504599571228027344e+00 -3.391754627227783203e+00 1.118616200983524323e-02
-1.022655773162841797e+01 -4.036855697631835938e+00 2.033737897872924805e+00
-1.023450756072998047e+01 -4.031737804412841797e+00 1.622377395629882812e+00
-1.124503803253173828e+01 -3.958072900772094727e+00 1.432080388069152832e+00
-1.025137138366699219e+01 -4.032181739807128906e+00 1.218108057975769043e+00
-1.156443881988525391e+01 -4.065960407257080078e+00 1.022902846336364746e+00
-1.027952289581298828e+01 -4.037040710449218750e+00 8.168224692344665527e-01
-1.154142951965332031e+01 -4.053344726562500000e+00 5.747306346893310547e-01
-1.019733428955078125e+01 -3.998601436614990234e+00 4.112104177474975586e-01
-1.059370326995849609e+01 -3.289685726165771484e+00 2.246120274066925049e-01
-9.075783729553222656e+00 -3.182073593139648438e+00 1.023961827158927917e-01
-8.208673477172851562e+00 -3.215497732162475586e+00 1.077077351510524750e-02
-1.053077030181884766e+01 -4.082436084747314453e+00 2.089215040206909180e+00
-1.026735687255859375e+01 -3.972076654434204102e+00 1.623690605163574219e+00
-1.028426456451416016e+01 -3.972428083419799805e+00 1.219097256660461426e+00
-1.033015346527099609e+01 -3.983938455581665039e+00 8.188877701759338379e-01
-1.178614807128906250e+01 -4.058224201202392578e+00 5.856658816337585449e-01
-1.021794700622558594e+01 -3.934520244598388672e+00 4.110603630542755127e-01
-1.052281093597412109e+01 -3.197011709213256836e+00 2.226888239383697510e-01
-9.045964241027832031e+00 -3.109423160552978516e+00 1.018425747752189636e-01
-8.582914352416992188e+00 -3.301495313644409180e+00 1.123503036797046661e-02
-9.983566284179687500e+00 -3.376944541931152344e+00 1.266055941581726074e+00
-1.052033901214599609e+01 -3.989606142044067383e+00 1.244156241416931152e+00
-9.942393302917480469e+00 -3.359150886535644531e+00 8.757165670394897461e-01
-1.056611824035644531e+01 -4.000639915466308594e+00 8.356313705444335938e-01
-9.912235260009765625e+00 -3.345106840133666992e+00 4.915200173854827881e-01
-1.067935180664062500e+01 -4.037121772766113281e+00 4.286177158355712891e-01
-9.955697059631347656e+00 -2.958110094070434570e+00 2.102992087602615356e-01
-9.219334602355957031e+00 -3.105895996093750000e+00 1.035779267549514771e-01
-8.704981803894042969e+00 -3.287276983261108398e+00 1.136819925159215927e-02
-1.104670810699462891e+01 -4.118455886840820312e+00 1.738813996315002441e+00
-1.008137893676757812e+01 -3.341235876083374023e+00 1.275836110115051270e+00
-1.075514030456542969e+01 -4.003340244293212891e+00 1.268995404243469238e+00
-1.009904861450195312e+01 -3.343179941177368164e+00 8.876910805702209473e-01
-1.082884311676025391e+01 -4.024320125579833984e+00 8.544402718544006348e-01
-1.023606109619140625e+01 -3.384572267532348633e+00 5.065382719039916992e-01
-1.074046134948730469e+01 -3.985075712203979492e+00 4.300808608531951904e-01
-1.070910739898681641e+01 -3.110586643218994141e+00 2.258064448833465576e-01
-9.293292999267578125e+00 -3.067447185516357422e+00 1.041954159736633301e-01
-8.842196464538574219e+00 -3.277244091033935547e+00 1.152091566473245621e-02
-1.115761470794677734e+01 -4.075380325317382812e+00 1.313508033752441406e+00
-1.106226634979248047e+01 -4.033989906311035156e+00 8.708888292312622070e-01
-1.121261501312255859e+01 -4.082166194915771484e+00 4.479758739471435547e-01
-9.363318443298339844e+00 -3.026976585388183594e+00 1.047703176736831665e-01
-8.644110679626464844e+00 -3.143636226654052734e+00 1.123747508972883224e-02
-1.128065872192382812e+01 -4.042045593261718750e+00 1.325048327445983887e+00
-1.122672176361083984e+01 -4.016087055206298828e+00 8.818791508674621582e-01
-1.133344173431396484e+01 -4.047571659088134766e+00 4.518024623394012451e-01
-9.641020774841308594e+00 -3.051542043685913086e+00 1.076661124825477600e-01
-8.596364021301269531e+00 -3.066681861877441406e+00 1.115073263645172119e-02
-1.126714992523193359e+01 -3.952738285064697266e+00 8.831330537796020508e-01
-1.152028083801269531e+01 -4.034768104553222656e+00 4.582551717758178711e-01
-1.056792259216308594e+01 -3.273718833923339844e+00 1.177907437086105347e-01
-8.525348663330078125e+00 -2.982507228851318359e+00 1.103466749191284180e-02
-1.112642860412597656e+01 -3.833376884460449219e+00 1.301308274269104004e+00
-1.057601928710937500e+01 -3.211287260055541992e+00 5.193038582801818848e-01
-1.060312271118164062e+01 -3.213454246520996094e+00 1.179610937833786011e-01
-8.557677268981933594e+00 -2.935006856918334961e+00 1.105299405753612518e-02
-9.857727050781250000e+00 -3.328748226165771484e+00 1.150514721870422363e+00
-9.938848495483398438e+00 -3.350344896316528320e+00 7.757379412651062012e-01
-9.799782752990722656e+00 -2.910038709640502930e+00 4.803032279014587402e-01
-9.958842277526855469e+00 -3.351279020309448242e+00 3.944783806800842285e-01
-9.900722503662109375e+00 -2.934372425079345703e+00 1.099444255232810974e-01
-8.553722381591796875e+00 -2.875114440917968750e+00 1.102489326149225235e-02
-1.019597148895263672e+01 -3.373414039611816406e+00 1.187553644180297852e+00
-1.015334606170654297e+01 -3.353414058685302734e+00 7.908588051795959473e-01
-1.041198348999023438e+01 -3.432790517807006836e+00 4.115855693817138672e-01
-1.066865062713623047e+01 -3.090886831283569336e+00 1.182591915130615234e-01
-8.739321708679199219e+00 -2.877938747406005859e+00 1.124113984405994415e-02
-8.781560897827148438e+00 -2.832241773605346680e+00 1.127290446311235428e-02
-8.810216903686523438e+00 -2.781919240951538086e+00 1.128756534308195114e-02
-8.835719108581542969e+00 -2.730465412139892578e+00 1.129856053739786148e-02
-1.058491039276123047e+01 -3.204026937484741211e+00 4.151870906352996826e-01
-9.232320785522460938e+00 -2.791083574295043945e+00 1.178358774632215500e-02
-9.845479011535644531e+00 -2.914377689361572266e+00 3.854745924472808838e-01
-7.901919364929199219e+00 -2.336061716079711914e+00 1.006705779582262039e-02
-8.561689376831054688e+00 -2.474088430404663086e+00 1.088806055486202240e-02
-9.486155509948730469e+00 -2.678277254104614258e+00 1.204259507358074188e-02
-8.947131156921386719e+00 -2.466918230056762695e+00 1.133887749165296555e-02
-9.148467063903808594e+00 -2.462130546569824219e+00 1.157467160373926163e-02
-9.295910835266113281e+00 -2.440741777420043945e+00 1.174204889684915543e-02
-9.222556114196777344e+00 -2.361088037490844727e+00 1.163087226450443268e-02
-9.339716911315917969e+00 -2.330113887786865234e+00 1.176037546247243881e-02
-9.213910102844238281e+00 -2.238763332366943359e+00 1.158444583415985107e-02
-8.967639923095703125e+00 -2.120738267898559570e+00 1.125824358314275742e-02
-9.242638587951660156e+00 -2.125974178314208984e+00 1.158688962459564209e-02
-9.639040946960449219e+00 -2.154967308044433594e+00 1.206703018397092819e-02
-9.634491920471191406e+00 -2.091963291168212891e+00 1.204503793269395828e-02
-9.593328475952148438e+00 -2.021467447280883789e+00 1.197784394025802612e-02
-9.745656967163085938e+00 -1.991191625595092773e+00 1.215255074203014374e-02
-9.820473670959472656e+00 -1.943782448768615723e+00 1.223074179142713547e-02
-1.002962589263916016e+01 -1.921305179595947266e+00 1.247630920261144638e-02
-1.002549266815185547e+01 -1.856814384460449219e+00 1.245676074177026749e-02
-9.994369506835937500e+00 -1.787693023681640625e+00 1.240422762930393219e-02
-1.002091789245605469e+01 -1.729055643081665039e+00 1.242377515882253647e-02
-1.002344608306884766e+01 -1.666223883628845215e+00 1.241400092840194702e-02
-1.003940582275390625e+01 -1.605637550354003906e+00 1.242133136838674545e-02
-1.363821983337402344e+01 -1.096107244491577148e+00 2.770451307296752930e-01
-1.006982517242431641e+01 -1.547195792198181152e+00 1.244698744267225266e-02
-1.075352096557617188e+01 -4.081159532070159912e-01 3.193868100643157959e-01
-1.024731254577636719e+01 -1.510164856910705566e+00 1.265468169003725052e-02
-1.007518100738525391e+01 -1.421690583229064941e+00 1.243110466748476028e-02
-1.019768333435058594e+01 -1.375213027000427246e+00 1.257160492241382599e-02
-1.029916191101074219e+01 -1.324606060981750488e+00 1.268644724041223526e-02
-1.356731605529785156e+01 -1.164843797683715820e+00 1.449814289808273315e-01
-1.010857582092285156e+01 -1.237091779708862305e+00 1.244209986180067062e-02
-1.358317947387695312e+01 -1.082289218902587891e+00 1.450772434473037720e-01
-1.056694412231445312e+01 -1.227426648139953613e+00 1.299676578491926193e-02
-6.512128829956054688e+00 -7.281224243342876434e-03 1.932755857706069946e-01
-1.070837211608886719e+01 -3.990330100059509277e-01 2.169798761606216431e-01
-1.048680305480957031e+01 -1.152948975563049316e+00 1.288925390690565109e-02
-6.503055095672607422e+00 3.263144567608833313e-02 1.930086016654968262e-01
-1.016743087768554688e+01 -1.054737329483032227e+00 1.248852629214525223e-02
-6.484741210937500000e+00 7.233215123414993286e-02 1.924746036529541016e-01
-1.043745994567871094e+01 -1.018056988716125488e+00 1.281228475272655487e-02
-1.044948482513427734e+01 -9.545406103134155273e-01 1.281961519271135330e-02
-1.057869815826416016e+01 -9.009280800819396973e-01 1.297110971063375473e-02
-1.071661758422851562e+01 -4.578254520893096924e-01 1.142029389739036560e-01
-1.041555213928222656e+01 -8.226941227912902832e-01 1.276463828980922699e-02
-6.516663551330566406e+00 -2.807888202369213104e-03 1.319532394409179688e-01
-1.069724178314208984e+01 -3.912568390369415283e-01 1.139687299728393555e-01
-1.136590003967285156e+01 -8.276170492172241211e-01 1.392283849418163300e-02
-6.517558574676513672e+00 3.718336671590805054e-02 1.319734901189804077e-01
-1.069044494628906250e+01 -3.253386616706848145e-01 1.138729006052017212e-01
