-1.835257649421691895e+00 -2.642557621002197266e+00 6.514660269021987915e-02
-3.947176218032836914e+00 -6.663688182830810547e+00 9.462300688028335571e-03
-1.872076749801635742e+00 -2.662553548812866211e+00 1.836823672056198120e-01
-1.836478710174560547e+00 -2.609987497329711914e+00 6.462024152278900146e-02
-4.004981517791748047e+00 -6.667632579803466797e+00 9.502617642283439636e-03
-1.898805141448974609e+00 -2.665653944015502930e+00 1.846965551376342773e-01
-1.855360507965087891e+00 -2.602740764617919922e+00 6.472146511077880859e-02
-4.050499439239501953e+00 -6.650619506835937500e+00 9.513612836599349976e-03
-1.902856707572937012e+00 -2.636950731277465820e+00 1.835133284330368042e-01
-1.901147365570068359e+00 -2.632645130157470703e+00 6.575392931699752808e-02
-4.048148632049560547e+00 -6.555870532989501953e+00 9.413431398570537567e-03
-1.876535177230834961e+00 -2.565251588821411133e+00 6.435706466436386108e-02
-4.099971294403076172e+00 -6.549555301666259766e+00 9.440309368073940277e-03
-1.833552122116088867e+00 -2.671048164367675781e+00 3.449403867125511169e-02
-4.141689300537109375e+00 -6.526808738708496094e+00 9.443975053727626801e-03
-1.881917357444763184e+00 -2.708796024322509766e+00 1.549698263406753540e-01
-1.852190613746643066e+00 -2.663031101226806641e+00 3.453662246465682983e-02
-4.176249027252197266e+00 -6.492862224578857422e+00 9.431757032871246338e-03
-1.895053148269653320e+00 -2.692296981811523438e+00 1.546882539987564087e-01
-1.863887906074523926e+00 -2.645076751708984375e+00 3.445145115256309509e-02
-4.200172901153564453e+00 -6.442821502685546875e+00 9.396327659487724304e-03
-1.905157566070556641e+00 -2.671672105789184570e+00 1.541719883680343628e-01
-1.877177834510803223e+00 -2.629521369934082031e+00 3.439822047948837280e-02
-4.165207862854003906e+00 -6.304292201995849609e+00 9.231393225491046906e-03
-1.919175028800964355e+00 -2.656692981719970703e+00 1.539842635393142700e-01
-1.912613987922668457e+00 -2.644692420959472656e+00 3.474954888224601746e-02
-4.325653553009033203e+00 -6.460593223571777344e+00 9.498952887952327728e-03
-1.934123873710632324e+00 -2.640166759490966797e+00 3.484536707401275635e-02
-4.240573406219482422e+00 -6.250221252441406250e+00 9.227728471159934998e-03
-1.840021967887878418e+00 -2.676529169082641602e+00 3.968179691582918167e-03
-1.862167000770568848e+00 -2.675444364547729492e+00 1.223764568567276001e-01
-1.863268852233886719e+00 -2.675035476684570312e+00 3.982840571552515030e-03
-1.876244664192199707e+00 -2.660701274871826172e+00 1.222263947129249573e-01
-1.866962790489196777e+00 -2.645577430725097656e+00 3.955962602049112320e-03
-1.887307047843933105e+00 -2.641820669174194336e+00 1.218887493014335632e-01
-1.900026440620422363e+00 -2.657663345336914062e+00 3.991392906755208969e-03
-1.908168435096740723e+00 -2.636667013168334961e+00 1.221888810396194458e-01
-1.910432219505310059e+00 -2.637855768203735352e+00 3.979175351560115814e-03
-1.919483542442321777e+00 -2.616408348083496094e+00 3.964514471590518951e-03
-4.612398147583007812e+00 -6.206850051879882812e+00 9.447639808058738708e-03
-4.652801513671875000e+00 -6.181628227233886719e+00 9.452526457607746124e-03
-4.698524951934814453e+00 -6.163300991058349609e+00 9.468409232795238495e-03
-4.737475872039794922e+00 -6.135938644409179688e+00 9.470853023231029510e-03
-4.925333976745605469e+00 -6.298968791961669922e+00 9.768954478204250336e-03
-4.957683086395263672e+00 -6.260789394378662109e+00 9.756737388670444489e-03
-5.006015300750732422e+00 -6.242734432220458984e+00 9.776285849511623383e-03
-5.032248020172119141e+00 -6.197150707244873047e+00 9.753072634339332581e-03
-5.028260231018066406e+00 -6.115177631378173828e+00 9.672437794506549835e-03
-5.102159500122070312e+00 -6.128014087677001953e+00 9.742076508700847626e-03
-5.149332046508789062e+00 -6.108060836791992188e+00 9.760403074324131012e-03
-5.212682723999023438e+00 -6.106773853302001953e+00 9.809272363781929016e-03
-5.323290824890136719e+00 -6.159412860870361328e+00 9.946106001734733582e-03
-4.957971572875976562e+00 -5.666063785552978516e+00 9.198406711220741272e-03
-5.090123653411865234e+00 -5.745566844940185547e+00 9.378001093864440918e-03
-5.373667240142822266e+00 -5.991153240203857422e+00 9.832484647631645203e-03
-5.417721748352050781e+00 -5.966211318969726562e+00 9.845923632383346558e-03
-5.308041572570800781e+00 -5.773842334747314453e+00 9.582030586898326874e-03
-5.455101013183593750e+00 -5.861213684082031250e+00 9.782393462955951691e-03
-5.602742671966552734e+00 -5.946265697479248047e+00 9.981535375118255615e-03
-5.614964962005615234e+00 -5.886450290679931641e+00 9.938775561749935150e-03
-5.528719902038574219e+00 -5.725281715393066406e+00 9.723750874400138855e-03
-5.609183311462402344e+00 -5.737730026245117188e+00 9.803162887692451477e-03
-5.647098064422607422e+00 -5.706048011779785156e+00 9.808050468564033508e-03
-5.668555736541748047e+00 -5.657868385314941406e+00 9.784838184714317322e-03
-5.906823635101318359e+00 -5.823775291442871094e+00 1.013425178825855255e-02
-4.610495567321777344e+00 -3.606368064880371094e+00 1.737255305051803589e-01
-5.789139270782470703e+00 -5.638114452362060547e+00 9.872801601886749268e-03
-4.637283802032470703e+00 -3.581676721572875977e+00 1.739035397768020630e-01
-5.933165073394775391e+00 -5.707867622375488281e+00 1.005850546061992645e-02
-4.652019500732421875e+00 -3.547699928283691406e+00 1.736365258693695068e-01
-5.918782711029052734e+00 -5.624512195587158203e+00 9.975426830351352692e-03
-6.034113883972167969e+00 -5.664057254791259766e+00 1.011103857308626175e-02
-6.070954322814941406e+00 -5.628965854644775391e+00 1.011470425873994827e-02
-5.929864883422851562e+00 -5.430864810943603516e+00 9.823932312428951263e-03
-4.615633964538574219e+00 -3.605277299880981445e+00 1.185919120907783508e-01
-6.183326721191406250e+00 -5.593622684478759766e+00 1.018678676337003708e-02
-4.668544292449951172e+00 -3.600701808929443359e+00 1.193814501166343689e-01
-6.272713184356689453e+00 -5.604883193969726562e+00 1.027719490230083466e-02
-4.664301395416259766e+00 -3.551999330520629883e+00 1.187133789062500000e-01
-6.270997524261474609e+00 -5.534526824951171875e+00 1.021855138242244720e-02
-6.290516376495361328e+00 -5.483459949493408203e+00 1.019533816725015640e-02
-6.321012496948242188e+00 -5.442149162292480469e+00 1.019045244902372360e-02
-6.323813438415527344e+00 -5.377349853515625000e+00 1.014158315956592560e-02
-4.644026279449462891e+00 -3.622318506240844727e+00 6.270675361156463623e-02
-6.061100482940673828e+00 -5.090206146240234375e+00 9.669994935393333435e-03
-4.648736476898193359e+00 -3.580332040786743164e+00 6.247253715991973877e-02
-6.179196357727050781e+00 -5.125059604644775391e+00 9.808050468564033508e-03
-4.667433261871337891e+00 -3.549319267272949219e+00 6.242994964122772217e-02
-6.532347202301025391e+00 -5.350651741027832031e+00 1.031628996133804321e-02
-6.641248703002929688e+00 -5.372102260589599609e+00 1.043601986020803452e-02
-6.658459663391113281e+00 -5.318768501281738281e+00 1.041158474981784821e-02
-4.627619266510009766e+00 -3.650249719619750977e+00 7.200877647846937180e-03
-4.611505985260009766e+00 -3.594445228576660156e+00 2.195048034191131592e-01
-4.621528625488281250e+00 -3.599664926528930664e+00 7.156895473599433899e-03
-4.650104045867919922e+00 -3.578881025314331055e+00 2.202926278114318848e-01
-4.646699905395507812e+00 -3.573678731918334961e+00 7.161783054471015930e-03
-4.679136753082275391e+00 -3.555722475051879883e+00 2.206302583217620850e-01
-4.648629665374755859e+00 -3.529980897903442383e+00 7.131239399313926697e-03
-4.660600662231445312e+00 -3.494192600250244141e+00 7.116578519344329834e-03
-6.875437736511230469e+00 -5.089123249053955078e+00 1.045068074017763138e-02
-6.951748847961425781e+00 -5.079880237579345703e+00 1.051909755915403366e-02
-6.268288612365722656e+00 -4.521716117858886719e+00 9.442753158509731293e-03
-7.061624050140380859e+00 -5.028411865234375000e+00 1.059118006378412247e-02
-6.414935588836669922e+00 -4.508858203887939453e+00 9.579586796462535858e-03
-7.021736621856689453e+00 -4.871265411376953125e+00 1.044090650975704193e-02
-7.157934665679931641e+00 -4.900968074798583984e+00 1.059850957244634628e-02
-6.944271564483642578e+00 -4.692351341247558594e+00 1.023932080715894699e-02
-7.002051830291748047e+00 -4.669070720672607422e+00 1.028208155184984207e-02
-6.972092628479003906e+00 -4.587542533874511719e+00 1.019656099379062653e-02
-7.099919319152832031e+00 -4.609475612640380859e+00 1.034194603562355042e-02
-1.404372692108154297e+01 -6.980916500091552734e+00 4.654633998870849609e-01
-6.925973892211914062e+00 -4.436374187469482422e+00 1.004873123019933701e-02
-1.409168434143066406e+01 -6.897251129150390625e+00 4.656414091587066650e-01
-6.994486808776855469e+00 -4.419969081878662109e+00 1.010859571397304535e-02
-1.413283824920654297e+01 -6.810222148895263672e+00 4.656117260456085205e-01
-7.336313724517822266e+00 -4.573228836059570312e+00 1.056185830384492874e-02
-1.416171550750732422e+01 -6.717379093170166016e+00 4.651964008808135986e-01
-7.239014148712158203e+00 -4.451131343841552734e+00 1.038226298987865448e-02
-1.494730091094970703e+01 -6.981160163879394531e+00 1.087068676948547363e+00
-1.420810031890869141e+01 -6.632894992828369141e+00 4.653743803501129150e-01
-7.378201484680175781e+00 -4.474559783935546875e+00 1.054231077432632446e-02
-1.482574939727783203e+01 -6.813891410827636719e+00 1.075167655944824219e+00
-1.413953495025634766e+01 -6.495519161224365234e+00 4.618144333362579346e-01
-6.906896114349365234e+00 -4.130980491638183594e+00 9.832484647631645203e-03
-1.485727882385253906e+01 -6.718271732330322266e+00 1.074444413185119629e+00
-7.837821960449218750e+00 -3.542515277862548828e+00 2.552780508995056152e-01
-7.442891597747802734e+00 -4.389777660369873047e+00 1.055697165429592133e-02
-1.479702186584472656e+01 -6.581967353820800781e+00 1.067146062850952148e+00
-1.419711017608642578e+01 -6.942902088165283203e+00 8.918736577033996582e-01
-7.852103710174560547e+00 -3.491107940673828125e+00 2.550407052040100098e-01
-1.408356761932373047e+01 -6.881285190582275391e+00 3.173922896385192871e-01
-7.768784999847412109e+00 -4.517968177795410156e+00 1.097968965768814087e-02
-1.487278175354003906e+01 -6.506648063659667969e+00 1.069710254669189453e+00
-1.420076179504394531e+01 -6.837036609649658203e+00 8.894508481025695801e-01
-1.427593326568603516e+01 -6.242566108703613281e+00 4.624374210834503174e-01
-1.413723850250244141e+01 -6.800374984741210938e+00 3.176554739475250244e-01
-7.507477760314941406e+00 -4.304577350616455078e+00 1.057285349816083908e-02
-1.492250823974609375e+01 -6.419605255126953125e+00 1.070433497428894043e+00
-1.420906352996826172e+01 -6.733952999114990234e+00 8.873661160469055176e-01
-1.430570411682128906e+01 -6.151299476623535156e+00 4.621704220771789551e-01
-1.418592739105224609e+01 -6.716925144195556641e+00 3.178174197673797607e-01
-7.609486579895019531e+00 -4.301241874694824219e+00 1.067914348095655441e-02
-1.424287605285644531e+01 -6.643264770507812500e+00 8.869153857231140137e-01
-1.441775321960449219e+01 -6.094931125640869141e+00 4.645734131336212158e-01
-1.421871852874755859e+01 -6.625954627990722656e+00 3.176352083683013916e-01
-7.640103340148925781e+00 -4.256903648376464844e+00 1.068525202572345734e-02
-1.427701854705810547e+01 -6.552831649780273438e+00 8.865209817886352539e-01
-1.454903030395507812e+01 -6.045473098754882812e+00 4.675993621349334717e-01
-1.421912002563476562e+01 -6.520249366760253906e+00 3.167444765567779541e-01
-7.662573337554931641e+00 -4.208019256591796875e+00 1.068036630749702454e-02
-1.432332706451416016e+01 -6.467982769012451172e+00 8.869153857231140137e-01
-1.465525436401367188e+01 -5.984428405761718750e+00 4.698243439197540283e-01
-7.812025070190429688e+00 -3.524392366409301758e+00 1.735353171825408936e-01
-7.684731483459472656e+00 -4.159019947052001953e+00 1.067547965794801712e-02
-1.433719539642333984e+01 -6.368625640869140625e+00 8.853377103805541992e-01
-1.409180355072021484e+01 -6.882453441619873047e+00 7.368341684341430664e-01
-1.498670101165771484e+01 -6.012749671936035156e+00 4.792581796646118164e-01
-7.835330963134765625e+00 -3.477203607559204102e+00 1.735758036375045776e-01
-7.845108032226562500e+00 -4.183784961700439453e+00 1.086240354925394058e-02
-1.438972663879394531e+01 -6.286530017852783203e+00 8.861828446388244629e-01
-1.422739315032958984e+01 -6.840875625610351562e+00 7.417151331901550293e-01
-1.426891899108886719e+01 -6.227821826934814453e+00 3.152463734149932861e-01
-7.474930763244628906e+00 -3.927651405334472656e+00 1.031628996133804321e-02
-1.443353366851806641e+01 -6.200482368469238281e+00 8.865209817886352539e-01
-1.423208236694335938e+01 -6.735928535461425781e+00 7.397908568382263184e-01
-1.433258914947509766e+01 -6.151192665100097656e+00 3.158132135868072510e-01
-7.805274963378906250e+00 -4.040308952331542969e+00 1.073778700083494186e-02
-1.450349807739257812e+01 -6.125399112701416016e+00 8.884930014610290527e-01
-1.424417018890380859e+01 -6.634978771209716797e+00 7.382890582084655762e-01
-1.442441082000732422e+01 -6.086064815521240234e+00 3.170076310634613037e-01
-7.805864810943603516e+00 -3.980075836181640625e+00 1.070479955524206161e-02
-1.464869689941406250e+01 -6.081078529357910156e+00 8.950852751731872559e-01
-1.411662292480468750e+01 -6.470453262329101562e+00 7.296066284179687500e-01
-1.451689434051513672e+01 -6.020423889160156250e+00 3.182223141193389893e-01
-7.842650413513183594e+00 -3.938387870788574219e+00 1.072190422564744949e-02
-1.480313873291015625e+01 -6.038976669311523438e+00 9.022409915924072266e-01
-1.419066143035888672e+01 -6.399317741394042969e+00 7.313900589942932129e-01
-1.414061641693115234e+01 -6.998902797698974609e+00 5.923365354537963867e-01
-1.468318176269531250e+01 -5.984062671661376953e+00 3.210565447807312012e-01
-7.801927566528320312e+00 -3.513386011123657227e+00 9.110045433044433594e-02
-7.976027488708496094e+00 -3.944272041320800781e+00 1.087095588445663452e-02
-1.426435756683349609e+01 -6.327516555786132812e+00 7.331734895706176758e-01
-1.409076976776123047e+01 -6.866915702819824219e+00 5.884724259376525879e-01
-1.498971652984619141e+01 -6.002003669738769531e+00 3.269476890563964844e-01
-7.818767070770263672e+00 -3.463423252105712891e+00 9.104721993207931519e-02
-8.004574775695800781e+00 -3.897446632385253906e+00 1.087706442922353745e-02
-1.439721679687500000e+01 -6.281013965606689453e+00 7.380074858665466309e-01
-1.408128356933593750e+01 -6.755688190460205078e+00 5.863340497016906738e-01
-7.830704212188720703e+00 -3.411389589309692383e+00 9.094076603651046753e-02
-8.013909339904785156e+00 -3.841341972351074219e+00 1.085751596838235855e-02
-1.443915748596191406e+01 -6.194131851196289062e+00 7.381952404975891113e-01
-1.410259056091308594e+01 -6.659772396087646484e+00 5.855087041854858398e-01
-7.947793960571289062e+00 -3.749853849411010742e+00 1.073656510561704636e-02
-1.447229003906250000e+01 -6.103477001190185547e+00 7.379605770111083984e-01
-1.413775253295898438e+01 -6.570588111877441406e+00 5.852835774421691895e-01
-7.824627876281738281e+00 -3.633212566375732422e+00 1.053986698389053345e-02
-1.457775211334228516e+01 -6.042867183685302734e+00 7.414335012435913086e-01
-1.411964035034179688e+01 -6.457118511199951172e+00 5.828825831413269043e-01
-1.475601100921630859e+01 -6.107708454132080078e+00 1.700321882963180542e-01
-7.822215080261230469e+00 -3.573912382125854492e+00 1.050687953829765320e-02
-1.466913604736328125e+01 -5.975539684295654297e+00 7.442024946212768555e-01
-1.420547199249267578e+01 -6.391271114349365234e+00 5.847958922386169434e-01
-1.480247211456298828e+01 -6.020820140838623047e+00 1.701386421918869019e-01
-7.797480583190917969e+00 -3.504940032958984375e+00 1.044457219541072845e-02
-1.424533462524414062e+01 -6.304392337799072266e+00 5.848334431648254395e-01
-7.805120468139648438e+00 -3.450963735580444336e+00 1.042624562978744507e-02
-1.431306934356689453e+01 -6.229627132415771484e+00 5.860338807106018066e-01
-7.831649780273437500e+00 -3.405400037765502930e+00 1.043357606977224350e-02
-1.435745620727539062e+01 -6.144439220428466797e+00 5.862965583801269531e-01
-7.907567024230957031e+00 -3.380869388580322266e+00 1.050687953829765320e-02
-1.442620372772216797e+01 -6.069403171539306641e+00 5.875720381736755371e-01
-8.341164588928222656e+00 -3.505874633789062500e+00 1.105421502143144608e-02
-1.456660175323486328e+01 -6.023540496826171875e+00 5.917738676071166992e-01
-8.304292678833007812e+00 -3.430574178695678711e+00 1.097724679857492447e-02
-1.463013362884521484e+01 -5.944957733154296875e+00 5.928617715835571289e-01
-8.335377693176269531e+00 -3.383692741394042969e+00 1.099068485200405121e-02
-8.392209053039550781e+00 -3.346931457519531250e+00 1.103833317756652832e-02
-8.482419967651367188e+00 -3.322729825973510742e+00 1.112996228039264679e-02
-8.600647926330566406e+00 -3.308316469192504883e+00 1.125824358314275742e-02
-8.643238067626953125e+00 -3.263960361480712891e+00 1.128756534308195114e-02
-8.594653129577636719e+00 -3.185495138168334961e+00 1.119837909936904907e-02
-1.101870250701904297e+01 -2.701355695724487305e+00 3.367118835449218750e-01
-8.560469627380371094e+00 -3.113218307495117188e+00 1.112874038517475128e-02
-8.717864036560058594e+00 -3.110025882720947266e+00 1.130833476781845093e-02
-8.650887489318847656e+00 -3.026425600051879883e+00 1.119715720415115356e-02
-8.830099105834960938e+00 -3.028438806533813477e+00 1.140485145151615143e-02
-8.603960990905761719e+00 -2.892000913619995117e+00 1.108964532613754272e-02
-1.098410606384277344e+01 -2.756405591964721680e+00 2.293087393045425415e-01
-8.653837203979492188e+00 -2.849787950515747070e+00 1.113118324428796768e-02
-1.102314949035644531e+01 -2.694416522979736328e+00 2.297743558883666992e-01
-8.794884681701660156e+00 -2.836539030075073242e+00 1.129000913351774216e-02
-8.821660041809082031e+00 -2.785532474517822266e+00 1.130222622305154800e-02
-8.834764480590820312e+00 -2.730170488357543945e+00 1.129733957350254059e-02
-8.814975738525390625e+00 -2.664913415908813477e+00 1.125091407448053360e-02
-8.864725112915039062e+00 -2.620698213577270508e+00 1.129367388784885406e-02
-1.099538803100585938e+01 -2.751205921173095703e+00 1.206759065389633179e-01
-8.868150711059570312e+00 -2.562647104263305664e+00 1.127779204398393631e-02
-1.102469062805175781e+01 -2.686765432357788086e+00 1.208143010735511780e-01
-8.865422248840332031e+00 -2.503022193908691406e+00 1.125457976013422012e-02
-9.016541481018066406e+00 -2.486056089401245117e+00 1.142684277147054672e-02
-8.880020141601562500e+00 -2.389883041381835938e+00 1.123503036797046661e-02
-8.938041687011718750e+00 -2.346779346466064453e+00 1.129000913351774216e-02
-8.191799163818359375e+00 -2.097201824188232422e+00 1.033095084130764008e-02
-8.675088882446289062e+00 -2.164299488067626953e+00 1.092348899692296982e-02
-8.970006942749023438e+00 -2.179500579833984375e+00 1.127779204398393631e-02
-8.612438201904296875e+00 -2.036737203598022461e+00 1.081231236457824707e-02
-8.693966865539550781e+00 -1.999769687652587891e+00 1.089905574917793274e-02
-8.488445281982421875e+00 -1.897732615470886230e+00 1.062660943716764450e-02
-9.274871826171875000e+00 -2.013878107070922852e+00 1.159544102847576141e-02
-9.097223281860351562e+00 -1.916930198669433594e+00 1.135842688381671906e-02
-9.134287834167480469e+00 -1.866279244422912598e+00 1.139019150286912918e-02
-9.407485008239746094e+00 -1.862039089202880859e+00 1.171639282256364822e-02
-8.810788154602050781e+00 -1.687821030616760254e+00 1.096014212816953659e-02
-9.313600540161132812e+00 -1.724965333938598633e+00 1.157222874462604523e-02
-9.001133918762207031e+00 -1.610032916069030762e+00 1.117150112986564636e-02
-9.406989097595214844e+00 -1.623125672340393066e+00 1.166263688355684280e-02
-9.457217216491699219e+00 -1.572098255157470703e+00 1.171272806823253632e-02
-9.428174018859863281e+00 -1.507881045341491699e+00 1.166507974267005920e-02
-9.470854759216308594e+00 -1.455165863037109375e+00 1.170661952346563339e-02
-9.069040298461914062e+00 -1.336520671844482422e+00 1.119960099458694458e-02
-9.379077911376953125e+00 -1.323464632034301758e+00 1.157222874462604523e-02
-9.528738975524902344e+00 -1.285002231597900391e+00 1.174693647772073746e-02
-9.853829383850097656e+00 -1.267330646514892578e+00 1.213788986206054688e-02
-9.564635276794433594e+00 -1.170524120330810547e+00 1.177259255200624466e-02
-9.367012977600097656e+00 -1.088045954704284668e+00 1.152091566473245621e-02
-9.642889022827148438e+00 -1.060166597366333008e+00 1.185200456529855728e-02
-9.650207519531250000e+00 -1.001082181930541992e+00 1.185322646051645279e-02
-9.844275474548339844e+00 -9.601985812187194824e-01 1.208413392305374146e-02
-9.872886657714843750e+00 -9.018694162368774414e-01 1.211223378777503967e-02
-9.871259689331054688e+00 -8.406795263290405273e-01 1.210368145257234573e-02
-9.943024635314941406e+00 -7.853705286979675293e-01 1.218553818762302399e-02
-1.031568145751953125e+01 -7.511445283889770508e-01 1.263635605573654175e-02
-1.015745639801025391e+01 -6.769946813583374023e-01 1.243721321225166321e-02
-1.000470638275146484e+01 -6.051774621009826660e-01 1.224540267139673233e-02
-1.000423717498779297e+01 -5.435612797737121582e-01 1.224051509052515030e-02
-1.018717575073242188e+01 -4.908287823200225830e-01 1.246042642742395401e-02
-1.006710338592529297e+01 -4.231467545032501221e-01 1.231015380471944809e-02
-1.013346958160400391e+01 -3.636635243892669678e-01 1.238834392279386520e-02
-1.084956550598144531e+01 8.550701737403869629e-01 3.230060935020446777e-01
-1.011351966857910156e+01 -3.008247613906860352e-01 1.236146595329046249e-02
-7.897041320800781250e+00 6.711582541465759277e-01 2.352236658334732056e-01
-1.002719974517822266e+01 -2.366871088743209839e-01 1.225395407527685165e-02
-7.869879245758056641e+00 7.175135016441345215e-01 2.345413267612457275e-01
-1.010345172882080078e+01 -1.764666587114334106e-01 1.234558410942554474e-02
-1.010734462738037109e+01 -1.145037040114402771e-01 1.234924979507923126e-02
-1.048385143280029297e+01 -5.443635955452919006e-02 1.280861906707286835e-02
-1.049198818206787109e+01 9.899913333356380463e-03 1.281839329749345779e-02
-1.075584983825683594e+01 8.551223278045654297e-01 2.184779644012451172e-01
-1.059172725677490234e+01 7.498530298471450806e-02 1.294056698679924011e-02
-7.874528884887695312e+00 6.746958494186401367e-01 1.600322723388671875e-01
-9.283183097839355469e+00 1.226882562041282654e-01 1.134254317730665207e-02
-7.878205776214599609e+00 7.237321138381958008e-01 1.601942330598831177e-01
-1.051602363586425781e+01 2.035245299339294434e-01 1.285015884786844254e-02
-1.083747196197509766e+01 2.762773036956787109e-01 1.324477791786193848e-02
-4.896436691284179688e+00 6.900557875633239746e-01 1.467589139938354492e-01
-1.129834079742431641e+01 3.574086725711822510e-01 1.381043903529644012e-02
-4.883210659027099609e+00 7.187767028808593750e-01 1.464919149875640869e-01
-1.064439964294433594e+01 4.021141529083251953e-01 1.301387045532464981e-02
-4.860924243927001953e+00 7.459967136383056641e-01 1.459579169750213623e-01
-1.369526863098144531e+01 1.597920656204223633e+00 2.791910171508789062e-01
-1.075386428833007812e+01 8.624018430709838867e-01 1.148630157113075256e-01
-1.091347026824951172e+01 4.793550074100494385e-01 1.334618125110864639e-02
-7.894159317016601562e+00 6.818430423736572266e-01 8.436134457588195801e-02
-1.104315662384033203e+01 5.529611110687255859e-01 1.350867096334695816e-02
-7.886840343475341797e+00 7.299914360046386719e-01 8.432940393686294556e-02
-1.104055404663085938e+01 6.207664012908935547e-01 1.350989285856485367e-02
-1.103753662109375000e+01 6.885605454444885254e-01 1.351111475378274918e-02
-4.878305435180664062e+00 6.909199357032775879e-01 9.976459294557571411e-02
-1.093832588195800781e+01 7.497760057449340820e-01 1.339505054056644440e-02
-4.843314170837402344e+00 7.163051366806030273e-01 9.913700819015502930e-02
-1.076299381256103516e+01 8.041377663612365723e-01 1.318613439798355103e-02
-4.847720623016357422e+00 7.473806738853454590e-01 9.931920468807220459e-02
-1.373890304565429688e+01 1.612582802772521973e+00 1.472810208797454834e-01
-7.887235164642333984e+00 6.379691362380981445e-01 9.667551144957542419e-03
-1.368607711791992188e+01 1.691578388214111328e+00 1.468232274055480957e-01
-7.881179332733154297e+00 6.861788034439086914e-01 9.665107354521751404e-03
-7.873834133148193359e+00 7.342453598976135254e-01 9.661442600190639496e-03
-4.882721900939941406e+00 6.644278764724731445e-01 5.246500670909881592e-02
-7.853258609771728516e+00 7.809611558914184570e-01 9.641895070672035217e-03
-4.890432357788085938e+00 6.960660219192504883e-01 5.259275808930397034e-02
-1.067657756805419922e+01 1.127923607826232910e+00 1.311649475246667862e-02
-4.890025615692138672e+00 7.266479730606079102e-01 5.263534560799598694e-02
-1.004932403564453125e+01 1.124048948287963867e+00 1.235413644462823868e-02
-4.874605178833007812e+00 7.549554109573364258e-01 5.251823365688323975e-02
-1.317646503448486328e+01 1.555748105049133301e+00 1.620991714298725128e-02
-1.353582954406738281e+01 1.682453155517578125e+00 1.666440069675445557e-02
-4.885550975799560547e+00 6.377198696136474609e-01 6.019464693963527679e-03
-4.890463352203369141e+00 6.689047217369079590e-01 6.030460353940725327e-03
-4.924623489379882812e+00 7.026316523551940918e-01 1.867535263299942017e-01
-4.878347396850585938e+00 6.977667212486267090e-01 6.020687054842710495e-03
-4.899463653564453125e+00 7.297438383102416992e-01 1.859657019376754761e-01
-4.874963283538818359e+00 7.278342247009277344e-01 6.021908484399318695e-03
-4.845702648162841797e+00 7.538894414901733398e-01 5.991365294903516769e-03
-4.793602466583251953e+00 7.759380936622619629e-01 5.932722240686416626e-03
-1.420169353485107422e+01 2.567924499511718750e+00 1.763201132416725159e-02
-1.328923606872558594e+01 2.487237930297851562e+00 1.651779189705848694e-02
-1.473573493957519531e+01 3.039723634719848633e+00 1.838215254247188568e-02
-1.485569953918457031e+01 3.159624099731445312e+00 1.855563931167125702e-02
-1.464555168151855469e+01 3.208981275558471680e+00 1.831740140914916992e-02
-1.408743286132812500e+01 3.451081991195678711e+00 1.771997474133968353e-02
-1.413681411743164062e+01 3.926547765731811523e+00 1.792522706091403961e-02
-2.374970197677612305e+00 1.031711578369140625e+00 1.706250011920928955e-01
-2.360558271408081055e+00 1.025940656661987305e+00 7.639057934284210205e-02
-2.369508028030395508e+00 1.046667933464050293e+00 1.706907600164413452e-01
-2.358790159225463867e+00 1.042425751686096191e+00 7.653891295194625854e-02
-2.343925476074218750e+00 1.052602887153625488e+00 1.693099737167358398e-01
-2.339585065841674805e+00 1.051144480705261230e+00 7.612358778715133667e-02
-2.350131034851074219e+00 1.072766184806823730e+00 1.702305078506469727e-01
-2.337637186050415039e+00 1.067556142807006836e+00 7.627191394567489624e-02
-2.346456050872802734e+00 1.089033126831054688e+00 7.677624374628067017e-02
-2.360075950622558594e+00 1.009503960609436035e+00 1.448611468076705933e-01
-2.395036458969116211e+00 1.041888594627380371e+00 1.473966389894485474e-01
-2.382206916809082031e+00 1.053737401962280273e+00 1.470022350549697876e-01
-2.275436162948608398e+00 1.007458567619323730e+00 5.038840323686599731e-02
-2.372964620590209961e+00 1.067106127738952637e+00 1.468331962823867798e-01
-2.326648473739624023e+00 1.047254562377929688e+00 5.166380107402801514e-02
-2.348211526870727539e+00 1.073345065116882324e+00 1.457063257694244385e-01
-2.341089487075805664e+00 1.071077704429626465e+00 5.212942510843276978e-02
-2.335380315780639648e+00 1.085843801498413086e+00 5.214967206120491028e-02
-2.435083150863647461e+00 1.043064832687377930e+00 1.244639679789543152e-01
-2.410321474075317383e+00 1.050007820129394531e+00 1.235253289341926575e-01
-2.404746770858764648e+00 1.065182089805603027e+00 1.235722526907920837e-01
-2.312556982040405273e+00 1.025795340538024902e+00 2.693516016006469727e-02
-2.382681846618652344e+00 1.072944760322570801e+00 1.227744072675704956e-01
-2.333565711975097656e+00 1.052297234535217285e+00 2.725454792380332947e-02
-2.352438211441040039e+00 1.076735496520996094e+00 1.215541735291481018e-01
-2.287068367004394531e+00 1.048263669013977051e+00 2.678610943257808685e-02
-2.413151025772094727e+00 1.002228498458862305e+00 3.192381234839558601e-03
-2.421694278717041016e+00 1.023243904113769531e+00 3.211928764358162880e-03
-2.391483068466186523e+00 1.027817606925964355e+00 3.180163912475109100e-03
-2.375968456268310547e+00 1.038467168807983398e+00 3.167946590110659599e-03
-2.380125761032104492e+00 1.056730747222900391e+00 9.776610881090164185e-02
-2.367723941802978516e+00 1.052214026451110840e+00 3.165503032505512238e-03
-2.371247768402099609e+00 1.071251153945922852e+00 3.178942250087857246e-03
-2.368265151977539062e+00 1.087449789047241211e+00 3.183829132467508316e-03
-2.364266633987426758e+00 1.103229284286499023e+00 3.187494352459907532e-03
-8.322790145874023438e+00 6.729897499084472656e+00 3.176661431789398193e-01
-8.160692214965820312e+00 6.682051181793212891e+00 3.130382001399993896e-01
-8.101840972900390625e+00 6.717325210571289062e+00 3.123559057712554932e-01
-8.027552604675292969e+00 6.739274501800537109e+00 3.110802471637725830e-01
-3.864255189895629883e+00 3.400847911834716797e+00 1.105438709259033203e+00
-8.141781806945800781e+00 6.675919055938720703e+00 2.131941616535186768e-01
-3.847738981246948242e+00 3.429641008377075195e+00 1.309043288230895996e+00
-3.841855287551879883e+00 3.423193693161010742e+00 1.105018854141235352e+00
-8.090666770935058594e+00 6.717448234558105469e+00 2.129309922456741333e-01
-3.855405092239379883e+00 3.479159355163574219e+00 1.318889379501342773e+00
-3.819326400756835938e+00 3.445392370223999023e+00 1.104598879814147949e+00
-3.817698240280151367e+00 3.445132493972778320e+00 9.085859060287475586e-01
-8.011032104492187500e+00 6.734796524047851562e+00 2.119187712669372559e-01
-3.835415840148925781e+00 3.504057645797729492e+00 1.319381713867187500e+00
-3.810387134552001953e+00 3.479971408843994141e+00 1.108168244361877441e+00
-3.802303552627563477e+00 3.473806142807006836e+00 9.099777936935424805e-01
-3.836824893951416016e+00 3.506573915481567383e+00 7.240306735038757324e-01
-3.846592426300048828e+00 3.517965793609619141e+00 5.340842008590698242e-01
-3.874796867370605469e+00 3.546245098114013672e+00 3.461156189441680908e-01
-3.903725147247314453e+00 3.573972702026367188e+00 1.570827662944793701e-01
-3.815977811813354492e+00 3.529499769210815430e+00 1.320120215415954590e+00
-3.804038047790527344e+00 3.517224788665771484e+00 1.112577319145202637e+00
-3.774410724639892578e+00 3.491053342819213867e+00 9.084119200706481934e-01
-3.796334981918334961e+00 3.512561321258544922e+00 7.204436063766479492e-01
-3.819824695587158203e+00 3.536770820617675781e+00 5.333707332611083984e-01
-3.850768566131591797e+00 3.567919015884399414e+00 3.459183573722839355e-01
-3.861928701400756836e+00 3.579512357711791992e+00 1.562817841768264771e-01
-3.782430171966552734e+00 3.543019771575927734e+00 1.527300119400024414e+00
-3.802031517028808594e+00 3.560134887695312500e+00 1.322827816009521484e+00
-3.780957698822021484e+00 3.539163351058959961e+00 1.112157464027404785e+00
-3.764420270919799805e+00 3.524916410446166992e+00 9.111958146095275879e-01
-3.750856876373291016e+00 3.513444900512695312e+00 7.158908247947692871e-01
-3.792971134185791016e+00 3.555379867553710938e+00 5.326572656631469727e-01
-3.817887067794799805e+00 3.581239700317382812e+00 3.449320793151855469e-01
-3.837705850601196289e+00 3.601089477539062500e+00 1.561927795410156250e-01
-3.801684856414794922e+00 3.605103492736816406e+00 1.543978095054626465e+00
-3.789963483810424805e+00 3.592732191085815430e+00 1.326274037361145020e+00
-3.754912614822387695e+00 3.558261156082153320e+00 1.110897660255432129e+00
-3.901772737503051758e+00 3.434999465942382812e+00 1.063290596008300781e+00
-3.732000589370727539e+00 3.537785768508911133e+00 9.085859060287475586e-01
-3.715573310852050781e+00 3.523444652557373047e+00 7.132695317268371582e-01
-3.744384765625000000e+00 3.553249835968017578e+00 5.288860201835632324e-01
-3.789329290390014648e+00 3.598414659500122070e+00 3.443403542041778564e-01
-3.812638998031616211e+00 3.621815681457519531e+00 1.560741215944290161e-01
-8.122942924499511719e+00 6.669812679290771484e+00 1.119033396244049072e-01
-3.759425640106201172e+00 3.609097719192504883e+00 1.535780429840087891e+00
-3.779735326766967773e+00 3.627327919006347656e+00 1.330458641052246094e+00
-3.876085281372070312e+00 3.452404499053955078e+00 1.262471795082092285e+00
-3.728070020675659180e+00 3.576496124267578125e+00 1.109427928924560547e+00
-3.863069534301757812e+00 3.443230390548706055e+00 1.058481097221374512e+00
-3.704539060592651367e+00 3.555163621902465820e+00 9.071939587593078613e-01
-3.693169355392456055e+00 3.545490980148315430e+00 7.131316065788269043e-01
-3.711751461029052734e+00 3.565820455551147461e+00 5.273571610450744629e-01
-3.757827043533325195e+00 3.612607717514038086e+00 3.434855639934539795e-01
-3.790343999862670898e+00 3.645141363143920898e+00 1.560741215944290161e-01
-8.099549293518066406e+00 6.734231948852539062e+00 1.121482029557228088e-01
-3.731019258499145508e+00 3.626080751419067383e+00 1.533236384391784668e+00
-3.764359235763549805e+00 3.657205581665039062e+00 1.332920193672180176e+00
-3.849777221679687500e+00 3.471567392349243164e+00 1.260817408561706543e+00
-3.707457542419433594e+00 3.600666046142578125e+00 1.109847903251647949e+00
-3.841869592666625977e+00 3.466868877410888672e+00 1.058481097221374512e+00
-3.679829835891723633e+00 3.575082302093505859e+00 9.064979553222656250e-01
-3.684129953384399414e+00 3.580510139465332031e+00 7.156149148941040039e-01
-3.728311777114868164e+00 3.625980854034423828e+00 5.328610539436340332e-01
-3.875335931777954102e+00 3.772920131683349609e+00 1.605240553617477417e-01
-3.707332372665405273e+00 3.647560119628906250e+00 1.532670974731445312e+00
-3.761887550354003906e+00 3.699943780899047852e+00 1.340058565139770508e+00
-3.824815988540649414e+00 3.491848468780517578e+00 1.259635806083679199e+00
-3.697146654129028320e+00 3.634999752044677734e+00 1.113417267799377441e+00
-3.832098245620727539e+00 3.500950098037719727e+00 1.061687469482421875e+00
-3.655016183853149414e+00 3.594832181930541992e+00 9.058020710945129395e-01
-3.814063549041748047e+00 3.486917018890380859e+00 8.610768914222717285e-01
-3.681859254837036133e+00 3.622497797012329102e+00 7.194778919219970703e-01
-3.842173099517822266e+00 3.515078544616699219e+00 6.744880080223083496e-01
-3.765538454055786133e+00 3.707415342330932617e+00 5.414227247238159180e-01
-3.864487171173095703e+00 3.537971735000610352e+00 4.869684875011444092e-01
-3.796375036239624023e+00 3.740386724472045898e+00 3.511784672737121582e-01
-3.857542991638183594e+00 3.534090280532836914e+00 2.952440381050109863e-01
-3.847129583358764648e+00 3.791716098785400391e+00 1.603163927793502808e-01
-3.917662382125854492e+00 3.591684818267822266e+00 1.076194345951080322e-01
-3.687599897384643555e+00 3.672946691513061523e+00 1.533801674842834473e+00
-3.763840436935424805e+00 3.747575998306274414e+00 1.348920226097106934e+00
-3.791901111602783203e+00 3.504698753356933594e+00 1.255854487419128418e+00
-3.685167312622070312e+00 3.667962312698364258e+00 1.116566658020019531e+00
-3.811983108520507812e+00 3.525727748870849609e+00 1.062088251113891602e+00
-3.649637460708618164e+00 3.633866548538208008e+00 9.099777936935424805e-01
-3.771602630615234375e+00 3.490823268890380859e+00 8.563104271888732910e-01
-3.684825420379638672e+00 3.670183420181274414e+00 7.244445681571960449e-01
-3.793612003326416016e+00 3.513653516769409180e+00 6.697353720664978027e-01
-3.740605354309082031e+00 3.728343486785888672e+00 5.411169528961181641e-01
-3.817146301269531250e+00 3.537927389144897461e+00 4.837294518947601318e-01
-3.770527124404907227e+00 3.760792016983032227e+00 3.509154915809631348e-01
-3.848230123519897461e+00 3.569235563278198242e+00 2.962019145488739014e-01
-3.801856279373168945e+00 3.793364048004150391e+00 1.593967378139495850e-01
-3.879428863525390625e+00 3.600692033767700195e+00 1.071740463376045227e-01
-3.629194736480712891e+00 3.659407377243041992e+00 1.518819808959960938e+00
-3.753744363784790039e+00 3.783672809600830078e+00 1.353596925735473633e+00
-3.786644220352172852e+00 3.543169021606445312e+00 1.261290192604064941e+00
-3.672922611236572266e+00 3.700914382934570312e+00 1.119715929031372070e+00
-3.783126592636108398e+00 3.542355060577392578e+00 1.060084342956542969e+00
-3.637675285339355469e+00 3.666678428649902344e+00 9.125877618789672852e-01
-3.755870819091796875e+00 3.519295454025268555e+00 8.576253652572631836e-01
-3.674092531204223633e+00 3.704678773880004883e+00 7.267899513244628906e-01
-3.739426612854003906e+00 3.506339073181152344e+00 6.639551520347595215e-01
-3.703653097152709961e+00 3.737093687057495117e+00 5.390784740447998047e-01
-3.785200834274291992e+00 3.551743984222412109e+00 4.824338555335998535e-01
-3.741060733795166016e+00 3.777475595474243164e+00 3.503237068653106689e-01
-3.827713012695312500e+00 3.594147443771362305e+00 2.963145971298217773e-01
-3.784838438034057617e+00 3.823013782501220703e+00 1.596637368202209473e-01
-3.851433515548706055e+00 3.618951082229614258e+00 1.070120930671691895e-01
-8.138660430908203125e+00 6.608804702758789062e+00 1.280861906707286835e-02
-3.746530055999755859e+00 3.546518802642822266e+00 1.461767673492431641e+00
-3.758271694183349609e+00 3.835016250610351562e+00 1.363689303398132324e+00
-3.771886348724365234e+00 3.573018789291381836e+00 1.263653397560119629e+00
-3.894319772720336914e+00 3.424744844436645508e+00 1.208728551864624023e+00
-3.661096334457397461e+00 3.734552383422851562e+00 1.123075366020202637e+00
-3.739277839660644531e+00 3.544606924057006836e+00 1.053872108459472656e+00
-3.638542890548706055e+00 3.712842702865600586e+00 9.185034632682800293e-01
-3.741362333297729492e+00 3.549063205718994141e+00 8.592689037322998047e-01
-3.681095600128173828e+00 3.757575988769531250e+00 7.327224016189575195e-01
-3.709930181503295898e+00 3.521707773208618164e+00 6.625422239303588867e-01
-3.675781726837158203e+00 3.754772424697875977e+00 5.383650064468383789e-01
-3.753951549530029297e+00 3.565987586975097656e+00 4.812307655811309814e-01
-3.717114448547363281e+00 3.799645900726318359e+00 3.502579629421234131e-01
-3.790391445159912109e+00 3.603120803833007812e+00 2.951313555240631104e-01
-3.731258153915405273e+00 3.815435647964477539e+00 1.583880782127380371e-01
-3.834950685501098633e+00 3.648027658462524414e+00 1.071740463376045227e-01
-8.111087799072265625e+00 6.669415473937988281e+00 1.282938942313194275e-02
-3.757346868515014648e+00 3.600727796554565430e+00 1.474580645561218262e+00
-3.728602409362792969e+00 3.851736783981323242e+00 1.361473917961120605e+00
-3.750592947006225586e+00 3.596767902374267578e+00 1.263889670372009277e+00
-3.873232603073120117e+00 3.448575496673583984e+00 1.208728551864624023e+00
-3.647634506225585938e+00 3.766779184341430664e+00 1.126014828681945801e+00
-3.719578742980957031e+00 3.569518804550170898e+00 1.054473280906677246e+00
-3.861721754074096680e+00 3.443163156509399414e+00 1.007560372352600098e+00
-3.634870529174804688e+00 3.754909515380859375e+00 9.233751893043518066e-01
-3.706708908081054688e+00 3.559654712677001953e+00 8.563104271888732910e-01
-3.678632736206054688e+00 3.801444292068481445e+00 7.368612289428710938e-01
-3.686106204986572266e+00 3.542343378067016602e+00 6.621568202972412109e-01
-3.669270515441894531e+00 3.794419050216674805e+00 5.408111810684204102e-01
-3.706163167953491211e+00 3.564107418060302734e+00 4.778991341590881348e-01
-3.657673597335815430e+00 3.785069704055786133e+00 3.468388617038726807e-01
-8.097407341003417969e+00 6.737083435058593750e+00 3.954537808895111084e-01
-3.750561237335205078e+00 3.611847162246704102e+00 1.054330244660377502e-01
-8.093067169189453125e+00 6.738254070281982422e+00 1.286604069173336029e-02
-3.726895809173583984e+00 3.615675449371337891e+00 1.471309185028076172e+00
-3.740304946899414062e+00 3.631219625473022461e+00 1.267907381057739258e+00
-3.847659111022949219e+00 3.468363761901855469e+00 1.207366704940795898e+00
-3.669733762741088867e+00 3.836426734924316406e+00 1.140082120895385742e+00
-3.702525377273559570e+00 3.597053289413452148e+00 1.055876016616821289e+00
-3.815020561218261719e+00 3.443773269653320312e+00 1.000869989395141602e+00
-3.676416397094726562e+00 3.844756364822387695e+00 9.399044513702392578e-01
-3.672067165374755859e+00 3.569955348968505859e+00 8.533520102500915527e-01
-3.675769567489624023e+00 3.845423221588134766e+00 7.410001754760742188e-01
-3.677807092666625977e+00 3.578033447265625000e+00 6.645973920822143555e-01
-3.636299610137939453e+00 3.806791067123413086e+00 5.393842458724975586e-01
-3.662821531295776367e+00 3.565943956375122070e+00 4.751228392124176025e-01
-3.872937679290771484e+00 3.775773048400878906e+00 1.095224097371101379e-01
-8.060744285583496094e+00 6.795519828796386719e+00 1.288070157170295715e-02
-3.712191104888916016e+00 3.645891189575195312e+00 1.474308013916015625e+00
-3.730427980422973633e+00 3.666361331939697266e+00 1.272161364555358887e+00
-3.810479402542114258e+00 3.477464437484741211e+00 1.202372908592224121e+00
-3.689770936965942383e+00 3.905064344406127930e+00 1.153729557991027832e+00
-3.681781768798828125e+00 3.621078014373779297e+00 1.056276798248291016e+00
-3.795992136001586914e+00 3.469103574752807617e+00 1.001443505287170410e+00
-3.663574934005737305e+00 3.878695964813232422e+00 9.426882863044738770e-01
-3.662747383117675781e+00 3.604873657226562500e+00 8.563104271888732910e-01
-3.807526350021362305e+00 3.480864286422729492e+00 8.096984624862670898e-01
-3.643945693969726562e+00 3.859263181686401367e+00 7.393445968627929688e-01
-3.691818475723266602e+00 3.636023283004760742e+00 6.711483001708984375e-01
-3.838217258453369141e+00 3.515075922012329102e+00 6.252157092094421387e-01
-3.768522500991821289e+00 3.714160442352294922e+00 4.917808175086975098e-01
-3.827681541442871094e+00 3.507884740829467773e+00 4.332431256771087646e-01
-3.814416170120239258e+00 3.762017726898193359e+00 3.023434281349182129e-01
-3.891474723815917969e+00 3.568848371505737305e+00 2.480831444263458252e-01
-3.851831674575805664e+00 3.801572561264038086e+00 1.095831319689750671e-01
-3.704760551452636719e+00 3.683523893356323242e+00 1.480305552482604980e+00
-3.717504739761352539e+00 3.698776483535766602e+00 1.275469899177551270e+00
-3.798369646072387695e+00 3.509371519088745117e+00 1.205323815345764160e+00
-3.629716873168945312e+00 3.889033794403076172e+00 1.142391681671142578e+00
-3.671296358108520508e+00 3.655352115631103516e+00 1.059683442115783691e+00
-3.845962762832641602e+00 3.558323621749877930e+00 1.020367503166198730e+00
-3.639035224914550781e+00 3.900382280349731445e+00 9.425143599510192871e-01
-3.641957044601440430e+00 3.628672599792480469e+00 8.566392064094543457e-01
-3.772320985794067383e+00 3.491411685943603516e+00 8.067524433135986328e-01
-3.593175649642944336e+00 3.852577209472656250e+00 7.338260412216186523e-01
-3.685591220855712891e+00 3.674712181091308594e+00 6.741026043891906738e-01
-3.786725759506225586e+00 3.510884046554565430e+00 6.203256249427795410e-01
-3.739318132400512695e+00 3.730884313583374023e+00 4.909479320049285889e-01
-3.816313266754150391e+00 3.540794372558593750e+00 4.344073534011840820e-01
-3.787728309631347656e+00 3.781824350357055664e+00 3.020616769790649414e-01
-3.855594873428344727e+00 3.579745292663574219e+00 2.471914440393447876e-01
-3.829140424728393555e+00 3.825842142105102539e+00 1.096033751964569092e-01
-3.887049913406372070e+00 3.612741470336914062e+00 5.649995431303977966e-02
-3.693616628646850586e+00 3.717789649963378906e+00 1.484939932823181152e+00
-3.719384670257568359e+00 3.746340751647949219e+00 1.283977746963500977e+00
-3.785299777984619141e+00 3.540594816207885742e+00 1.208047628402709961e+00
-3.667428731918334961e+00 3.696588516235351562e+00 1.065094113349914551e+00
-3.786088705062866211e+00 3.546291589736938477e+00 1.010236501693725586e+00
-3.632818698883056641e+00 3.664260387420654297e+00 8.597620725631713867e-01
-3.734967470169067383e+00 3.499632120132446289e+00 8.033412098884582520e-01
-3.675537824630737305e+00 3.709938526153564453e+00 6.764147281646728516e-01
-3.752081394195556641e+00 3.521821975708007812e+00 6.181787252426147461e-01
-3.701644420623779297e+00 3.738898754119873047e+00 4.890044927597045898e-01
-3.793062448501586914e+00 3.562779426574707031e+00 4.342409968376159668e-01
-3.767261028289794922e+00 3.807833433151245117e+00 3.022870719432830811e-01
-3.829918146133422852e+00 3.599914550781250000e+00 2.469567656517028809e-01
-3.798564434051513672e+00 3.842155456542968750e+00 1.094009429216384888e-01
-3.863353013992309570e+00 3.635153532028198242e+00 5.647866427898406982e-02
-3.810570716857910156e+00 3.604540824890136719e+00 1.431016325950622559e+00
-3.711295366287231445e+00 3.784354448318481445e+00 1.289177060127258301e+00
-3.763503789901733398e+00 3.563754320144653320e+00 1.208047628402709961e+00
-3.889378547668457031e+00 3.421528339385986328e+00 1.157904386520385742e+00
-3.650849819183349609e+00 3.725319385528564453e+00 1.066897749900817871e+00
-3.754998445510864258e+00 3.560675621032714844e+00 1.007751464843750000e+00
-3.626830577850341797e+00 3.703395366668701172e+00 8.637065887451171875e-01
-3.732059001922607422e+00 3.540160655975341797e+00 8.073726892471313477e-01
-3.654785633087158203e+00 3.734547615051269531e+00 6.768000721931457520e-01
-3.725363254547119141e+00 3.539990425109863281e+00 6.173438429832458496e-01
-3.682113885879516602e+00 3.765100479125976562e+00 4.894672036170959473e-01
-3.752354145050048828e+00 3.568131685256958008e+00 4.320789575576782227e-01
-3.743127822875976562e+00 3.830163240432739258e+00 3.022307455539703369e-01
-3.819335699081420898e+00 3.634364366531372070e+00 2.477076947689056396e-01
-3.826494932174682617e+00 3.644996404647827148e+00 5.626573786139488220e-02
-3.801620960235595703e+00 3.640532016754150391e+00 1.436017036437988281e+00
-3.695441722869873047e+00 3.814732074737548828e+00 1.291776537895202637e+00
-3.735941886901855469e+00 3.581387996673583984e+00 1.206231713294982910e+00
-3.874141693115234375e+00 3.450521707534790039e+00 1.159649610519409180e+00
-3.623152971267700195e+00 3.742723226547241211e+00 1.065495014190673828e+00
-3.717501878738403320e+00 3.568694353103637695e+00 1.003546237945556641e+00
-3.842524766921997070e+00 3.428379774093627930e+00 9.525700211524963379e-01
-3.650675296783447266e+00 3.773788928985595703e+00 8.748830556869506836e-01
-3.718104839324951172e+00 3.570520401000976562e+00 8.090782761573791504e-01
-3.666266202926635742e+00 3.792553663253784180e+00 6.832225322723388672e-01
-3.694985628128051758e+00 3.554522275924682617e+00 6.159126162528991699e-01
-3.661709547042846680e+00 3.790487289428710938e+00 4.898373782634735107e-01
-3.711723566055297852e+00 3.573119163513183594e+00 4.299168884754180908e-01
-3.688351631164550781e+00 3.820734024047851562e+00 2.996952235698699951e-01
-3.806936502456665039e+00 3.671183109283447266e+00 5.630831792950630188e-02
-3.728646516799926758e+00 3.614769220352172852e+00 1.416803479194641113e+00
-3.684729337692260742e+00 3.850673675537109375e+00 1.296266913414001465e+00
-3.724380254745483398e+00 3.614418029785156250e+00 1.209636569023132324e+00
-3.854346275329589844e+00 3.475534915924072266e+00 1.160085797309875488e+00
-3.696267366409301758e+00 3.865431785583496094e+00 1.093950867652893066e+00
-3.689903259277343750e+00 3.585964441299438477e+00 1.002016901969909668e+00
-3.817038059234619141e+00 3.447937726974487305e+00 9.514786601066589355e-01
-3.677198171615600586e+00 3.848178148269653320e+00 8.868812918663024902e-01
-3.711709976196289062e+00 3.608416795730590820e+00 8.124895095825195312e-01
-3.657993793487548828e+00 3.830757141113281250e+00 6.860483884811401367e-01
-3.683064460754394531e+00 3.586825609207153320e+00 6.175824403762817383e-01
-3.610199689865112305e+00 3.783348798751831055e+00 4.860430657863616943e-01
