-7.423359900712966919e-03 -6.983046531677246094e-01 7.155097275972366333e-02
-2.077017351984977722e-02 -7.026633620262145996e-01 6.533633172512054443e-02
-4.714745283126831055e-02 -7.093709111213684082e-01 6.607668846845626831e-02
-5.135492235422134399e-02 -7.070820331573486328e-01 6.589159369468688965e-02
-3.829113766551017761e-02 -7.005160450935363770e-01 5.854187905788421631e-02
-7.161515206098556519e-02 -7.303468585014343262e-01 1.485941652208566666e-02
-9.539319574832916260e-02 -7.387135624885559082e-01 1.508210599422454834e-02
-9.432002156972885132e-02 -6.958621740341186523e-01 3.299327567219734192e-02
-1.229322254657745361e-01 -7.102926373481750488e-01 1.459623873233795166e-02
-8.886689692735671997e-02 -7.170048952102661133e-01 2.712390571832656860e-02
-9.543318301439285278e-02 -6.672090291976928711e-01 8.234461420215666294e-04
-3.247622489929199219e+00 -3.254893064498901367e+00 1.364647299051284790e-01
-3.245512723922729492e+00 -3.213104248046875000e+00 1.355450749397277832e-01
-5.585713386535644531e+00 -6.878736019134521484e+00 1.082575134932994843e-02
-3.243727684020996094e+00 -3.172163486480712891e+00 1.346550881862640381e-01
-5.635437011718750000e+00 -6.853602409362792969e+00 1.084041222929954529e-02
-5.674184322357177734e+00 -6.815052509307861328e+00 1.083430275321006775e-02
-5.743609905242919922e+00 -6.812983989715576172e+00 1.088683772832155228e-02
-5.686622619628906250e+00 -6.662004470825195312e+00 1.070113573223352432e-02
-3.208930492401123047e+00 -3.211697101593017578e+00 9.192999452352523804e-02
-5.468453884124755859e+00 -6.327376365661621094e+00 1.021733041852712631e-02
-3.232131481170654297e+00 -3.195461273193359375e+00 9.203121066093444824e-02
-5.662584304809570312e+00 -6.471308231353759766e+00 1.050565764307975769e-02
-3.253108263015747070e+00 -3.176966428756713867e+00 9.207170456647872925e-02
-5.712795257568359375e+00 -6.448418140411376953e+00 1.052520610392093658e-02
-3.261027574539184570e+00 -3.145839452743530273e+00 9.174778312444686890e-02
-5.746244430541992188e+00 -6.406543254852294922e+00 1.051420997828245163e-02
-5.779396057128906250e+00 -6.364501953125000000e+00 1.050321478396654129e-02
-3.183421850204467773e+00 -3.221078157424926758e+00 4.821712896227836609e-02
-5.758782386779785156e+00 -6.264137268066406250e+00 1.039570290595293045e-02
-3.205247640609741211e+00 -3.203604698181152344e+00 4.824906587600708008e-02
-5.763726234436035156e+00 -6.192814826965332031e+00 1.033583749085664749e-02
-3.246805191040039062e+00 -3.208918333053588867e+00 2.144797593355178833e-01
-3.219863414764404297e+00 -3.178959846496582031e+00 4.817454144358634949e-02
-5.737839698791503906e+00 -6.089645862579345703e+00 1.022221706807613373e-02
-3.239308357238769531e+00 -3.159143209457397461e+00 4.817454144358634949e-02
-5.847570419311523438e+00 -6.130301952362060547e+00 1.035049837082624435e-02
-3.226945638656616211e+00 -3.108683109283447266e+00 4.770610854029655457e-02
-5.771152496337890625e+00 -5.976334095001220703e+00 1.015013456344604492e-02
-5.776955604553222656e+00 -5.909346580505371094e+00 1.009637769311666489e-02
-3.179481744766235352e+00 -3.212672472000122070e+00 5.522220395505428314e-03
-3.251626491546630859e+00 -3.247762680053710938e+00 1.725350618362426758e-01
-3.201258182525634766e+00 -3.195222616195678711e+00 5.525886081159114838e-03
-3.262245655059814453e+00 -3.218626022338867188e+00 1.720473468303680420e-01
-3.234333276748657227e+00 -3.188859462738037109e+00 5.549098830670118332e-03
-3.272629976272583008e+00 -3.189481735229492188e+00 1.715596467256546021e-01
-3.249540328979492188e+00 -3.164767742156982422e+00 5.541768390685319901e-03
-3.266015052795410156e+00 -3.141996145248413086e+00 5.536881275475025177e-03
-5.923857212066650391e+00 -5.629333972930908203e+00 9.983979165554046631e-03
-5.949537754058837891e+00 -5.584667682647705078e+00 9.969319216907024384e-03
-5.980026245117187500e+00 -5.544657230377197266e+00 9.963210672140121460e-03
-5.586948871612548828e+00 -5.116805076599121094e+00 9.255828335881233215e-03
-5.719095230102539062e+00 -5.173665046691894531e+00 9.421983733773231506e-03
-6.034839153289794922e+00 -5.392334938049316406e+00 9.887462481856346130e-03
-5.953099250793457031e+00 -5.253962993621826172e+00 9.700538590550422668e-03
-5.742498874664306641e+00 -5.005751609802246094e+00 9.307141415774822235e-03
-5.751886367797851562e+00 -4.952153205871582031e+00 9.272932074964046478e-03
-6.121932506561279297e+00 -5.205683708190917969e+00 9.817823767662048340e-03
-6.072587013244628906e+00 -5.099853038787841797e+00 9.688320569694042206e-03
-6.136862277984619141e+00 -5.089947223663330078e+00 9.740855544805526733e-03
-9.046733856201171875e+00 -6.879529476165771484e+00 1.210059300065040588e-01
-6.154052734375000000e+00 -5.040790557861328125e+00 9.718864224851131439e-03
-6.174759387969970703e+00 -4.994759559631347656e+00 9.702981449663639069e-03
-9.398782730102539062e+00 -6.966878414154052734e+00 1.245618015527725220e-01
-6.188101291656494141e+00 -4.943047046661376953e+00 9.676103480160236359e-03
-9.391322135925292969e+00 -6.872464656829833984e+00 1.239017322659492493e-01
-6.149222373962402344e+00 -4.850484371185302734e+00 9.568590670824050903e-03
-9.136648178100585938e+00 -6.600397586822509766e+00 1.200051829218864441e-01
-6.115754604339599609e+00 -4.763503551483154297e+00 9.470853023231029510e-03
-9.189188003540039062e+00 -6.552920818328857422e+00 1.201648786664009094e-01
-6.129806995391845703e+00 -4.714304924011230469e+00 9.447639808058738708e-03
-9.029706954956054688e+00 -6.355975151062011719e+00 1.175671741366386414e-01
-6.144282341003417969e+00 -4.665719032287597656e+00 9.425648488104343414e-03
-7.257715225219726562e+00 -4.300754070281982422e+00 2.503831088542938232e-01
-9.000377655029296875e+00 -6.253096103668212891e+00 1.166835352778434753e-01
-6.151992321014404297e+00 -4.612333774566650391e+00 9.393883869051933289e-03
-7.288282871246337891e+00 -4.258662223815917969e+00 2.505314648151397705e-01
-9.356081008911132812e+00 -6.415465831756591797e+00 1.207823604345321655e-01
-6.169728755950927734e+00 -4.566765308380126953e+00 9.378001093864440918e-03
-9.385331153869628906e+00 -6.351212024688720703e+00 1.206546053290367126e-01
-6.221855640411376953e+00 -4.546522140502929688e+00 9.414653293788433075e-03
-9.196276664733886719e+00 -6.141346454620361328e+00 1.177375242114067078e-01
-6.237470149993896484e+00 -4.499484539031982422e+00 9.396327659487724304e-03
-9.125241279602050781e+00 -6.013275623321533203e+00 1.163535043597221375e-01
-6.314650535583496094e+00 -4.496510505676269531e+00 9.470853023231029510e-03
-9.156936645507812500e+00 -5.953900337219238281e+00 1.162896156311035156e-01
-6.289761543273925781e+00 -4.420877456665039062e+00 9.392661973834037781e-03
-7.260656833648681641e+00 -4.295758247375488281e+00 1.708225607872009277e-01
-9.194138526916503906e+00 -5.898142337799072266e+00 1.163002699613571167e-01
-6.320055961608886719e+00 -4.384480953216552734e+00 9.397548623383045197e-03
-7.289468765258789062e+00 -4.252637863159179688e+00 1.708832830190658569e-01
-9.288456916809082031e+00 -5.878515243530273438e+00 1.170348674058914185e-01
-6.316309928894042969e+00 -4.324716091156005859e+00 9.352345019578933716e-03
-9.313324928283691406e+00 -5.814527034759521484e+00 1.168964579701423645e-01
-6.340241432189941406e+00 -4.284198760986328125e+00 9.348680265247821808e-03
-9.245801925659179688e+00 -5.693826675415039062e+00 1.156082525849342346e-01
-6.340617656707763672e+00 -4.228016853332519531e+00 9.310806170105934143e-03
-9.261763572692871094e+00 -5.625568389892578125e+00 1.153740435838699341e-01
-6.368111610412597656e+00 -4.190131187438964844e+00 9.313249029219150543e-03
-7.245936393737792969e+00 -4.340522766113281250e+00 8.992936462163925171e-02
-6.410476684570312500e+00 -4.161869049072265625e+00 9.337684139609336853e-03
-7.266406059265136719e+00 -4.292420864105224609e+00 8.985483646392822266e-02
-6.391263484954833984e+00 -4.093869686126708984e+00 9.272932074964046478e-03
-7.279645919799804688e+00 -4.240204811096191406e+00 8.969514071941375732e-02
-6.382448196411132812e+00 -4.033208847045898438e+00 9.224062785506248474e-03
-7.293386936187744141e+00 -4.188486099243164062e+00 8.954609185457229614e-02
-6.407075405120849609e+00 -3.993970632553100586e+00 9.224062785506248474e-03
-9.291611671447753906e+00 -5.260487079620361328e+00 1.136812716722488403e-01
-6.425498485565185547e+00 -3.950916051864624023e+00 9.215511381626129150e-03
-9.445958137512207031e+00 -5.271597862243652344e+00 1.151717603206634521e-01
-6.441069602966308594e+00 -3.906230211257934570e+00 9.203294292092323303e-03
-9.528943061828613281e+00 -5.241491317749023438e+00 1.157892420887947083e-01
-6.458909034729003906e+00 -3.863041877746582031e+00 9.194741956889629364e-03
-7.283806324005126953e+00 -4.299377441406250000e+00 3.175335228443145752e-01
-9.414117813110351562e+00 -5.103340625762939453e+00 1.140113100409507751e-01
-6.488520145416259766e+00 -3.826894283294677734e+00 9.203294292092323303e-03
-7.309185504913330078e+00 -4.254100799560546875e+00 3.174960017204284668e-01
-9.414383888244628906e+00 -5.028990745544433594e+00 1.136386916041374207e-01
-6.555101394653320312e+00 -3.812145233154296875e+00 9.264379739761352539e-03
-9.445064544677734375e+00 -4.971130371093750000e+00 1.136386916041374207e-01
-6.570561408996582031e+00 -3.767375707626342773e+00 9.253384545445442200e-03
-9.203749656677246094e+00 -4.772235393524169922e+00 1.103809177875518799e-01
-6.575272560119628906e+00 -3.716655015945434570e+00 9.227728471159934998e-03
-9.256902694702148438e+00 -4.727952957153320312e+00 1.106683686375617981e-01
-6.592712402343750000e+00 -3.673319578170776367e+00 9.220398031175136566e-03
-9.293778419494628906e+00 -4.675108909606933594e+00 1.107641831040382385e-01
-6.614250659942626953e+00 -3.632316827774047852e+00 9.219176135957241058e-03
-9.187885284423828125e+00 -4.551415443420410156e+00 1.091672405600547791e-01
-6.627618789672851562e+00 -3.586904525756835938e+00 9.206959046423435211e-03
-9.356739997863769531e+00 -4.563776493072509766e+00 1.108387112617492676e-01
-6.612443923950195312e+00 -3.526407003402709961e+00 9.155646897852420807e-03
-1.143836212158203125e+01 -4.507852554321289062e+00 3.648948073387145996e-01
-9.668511390686035156e+00 -4.642622947692871094e+00 1.141922995448112488e-01
-6.652546882629394531e+00 -3.495535373687744141e+00 9.181302972137928009e-03
-9.203205108642578125e+00 -4.349905490875244141e+00 1.083794087171554565e-01
-6.672981739044189453e+00 -3.454190492630004883e+00 9.180081076920032501e-03
-9.436439514160156250e+00 -4.389511585235595703e+00 1.108067780733108521e-01
-6.678014755249023438e+00 -3.405004501342773438e+00 9.158089756965637207e-03
-9.463195800781250000e+00 -4.331527709960937500e+00 1.108067780733108521e-01
-6.660355091094970703e+00 -3.344667911529541016e+00 9.105555713176727295e-03
-9.465889930725097656e+00 -4.262706279754638672e+00 1.105299741029739380e-01
-6.624279975891113281e+00 -3.275811433792114258e+00 9.028586558997631073e-03
-1.142559719085693359e+01 -4.574901580810546875e+00 2.492090165615081787e-01
-9.469923973083496094e+00 -4.194824695587158203e+00 1.102744564414024353e-01
-6.631668090820312500e+00 -3.228975057601928711e+00 9.011481888592243195e-03
-1.144880104064941406e+01 -4.502879619598388672e+00 2.491077929735183716e-01
-9.556905746459960938e+00 -4.163396358489990234e+00 1.109877526760101318e-01
-6.759566307067871094e+00 -3.240092277526855469e+00 9.158089756965637207e-03
-1.147714805603027344e+01 -4.432906627655029297e+00 2.491280436515808105e-01
-9.567564964294433594e+00 -4.098378181457519531e+00 1.108174175024032593e-01
-6.750379562377929688e+00 -3.184900999069213867e+00 9.118994697928428650e-03
-9.590689659118652344e+00 -4.038819789886474609e+00 1.107961237430572510e-01
-6.749840736389160156e+00 -3.134156227111816406e+00 9.092116728425025940e-03
-9.388928413391113281e+00 -3.886202335357666016e+00 1.081877797842025757e-01
-6.733471870422363281e+00 -3.076473712921142578e+00 9.044469334185123444e-03
-9.693251609802246094e+00 -3.942674398422241211e+00 1.114136055111885071e-01
-6.744013309478759766e+00 -3.031410217285156250e+00 9.033473208546638489e-03
-9.717261314392089844e+00 -3.883123397827148438e+00 1.114136055111885071e-01
-6.895102500915527344e+00 -3.048607587814331055e+00 9.210624732077121735e-03
-9.444908142089843750e+00 -3.707243919372558594e+00 1.080280840396881104e-01
-6.811885356903076172e+00 -2.961980342864990234e+00 9.075012058019638062e-03
-9.578508377075195312e+00 -3.692018032073974609e+00 1.092949956655502319e-01
-6.776601314544677734e+00 -2.897326469421386719e+00 9.004151448607444763e-03
-9.492496490478515625e+00 -3.592123031616210938e+00 1.080600246787071228e-01
-6.881829738616943359e+00 -2.892501592636108398e+00 9.120215661823749542e-03
-9.648403167724609375e+00 -3.583597183227539062e+00 1.095824465155601501e-01
-6.784842967987060547e+00 -2.802876472473144531e+00 8.968722075223922729e-03
-9.595049858093261719e+00 -3.496936082839965820e+00 1.087307408452033997e-01
-6.964988231658935547e+00 -2.827391862869262695e+00 9.183745831251144409e-03
-9.581488609313964844e+00 -3.425540924072265625e+00 1.083368286490440369e-01
-6.788075447082519531e+00 -2.707180500030517578e+00 8.928405120968818665e-03
-1.143932342529296875e+01 -4.485612869262695312e+00 4.612939655780792236e-01
-9.647621154785156250e+00 -3.382566213607788086e+00 1.088478565216064453e-01
-6.858562469482421875e+00 -2.686633110046386719e+00 8.999264799058437347e-03
-9.619021415710449219e+00 -3.306403398513793945e+00 1.082942485809326172e-01
-6.859985351562500000e+00 -2.638755083084106445e+00 8.979717269539833069e-03
-9.636284828186035156e+00 -3.246362209320068359e+00 1.082623079419136047e-01
-6.978018760681152344e+00 -2.635120868682861328e+00 9.112886153161525726e-03
-9.697802543640136719e+00 -3.200964212417602539e+00 1.087307408452033997e-01
-6.972489356994628906e+00 -2.584261655807495117e+00 9.084786288440227509e-03
-9.538387298583984375e+00 -3.083572864532470703e+00 1.067292392253875732e-01
-6.965660095214843750e+00 -2.533227920532226562e+00 9.055464528501033783e-03
-9.610513687133789062e+00 -3.041886091232299805e+00 1.073254272341728210e-01
-7.046061038970947266e+00 -2.513623952865600586e+00 9.139764122664928436e-03
-9.660517692565917969e+00 -2.992624044418334961e+00 1.076767519116401672e-01
-7.047193527221679688e+00 -2.465389490127563477e+00 9.121438488364219666e-03
-9.664344787597656250e+00 -2.928941726684570312e+00 1.075170710682868958e-01
-6.995028018951416016e+00 -2.399068832397460938e+00 9.034695103764533997e-03
-9.392600059509277344e+00 -2.783775329589843750e+00 1.043018847703933716e-01
-6.983076095581054688e+00 -2.347182035446166992e+00 9.000486694276332855e-03
-9.681311607360839844e+00 -2.804837942123413086e+00 1.073147878050804138e-01
-6.986898422241210938e+00 -2.300849676132202148e+00 8.987047709524631500e-03
-9.727203369140625000e+00 -2.753552436828613281e+00 1.076341718435287476e-01
-6.986608982086181641e+00 -2.253331422805786133e+00 8.968722075223922729e-03
-9.794032096862792969e+00 -2.707671165466308594e+00 1.081877797842025757e-01
-6.947855949401855469e+00 -2.193858861923217773e+00 8.901526220142841339e-03
-9.819150924682617188e+00 -2.649869680404663086e+00 1.082835942506790161e-01
-6.948766231536865234e+00 -2.147348165512084961e+00 8.885643444955348969e-03
-9.817819595336914062e+00 -2.584987878799438477e+00 1.080919653177261353e-01
-6.954153537750244141e+00 -2.102355957031250000e+00 8.875870145857334137e-03
-9.879984855651855469e+00 -2.536633968353271484e+00 1.086029857397079468e-01
-6.959250926971435547e+00 -2.057378530502319336e+00 8.866096846759319305e-03
-9.866262435913085938e+00 -2.468682289123535156e+00 1.082835942506790161e-01
-6.947726249694824219e+00 -2.007698297500610352e+00 8.835553191602230072e-03
-9.913284301757812500e+00 -2.415910720825195312e+00 1.086349263787269592e-01
-6.975312232971191406e+00 -1.969377398490905762e+00 8.855100721120834351e-03
-9.928894042968750000e+00 -2.355269432067871094e+00 1.086455732583999634e-01
-7.015221595764160156e+00 -1.934248924255371094e+00 8.890531025826931000e-03
-9.865211486816406250e+00 -2.276316881179809570e+00 1.077938750386238098e-01
-7.035648822784423828e+00 -1.893506765365600586e+00 8.901526220142841339e-03
-9.762884140014648438e+00 -2.189700365066528320e+00 1.065269559621810913e-01
-7.017150878906250000e+00 -1.842428684234619141e+00 8.863652125000953674e-03
-9.657916069030761719e+00 -2.104000568389892578e+00 1.052387505769729614e-01
-7.023479938507080078e+00 -1.798097610473632812e+00 8.857544511556625366e-03
-9.659882545471191406e+00 -2.042425632476806641e+00 1.051216423511505127e-01
-7.032440185546875000e+00 -1.754484295845031738e+00 8.855100721120834351e-03
-9.650682449340820312e+00 -1.978696823120117188e+00 1.048874184489250183e-01
-7.065423011779785156e+00 -1.716731548309326172e+00 8.883200585842132568e-03
-9.792104721069335938e+00 -1.945161342620849609e+00 1.062927320599555969e-01
-7.111830711364746094e+00 -1.681861758232116699e+00 8.928405120968818665e-03
-9.751811981201171875e+00 -1.875034809112548828e+00 1.057284846901893616e-01
-7.112270832061767578e+00 -1.635951042175292969e+00 8.916187100112438202e-03
-9.848663330078125000e+00 -1.831065177917480469e+00 1.066547110676765442e-01
-7.078258991241455078e+00 -1.582462072372436523e+00 8.861209265887737274e-03
-9.898096084594726562e+00 -1.777493357658386230e+00 1.070699170231819153e-01
-7.106402873992919922e+00 -1.543032407760620117e+00 8.884422481060028076e-03
-9.743292808532714844e+00 -1.688048839569091797e+00 1.052813455462455750e-01
-7.118672847747802734e+00 -1.500018000602722168e+00 8.888088166713714600e-03
-9.727823257446289062e+00 -1.623952388763427734e+00 1.050045415759086609e-01
-7.129702091217041016e+00 -1.456710696220397949e+00 8.890531025826931000e-03
-9.800789833068847656e+00 -1.574383139610290527e+00 1.056858897209167480e-01
-7.130658149719238281e+00 -1.411382913589477539e+00 8.880757726728916168e-03
-9.760853767395019531e+00 -1.506590247154235840e+00 1.051535829901695251e-01
-7.156862258911132812e+00 -1.370990037918090820e+00 8.902748115360736847e-03
-9.865862846374511719e+00 -1.460877895355224609e+00 1.061862781643867493e-01
-7.219220638275146484e+00 -1.337066650390625000e+00 8.969943970441818237e-03
-9.915231704711914062e+00 -1.406070828437805176e+00 1.066227704286575317e-01
-7.115069389343261719e+00 -1.272672533988952637e+00 8.830665610730648041e-03
-9.931600570678710938e+00 -1.346280217170715332e+00 1.067079454660415649e-01
-7.076428890228271484e+00 -1.220999836921691895e+00 8.773244917392730713e-03
-9.879180908203125000e+00 -1.277493357658386230e+00 1.060585230588912964e-01
-7.077868938446044922e+00 -1.176572799682617188e+00 8.765914477407932281e-03
-9.975162506103515625e+00 -1.227723002433776855e+00 1.070060431957244873e-01
-7.089892387390136719e+00 -1.133911371231079102e+00 8.772023022174835205e-03
-9.762020111083984375e+00 -1.140728712081909180e+00 1.046425625681877136e-01
-7.087821006774902344e+00 -1.089020490646362305e+00 8.761027827858924866e-03
-9.718148231506347656e+00 -1.075200557708740234e+00 1.040996015071868896e-01
-7.098326683044433594e+00 -1.046093106269836426e+00 8.765914477407932281e-03
-9.881699562072753906e+00 -1.031960964202880859e+00 1.057817190885543823e-01
-7.271954059600830078e+00 -1.026132225990295410e+00 8.972386829555034637e-03
-1.000328254699707031e+01 -9.826481938362121582e-01 1.070166826248168945e-01
-7.112611770629882812e+00 -9.591742753982543945e-01 8.768358267843723297e-03
-9.829892158508300781e+00 -9.047540426254272461e-01 1.051003560423851013e-01
-7.229447841644287109e+00 -9.298010468482971191e-01 8.905191905796527863e-03
-9.723674774169921875e+00 -8.348417282104492188e-01 1.039079651236534119e-01
-7.212187290191650391e+00 -8.826305270195007324e-01 8.877092041075229645e-03
-9.873147964477539062e+00 -7.866789698600769043e-01 1.054516807198524475e-01
-7.148928165435791016e+00 -8.303995132446289062e-01 8.792792446911334991e-03
-9.981503486633300781e+00 -7.337073683738708496e-01 1.065588966012001038e-01
-7.151900768280029297e+00 -7.863002419471740723e-01 8.790348656475543976e-03
-9.901014328002929688e+00 -6.667374968528747559e-01 1.056539639830589294e-01
-7.154601573944091797e+00 -7.421958446502685547e-01 8.787905797362327576e-03
-9.870984077453613281e+00 -6.038973927497863770e-01 1.052919849753379822e-01
-7.152053833007812500e+00 -6.976025104522705078e-01 8.779353462159633636e-03
-1.010414409637451172e+01 -5.559541583061218262e-01 1.077406406402587891e-01
-6.964000225067138672e+00 -6.361481547355651855e-01 8.543559350073337555e-03
-1.009737682342529297e+01 -4.934577047824859619e-01 1.076341718435287476e-01
-7.128191471099853516e+00 -6.070678830146789551e-01 8.740258403122425079e-03
-1.005226135253906250e+01 -4.294434189796447754e-01 1.071231439709663391e-01
-7.110847473144531250e+00 -5.616651177406311035e-01 8.714601397514343262e-03
-9.977763175964355469e+00 -3.649415671825408936e-01 1.063033863902091980e-01
-7.063294410705566406e+00 -5.143194198608398438e-01 8.652293123304843903e-03
-1.002579021453857422e+01 -3.051114678382873535e-01 1.067931130528450012e-01
-7.053346157073974609e+00 -4.701056182384490967e-01 8.636411279439926147e-03
-1.075187778472900391e+01 5.161558389663696289e-01 3.194757699966430664e-01
-9.846537590026855469e+00 -2.391933053731918335e-01 1.048661321401596069e-01
-7.053103446960449219e+00 -4.266371428966522217e-01 8.632745593786239624e-03
-1.071756839752197266e+01 5.804427266120910645e-01 3.185561597347259521e-01
-1.014975261688232422e+01 -1.842527091503143311e-01 1.080813184380531311e-01
-7.044604778289794922e+00 -3.827552795410156250e-01 8.619306609034538269e-03
-1.006070327758789062e+01 -1.208902150392532349e-01 1.071231439709663391e-01
-7.080780982971191406e+00 -3.411594331264495850e-01 8.660845458507537842e-03
-1.006125640869140625e+01 -5.915662273764610291e-02 1.071231439709663391e-01
-7.098727226257324219e+00 -2.983781099319458008e-01 8.680393919348716736e-03
-1.007042884826660156e+01 2.581506501883268356e-03 1.072189584374427795e-01
-7.023473739624023438e+00 -2.520539760589599609e-01 8.586320094764232635e-03
-1.072409820556640625e+01 4.562699198722839355e-01 2.173442691564559937e-01
-1.009422206878662109e+01 6.452585756778717041e-02 1.074744760990142822e-01
-7.062871456146240234e+00 -2.100837975740432739e-01 8.632745593786239624e-03
-1.072509193420410156e+01 5.222576856613159180e-01 2.174252569675445557e-01
-1.009663581848144531e+01 1.264992058277130127e-01 1.075064167380332947e-01
-6.970053195953369141e+00 -1.645246744155883789e-01 8.517903275787830353e-03
-1.069572925567626953e+01 5.866321921348571777e-01 2.168989032506942749e-01
-1.010066890716552734e+01 1.885419338941574097e-01 1.075596511363983154e-01
-6.982930183410644531e+00 -1.219636946916580200e-01 8.532564155757427216e-03
-7.384813785552978516e+00 7.190045118331909180e-01 2.202125340700149536e-01
-1.010731792449951172e+01 2.507132589817047119e-01 1.076448112726211548e-01
-6.970547676086425781e+00 -7.896767556667327881e-02 8.516681380569934845e-03
-7.438923358917236328e+00 7.703782320022583008e-01 2.219628542661666870e-01
-1.032447338104248047e+01 3.194994330406188965e-01 1.099763661623001099e-01
-7.075899600982666016e+00 -3.674091026186943054e-02 8.644962683320045471e-03
-1.021239948272705078e+01 3.787664175033569336e-01 1.088052615523338318e-01
-6.966992378234863281e+00 6.573837250471115112e-03 8.511794731020927429e-03
-1.042167282104492188e+01 4.505780637264251709e-01 1.110622808337211609e-01
-6.948821067810058594e+00 4.919494315981864929e-02 8.489803411066532135e-03
-1.037376976013183594e+01 5.122963190078735352e-01 1.105831936001777649e-01
-6.929389953613281250e+00 9.158009290695190430e-02 8.466590195894241333e-03
-7.440140724182128906e+00 6.834892034530639648e-01 1.512866765260696411e-01
-1.036843395233154297e+01 5.758280754089355469e-01 1.105619072914123535e-01
-6.909701347351074219e+00 1.337286531925201416e-01 8.443377912044525146e-03
-7.431826591491699219e+00 7.287378907203674316e-01 1.512057036161422729e-01
-1.028286647796630859e+01 6.343877315521240234e-01 1.096889078617095947e-01
-6.932743072509765625e+00 1.767348945140838623e-01 8.472699671983718872e-03
-7.409315586090087891e+00 7.724589109420776367e-01 1.508412957191467285e-01
-1.018799495697021484e+01 6.913099884986877441e-01 1.087201014161109924e-01
-6.889548778533935547e+00 2.179421186447143555e-01 8.421386592090129852e-03
-7.409405231475830078e+00 8.184559345245361328e-01 1.509425193071365356e-01
-1.031818389892578125e+01 7.637744545936584473e-01 1.101573407649993896e-01
-6.851108551025390625e+00 2.588147521018981934e-01 8.376182988286018372e-03
-1.030533027648925781e+01 8.264318704605102539e-01 1.100721806287765503e-01
-6.831408500671386719e+00 3.000576198101043701e-01 8.354191668331623077e-03
-1.076311206817626953e+01 5.351721048355102539e-01 4.045701026916503906e-01
-1.025423812866210938e+01 8.856903314590454102e-01 1.095824465155601501e-01
-6.824445247650146484e+00 3.417186737060546875e-01 8.348082192242145538e-03
-7.438780784606933594e+00 6.885198354721069336e-01 7.953856140375137329e-02
-6.834200859069824219e+00 3.842598795890808105e-01 8.362743072211742401e-03
-7.434415817260742188e+00 7.341503500938415527e-01 7.953856140375137329e-02
-6.834709167480468750e+00 4.263733327388763428e-01 8.366408757865428925e-03
-7.417838096618652344e+00 7.785008549690246582e-01 7.941081374883651733e-02
-6.827973365783691406e+00 4.680287241935729980e-01 8.361522108316421509e-03
-7.407952308654785156e+00 8.234488368034362793e-01 7.935757935047149658e-02
-6.769128322601318359e+00 5.057432651519775391e-01 8.293104358017444611e-03
-1.024012088775634766e+01 1.201918601989746094e+00 1.097740828990936279e-01
-6.989169120788574219e+00 5.653278827667236328e-01 8.566772565245628357e-03
-1.020873546600341797e+01 1.261784315109252930e+00 1.095185726881027222e-01
-6.705627918243408203e+00 5.838288068771362305e-01 8.223466575145721436e-03
-1.331933403015136719e+01 2.718928575515747070e+00 4.034609198570251465e-01
-1.021765899658203125e+01 1.326588869094848633e+00 1.096995621919631958e-01
-6.821400642395019531e+00 6.361045837402343750e-01 8.370073512196540833e-03
-7.435321331024169922e+00 7.367787361145019531e-01 2.805054485797882080e-01
-9.922982215881347656e+00 1.350293159484863281e+00 1.066227704286575317e-01
-6.763634204864501953e+00 6.726043224334716797e-01 8.304100483655929565e-03
-7.428673267364501953e+00 7.821778655052185059e-01 2.804304063320159912e-01
-1.014319229125976562e+01 1.443702936172485352e+00 1.090820655226707458e-01
-6.748440742492675781e+00 7.129368185997009277e-01 8.290661498904228210e-03
-9.910610198974609375e+00 1.472696661949157715e+00 1.066760048270225525e-01
-6.575986385345458984e+00 7.355450391769409180e-01 8.084188215434551239e-03
-9.468572616577148438e+00 1.466446995735168457e+00 1.020129248499870300e-01
-6.731238842010498047e+00 7.947588562965393066e-01 8.280887268483638763e-03
-9.702247619628906250e+00 1.563656568527221680e+00 1.046319082379341125e-01
-6.706388473510742188e+00 8.335790634155273438e-01 8.256453089416027069e-03
-1.329806900024414062e+01 2.724108695983886719e+00 2.748587131500244141e-01
-9.832512855529785156e+00 1.646611213684082031e+00 1.061436831951141357e-01
-6.648593425750732422e+00 8.678530454635620117e-01 8.191701024770736694e-03
-1.328403854370117188e+01 2.806272745132446289e+00 2.749194502830505371e-01
-9.832076072692871094e+00 1.708623528480529785e+00 1.062501519918441772e-01
-6.621345996856689453e+00 9.056503176689147949e-01 8.164823055267333984e-03
-9.829280853271484375e+00 1.770337820053100586e+00 1.063353270292282104e-01
-6.591906547546386719e+00 9.428629279136657715e-01 8.135501295328140259e-03
-9.837892532348632812e+00 1.834281444549560547e+00 1.065482497215270996e-01
-6.579073905944824219e+00 9.822586774826049805e-01 8.126949891448020935e-03
-9.849035263061523438e+00 1.898965120315551758e+00 1.067931130528450012e-01
-6.591697216033935547e+00 1.025529503822326660e+00 8.150162175297737122e-03
-9.886232376098632812e+00 1.969128489494323730e+00 1.073254272341728210e-01
-6.597126007080078125e+00 1.067873477935791016e+00 8.164823055267333984e-03
-9.879840850830078125e+00 2.030960321426391602e+00 1.073893085122108459e-01
-6.607213973999023438e+00 1.111151933670043945e+00 8.185592480003833771e-03
-9.757633209228515625e+00 2.068320274353027344e+00 1.061969175934791565e-01
-6.477132320404052734e+00 1.130185723304748535e+00 8.032876066863536835e-03
-9.636320114135742188e+00 2.104471445083618164e+00 1.050151810050010681e-01
-6.575367927551269531e+00 1.188946127891540527e+00 8.163601160049438477e-03
-9.577373504638671875e+00 2.153250217437744141e+00 1.045148000121116638e-01
-6.568932056427001953e+00 1.229453444480895996e+00 8.164823055267333984e-03
-9.560084342956542969e+00 2.211074113845825195e+00 1.044722199440002441e-01
-6.550465106964111328e+00 1.267646670341491699e+00 8.151384070515632629e-03
-9.628054618835449219e+00 2.289120674133300781e+00 1.053665056824684143e-01
-6.520990371704101562e+00 1.303503274917602539e+00 8.124506101012229919e-03
-9.518631935119628906e+00 2.324903011322021484e+00 1.043231710791587830e-01
-6.511889934539794922e+00 1.343288779258728027e+00 8.123284205794334412e-03
-9.594388961791992188e+00 2.405883312225341797e+00 1.053132712841033936e-01
-6.483963012695312500e+00 1.379058957099914551e+00 8.098849095404148102e-03
-9.615278244018554688e+00 2.473927259445190430e+00 1.057071909308433533e-01
-6.477333068847656250e+00 1.419246077537536621e+00 8.101293817162513733e-03
-9.537071228027343750e+00 2.516297340393066406e+00 1.050151810050010681e-01
-6.462649822235107422e+00 1.457643389701843262e+00 8.093963377177715302e-03
-9.471257209777832031e+00 2.561194896697998047e+00 1.044615730643272400e-01
-6.462351322174072266e+00 1.499303936958312988e+00 8.104958571493625641e-03
-9.454401016235351562e+00 2.618994474411010742e+00 1.044509261846542358e-01
-6.415093898773193359e+00 1.529880881309509277e+00 8.057311177253723145e-03
-9.434304237365722656e+00 2.675864696502685547e+00 1.044083386659622192e-01
-6.415298938751220703e+00 1.571593880653381348e+00 8.069528266787528992e-03
-9.419628143310546875e+00 2.734259605407714844e+00 1.044296249747276306e-01
-6.398746490478515625e+00 1.609220504760742188e+00 8.060975931584835052e-03
-9.502366065979003906e+00 2.821608066558837891e+00 1.055368483066558838e-01
-6.375195503234863281e+00 1.644954323768615723e+00 8.043871261179447174e-03
-9.665711402893066406e+00 2.934767484664916992e+00 1.075489968061447144e-01
-6.368849277496337891e+00 1.685063958168029785e+00 8.048758842051029205e-03
-9.661848068237304688e+00 2.998465776443481445e+00 1.077087000012397766e-01
-6.357425212860107422e+00 1.723849058151245117e+00 8.047536946833133698e-03
-9.651845932006835938e+00 3.060413360595703125e+00 1.078045144677162170e-01
-6.320713043212890625e+00 1.755599260330200195e+00 8.014550432562828064e-03
-9.682353973388671875e+00 3.135598421096801758e+00 1.083581224083900452e-01
-6.327135562896728516e+00 1.799273014068603516e+00 8.036541752517223358e-03
-9.593626022338867188e+00 3.172033786773681641e+00 1.075809374451637268e-01
-6.323657512664794922e+00 1.840297102928161621e+00 8.046315051615238190e-03
-1.430970287322998047e+01 6.011572360992431641e+00 4.606574773788452148e-01
-9.445129394531250000e+00 3.187356710433959961e+00 1.061330437660217285e-01
-6.268158435821533203e+00 1.865939259529113770e+00 7.990116253495216370e-03
-1.422567081451416016e+01 6.079229354858398438e+00 4.591445028781890869e-01
-9.440521240234375000e+00 3.250459432601928711e+00 1.063033863902091980e-01
-6.258504390716552734e+00 1.904947161674499512e+00 7.992559112608432770e-03
-9.412851333618164062e+00 3.305673599243164062e+00 1.062182113528251648e-01
-6.255291938781738281e+00 1.945986270904541016e+00 8.003554306924343109e-03
-9.473352432250976562e+00 3.392359256744384766e+00 1.071337983012199402e-01
-6.248951911926269531e+00 1.986148834228515625e+00 8.010884746909141541e-03
-9.401636123657226562e+00 3.431907176971435547e+00 1.065588966012001038e-01
-6.219527244567871094e+00 2.018896818161010742e+00 7.988894358277320862e-03
-9.330729484558105469e+00 3.471051931381225586e+00 1.059946417808532715e-01
-6.249737262725830078e+00 2.071177005767822266e+00 8.043871261179447174e-03
-1.427760314941406250e+01 6.009634017944335938e+00 3.136672973632812500e-01
-9.380318641662597656e+00 3.555171966552734375e+00 1.068037599325180054e-01
-6.259646415710449219e+00 2.117175340652465820e+00 8.073193021118640900e-03
-1.423678398132324219e+01 6.095552444458007812e+00 3.135863244533538818e-01
-9.401238441467285156e+00 3.629226684570312500e+00 1.072934865951538086e-01
-6.212507247924804688e+00 2.143800735473632812e+00 8.029211312532424927e-03
-9.015851974487304688e+00 3.544169425964355469e+00 1.031414344906806946e-01
-6.199235916137695312e+00 2.181879520416259766e+00 8.029211312532424927e-03
-9.165680885314941406e+00 3.668156623840332031e+00 1.051109954714775085e-01
-6.194202423095703125e+00 2.222916126251220703e+00 8.040206506848335266e-03
-9.328213691711425781e+00 3.799772024154663086e+00 1.072402596473693848e-01
-6.191716194152832031e+00 2.265003919601440430e+00 8.054867386817932129e-03
-9.265003204345703125e+00 3.840472698211669922e+00 1.067824661731719971e-01
-6.166457653045654297e+00 2.298761129379272461e+00 8.040206506848335266e-03
-9.232972145080566406e+00 3.893752336502075195e+00 1.066866517066955566e-01
-6.130734920501708984e+00 2.328388452529907227e+00 8.012106642127037048e-03
-9.287936210632324219e+00 3.984233140945434570e+00 1.076022312045097351e-01
-6.113534927368164062e+00 2.364879846572875977e+00 8.008441887795925140e-03
-3.260959386825561523e+00 1.712722659111022949e+00 1.093201115727424622e-01
-9.301808357238769531e+00 4.057940959930419922e+00 1.080493777990341187e-01
-6.067275047302246094e+00 2.389886617660522461e+00 7.966903038322925568e-03
-3.244214534759521484e+00 1.729407906532287598e+00 1.091124489903450012e-01
-9.264852523803710938e+00 4.109668731689453125e+00 1.079109758138656616e-01
-6.047855854034423828e+00 2.425208806991577148e+00 7.960794493556022644e-03
-3.228267192840576172e+00 1.746427774429321289e+00 1.089344546198844910e-01
-9.219407081604003906e+00 4.157395839691162109e+00 1.076767519116401672e-01
-6.032861232757568359e+00 2.462272167205810547e+00 7.960794493556022644e-03
-3.213985681533813477e+00 1.764279246330261230e+00 1.088157892227172852e-01
-9.122821807861328125e+00 4.181388854980468750e+00 1.068463400006294250e-01
-6.011174678802490234e+00 2.496557712554931641e+00 7.952242158353328705e-03
-3.163803100585937500e+00 1.762080430984497070e+00 1.074808090925216675e-01
-9.393398284912109375e+00 4.375349521636962891e+00 1.103276908397674561e-01
-6.001269817352294922e+00 2.535729885101318359e+00 7.959572598338127136e-03
-9.011169433593750000e+00 4.264792919158935547e+00 1.061436831951141357e-01
-6.035209655761718750e+00 2.593827724456787109e+00 8.025545626878738403e-03
-8.958698272705078125e+00 4.307438850402832031e+00 1.058349534869194031e-01
-6.004520416259765625e+00 2.624402523040771484e+00 8.005998097360134125e-03
-3.291875123977661133e+00 1.756244301795959473e+00 2.105585932731628418e-01
-3.242024421691894531e+00 1.731102585792541504e+00 7.441855221986770630e-02
-9.094729423522949219e+00 4.441753864288330078e+00 1.077619269490242004e-01
-6.029426574707031250e+00 2.679470777511596680e+00 8.060975931584835052e-03
-3.272257089614868164e+00 1.771656155586242676e+00 2.099951505661010742e-01
-3.249801397323608398e+00 1.760965466499328613e+00 7.484368979930877686e-02
-9.063720703125000000e+00 4.495697021484375000e+00 1.077193394303321838e-01
-5.989177703857421875e+00 2.705711841583251953e+00 8.029211312532424927e-03
-3.214946985244750977e+00 1.766222119331359863e+00 2.070088982582092285e-01
-3.217908859252929688e+00 1.769311666488647461e+00 7.435781508684158325e-02
-9.023462295532226562e+00 4.544928550720214844e+00 1.075702905654907227e-01
-5.993364810943603516e+00 2.752007484436035156e+00 8.057311177253723145e-03
-8.919731140136718750e+00 4.561510562896728516e+00 1.066653504967689514e-01
-5.913838386535644531e+00 2.759553194046020508e+00 7.973011583089828491e-03
-3.304943084716796875e+00 1.715796351432800293e+00 3.964684903621673584e-02
-5.883240699768066406e+00 2.789361715316772461e+00 7.954685017466545105e-03
-3.372256040573120117e+00 1.774840354919433594e+00 1.790460199117660522e-01
-3.299660682678222656e+00 1.738839864730834961e+00 3.971073031425476074e-02
-5.879528999328613281e+00 2.831917285919189453e+00 7.973011583089828491e-03
-3.308437824249267578e+00 1.767260193824768066e+00 1.762300878763198853e-01
-3.282757043838500977e+00 1.755752325057983398e+00 3.963620588183403015e-02
-5.934801101684570312e+00 2.903536558151245117e+00 8.071972057223320007e-03
-3.272943019866943359e+00 1.774198055267333984e+00 1.749159842729568481e-01
-3.256981611251831055e+00 1.767752766609191895e+00 3.945521637797355652e-02
-5.821050167083740234e+00 2.892285823822021484e+00 7.941246964037418365e-03
-3.250617265701293945e+00 1.787988662719726562e+00 1.743058711290359497e-01
-3.232935428619384766e+00 1.780468344688415527e+00 3.929552435874938965e-02
-5.838013172149658203e+00 2.945516347885131836e+00 7.988894358277320862e-03
-3.216712236404418945e+00 1.797345280647277832e+00 3.923164308071136475e-02
-5.812709331512451172e+00 2.977634668350219727e+00 7.979120127856731415e-03
-3.194314479827880859e+00 1.810638546943664551e+00 3.909324109554290771e-02
-3.300399065017700195e+00 1.716317772865295410e+00 4.544836468994617462e-03
-3.246554613113403320e+00 1.712257266044616699e+00 1.377954334020614624e-01
-9.402065277099609375e+00 5.405881881713867188e+00 1.154698580503463745e-01
-3.280962467193603516e+00 1.731868267059326172e+00 4.532619379460811615e-03
-3.244797468185424805e+00 1.736861348152160645e+00 1.381705999374389648e-01
-9.542342185974121094e+00 5.564720153808593750e+00 1.176097691059112549e-01
-3.266747951507568359e+00 1.750078201293945312e+00 4.527732264250516891e-03
-3.206857919692993164e+00 1.741951823234558105e+00 1.370076090097427368e-01
-9.347929000854492188e+00 5.528487682342529297e+00 1.156295463442802429e-01
-3.254191160202026367e+00 1.769134521484375000e+00 4.525288939476013184e-03
-9.402158737182617188e+00 5.638713836669921875e+00 1.167261227965354919e-01
-3.238896608352661133e+00 1.786653399467468262e+00 4.519179929047822952e-03
-9.449403762817382812e+00 5.746174335479736328e+00 1.177481636404991150e-01
-3.217401504516601562e+00 1.800632834434509277e+00 4.504519514739513397e-03
-9.437800407409667969e+00 5.818740367889404297e+00 1.180462613701820374e-01
-3.208031415939331055e+00 1.821327924728393555e+00 4.506962839514017105e-03
-9.713112831115722656e+00 6.071047306060791016e+00 1.219534575939178467e-01
-5.801720619201660156e+00 3.341107606887817383e+00 8.179483935236930847e-03
-9.577696800231933594e+00 6.068449974060058594e+00 1.207184866070747375e-01
-5.772475719451904297e+00 3.371599912643432617e+00 8.167266845703125000e-03
-9.415759086608886719e+00 6.047130584716796875e+00 1.191428378224372864e-01
-5.731029987335205078e+00 3.394724369049072266e+00 8.137945085763931274e-03
-9.551950454711914062e+00 6.217710971832275391e+00 1.213466152548789978e-01
-5.760669708251953125e+00 3.460205078125000000e+00 8.210026659071445465e-03
-9.773203849792480469e+00 6.447453022003173828e+00 1.246576160192489624e-01
-5.754703044891357422e+00 3.504849672317504883e+00 8.232017979025840759e-03
-9.517325401306152344e+00 6.362803459167480469e+00 1.218895763158798218e-01
-5.823280811309814453e+00 3.595785617828369141e+00 8.361522108316421509e-03
-9.771165847778320312e+00 6.619618892669677734e+00 1.256583631038665771e-01
-5.840098381042480469e+00 3.655856609344482422e+00 8.417720906436443329e-03
-9.757569313049316406e+00 6.698123931884765625e+00 1.260097026824951172e-01
-5.840353488922119141e+00 3.706088304519653320e+00 8.450708352029323578e-03
-9.723674774169921875e+00 6.763007640838623047e+00 1.261055171489715576e-01
-5.788908004760742188e+00 3.723461627960205078e+00 8.409169502556324005e-03
-5.757575035095214844e+00 3.753450155258178711e+00 8.396951481699943542e-03
-9.693663597106933594e+00 6.920168399810791016e+00 1.268081665039062500e-01
-5.743613719940185547e+00 3.794771194458007812e+00 8.410390466451644897e-03
-9.635624885559082031e+00 6.968383789062500000e+00 1.266058832406997681e-01
-5.752628326416015625e+00 3.851639747619628906e+00 8.458038792014122009e-03
-5.788467884063720703e+00 3.927288532257080078e+00 8.546003140509128571e-03
-5.764261722564697266e+00 3.962732076644897461e+00 8.546003140509128571e-03
-5.734914779663085938e+00 3.994596958160400391e+00 8.538672700524330139e-03
-5.720100879669189453e+00 4.036629676818847656e+00 8.553333580493927002e-03
-5.765998363494873047e+00 4.122248649597167969e+00 8.659623563289642334e-03
-5.709819793701171875e+00 4.135261535644531250e+00 8.613198064267635345e-03
-5.738359928131103516e+00 4.209850311279296875e+00 8.695053867995738983e-03
-5.704394817352294922e+00 4.239016532897949219e+00 8.682836778461933136e-03
-5.647117137908935547e+00 4.250484466552734375e+00 8.635189384222030640e-03
-5.706023693084716797e+00 4.349924564361572266e+00 8.765914477407932281e-03
-5.668144226074218750e+00 4.376298427581787109e+00 8.748809807002544403e-03
-5.664030551910400391e+00 4.428858757019042969e+00 8.784241043031215668e-03
-5.676731109619140625e+00 4.495189189910888672e+00 8.846548385918140411e-03
-5.643581390380859375e+00 4.525557518005371094e+00 8.837996050715446472e-03
-5.659955501556396484e+00 4.596031665802001953e+00 8.907634764909744263e-03
-5.663317203521728516e+00 4.656713962554931641e+00 8.957725949585437775e-03
-5.650007724761962891e+00 4.704172611236572266e+00 8.982160128653049469e-03
-5.617979049682617188e+00 4.736174106597900391e+00 8.977274410426616669e-03
-5.628363132476806641e+00 4.804316043853759766e+00 9.040803648531436920e-03
-5.667627811431884766e+00 4.898264408111572266e+00 9.151981212198734283e-03
-5.652517318725585938e+00 4.946118354797363281e+00 9.176415391266345978e-03
-5.651254177093505859e+00 5.006569862365722656e+00 9.224062785506248474e-03
-5.615961551666259766e+00 5.037145137786865234e+00 9.216732345521450043e-03
-5.536828041076660156e+00 5.027812480926513672e+00 9.137320332229137421e-03
-5.590534210205078125e+00 5.139521598815917969e+00 9.277819655835628510e-03
-5.596958160400390625e+00 5.209155082702636719e+00 9.341349825263023376e-03
-5.583813190460205078e+00 5.261229515075683594e+00 9.373114444315433502e-03
-5.589052677154541016e+00 5.331283569335937500e+00 9.436644613742828369e-03
-5.623134613037109375e+00 5.430079460144042969e+00 9.550265036523342133e-03
-5.618313312530517578e+00 5.492442131042480469e+00 9.599134325981140137e-03
-5.580952644348144531e+00 5.523294925689697266e+00 9.593025781214237213e-03
-5.496799945831298828e+00 5.507183074951171875e+00 9.506282396614551544e-03
-5.498711109161376953e+00 5.577123641967773438e+00 9.568590670824050903e-03
-5.471364498138427734e+00 5.617922306060791016e+00 9.580808691680431366e-03
-5.546329975128173828e+00 5.765251636505126953e+00 9.773841127753257751e-03
-5.565270900726318359e+00 5.856441974639892578e+00 9.870358742773532867e-03
-5.505277633666992188e+00 5.864960670471191406e+00 9.827597998082637787e-03
-5.498423576354980469e+00 5.930161952972412109e+00 9.880132973194122314e-03
-5.512588024139404297e+00 6.019096851348876953e+00 9.971762076020240784e-03
-5.497690200805664062e+00 6.077280521392822266e+00 1.001207996159791946e-02
-5.475621700286865234e+00 6.128049850463867188e+00 1.004017889499664307e-02
-5.500780105590820312e+00 6.232759952545166016e+00 1.015624403953552246e-02
-5.476232051849365234e+00 6.282224655151367188e+00 1.018190011382102966e-02
-5.444106578826904297e+00 6.323286056518554688e+00 1.019411720335483551e-02
-5.460268020629882812e+00 6.421325683593750000e+00 1.029796432703733444e-02
-5.548099994659423828e+00 6.606331825256347656e+00 1.053986698389053345e-02
-5.499799251556396484e+00 6.631013393402099609e+00 1.052520610392093658e-02
-5.453938961029052734e+00 6.658445358276367188e+00 1.051543187350034714e-02
-5.416125297546386719e+00 6.695672512054443359e+00 1.052154041826725006e-02
-5.441096305847167969e+00 6.811599254608154297e+00 1.065104454755783081e-02
-5.387431621551513672e+00 6.829939365386962891e+00 1.062783133238554001e-02
-5.272298812866210938e+00 6.768985748291015625e+00 1.048244629055261612e-02
-5.110821723937988281e+00 6.730438232421875000e+00 1.032484229654073715e-02
-4.690916061401367188e+00 6.256805896759033203e+00 9.553929790854454041e-03
-8.532425761222839355e-02 7.258524298667907715e-01 1.479868311434984207e-02
-5.518581345677375793e-02 6.866447329521179199e-01 1.394841633737087250e-02
-4.018136113882064819e-02 7.167323827743530273e-01 4.051154106855392456e-02
-9.528897702693939209e-02 7.408969402313232422e-01 9.126325021497905254e-04
-1.802607253193855286e-02 7.216269969940185547e-01 1.461648382246494293e-02
-6.203055754303932190e-02 7.283628582954406738e-01 8.930847398005425930e-04
-3.594230115413665771e-02 7.406060695648193359e-01 2.783670462667942047e-02
