-8.079739570617675781e+00 -4.523714065551757812e+00 2.748281061649322510e-01
-7.397017955780029297e+00 -4.499889373779296875e+00 1.753168404102325439e-01
-6.407457351684570312e+00 -4.222332954406738281e+00 8.169976621866226196e-02
-5.038198471069335938e+00 -3.587579488754272461e+00 7.556401658803224564e-03
-8.177548408508300781e+00 -5.801217079162597656e+00 2.635958909988403320e+00
-8.619215965270996094e+00 -5.640727043151855469e+00 2.400886774063110352e+00
-8.244962692260742188e+00 -5.838231563568115234e+00 2.258219003677368164e+00
-8.607195854187011719e+00 -5.624281883239746094e+00 2.002313375473022461e+00
-8.307807922363281250e+00 -5.871853828430175781e+00 1.881857752799987793e+00
-8.586078643798828125e+00 -5.608344554901123047e+00 1.609628558158874512e+00
-8.416602134704589844e+00 -5.939941406250000000e+00 1.519364595413208008e+00
-8.594144821166992188e+00 -5.602920055389404297e+00 1.232421517372131348e+00
-8.584495544433593750e+00 -5.592360496520996094e+00 8.549275398254394531e-01
-8.595912933349609375e+00 -5.595524787902832031e+00 4.818989336490631104e-01
-8.037832260131835938e+00 -5.653734207153320312e+00 3.689301311969757080e-01
-8.144975662231445312e+00 -4.494819164276123047e+00 2.761037349700927734e-01
-7.415058135986328125e+00 -4.448759078979492188e+00 1.750941276550292969e-01
-6.439950942993164062e+00 -4.187298297882080078e+00 8.178493380546569824e-02
-4.748410224914550781e+00 -3.337509393692016602e+00 7.090922445058822632e-03
-8.262108802795410156e+00 -5.785325050354003906e+00 2.651723384857177734e+00
-8.283830642700195312e+00 -5.789768218994140625e+00 2.259091615676879883e+00
-8.350938796997070312e+00 -5.825830936431884766e+00 1.883494734764099121e+00
-8.647731781005859375e+00 -5.573216438293457031e+00 1.614745378494262695e+00
-8.427726745605468750e+00 -5.870657444000244141e+00 1.514841556549072266e+00
-8.644227027893066406e+00 -5.560286998748779297e+00 1.234687685966491699e+00
-8.480981826782226562e+00 -5.901161193847656250e+00 1.142491459846496582e+00
-8.627031326293945312e+00 -5.544970035552978516e+00 8.557591438293457031e-01
-8.478954315185546875e+00 -5.893164157867431641e+00 7.637149691581726074e-01
-8.644372940063476562e+00 -5.551852703094482422e+00 4.826968014240264893e-01
-8.119160652160644531e+00 -5.636792659759521484e+00 3.710685372352600098e-01
-8.204012870788574219e+00 -4.461950302124023438e+00 2.771717309951782227e-01
-7.434471607208251953e+00 -4.398595333099365234e+00 1.749119311571121216e-01
-6.475622177124023438e+00 -4.154183864593505859e+00 8.191268891096115112e-02
-5.053908824920654297e+00 -3.506102800369262695e+00 7.514862809330224991e-03
-8.342800140380859375e+00 -5.765862464904785156e+00 2.666216135025024414e+00
-8.322412490844726562e+00 -5.741046905517578125e+00 2.259964227676391602e+00
-8.391386985778808594e+00 -5.777826309204101562e+00 1.884586095809936523e+00
-8.654254913330078125e+00 -5.502557754516601562e+00 1.609628558158874512e+00
-8.445654869079589844e+00 -5.806504726409912109e+00 1.511631488800048828e+00
-8.702492713928222656e+00 -5.522570133209228516e+00 1.238146543502807617e+00
-8.464592933654785156e+00 -5.813000202178955078e+00 1.135457396507263184e+00
-8.699606895446777344e+00 -5.516479969024658203e+00 8.595843315124511719e-01
-8.503441810607910156e+00 -5.833129405975341797e+00 7.626823186874389648e-01
-8.691775321960449219e+00 -5.507261276245117188e+00 4.834477007389068604e-01
-7.965643405914306641e+00 -5.458083629608154297e+00 3.625149130821228027e-01
-8.245332717895507812e+00 -4.419082164764404297e+00 2.776463925838470459e-01
-7.463047981262207031e+00 -4.353903293609619141e+00 1.749524176120758057e-01
-6.517889022827148438e+00 -4.125067234039306641e+00 8.212561905384063721e-02
-5.011792182922363281e+00 -3.431525230407714844e+00 7.420789450407028198e-03
-8.509853363037109375e+00 -5.804484367370605469e+00 2.708169937133789062e+00
-8.368776321411132812e+00 -5.697562694549560547e+00 2.263018131256103516e+00
-8.419362068176269531e+00 -5.721255302429199219e+00 1.882949113845825195e+00
-8.456564903259277344e+00 -5.737910270690917969e+00 1.507254242897033691e+00
-8.779133796691894531e+00 -5.495937347412109375e+00 1.244229316711425781e+00
-8.482000350952148438e+00 -5.748684883117675781e+00 1.133039355278015137e+00
-8.766240119934082031e+00 -5.483606815338134766e+00 8.628274202346801758e-01
-8.524208068847656250e+00 -5.770780563354492188e+00 7.613546848297119141e-01
-8.767756462097167969e+00 -5.480298042297363281e+00 4.857943058013916016e-01
-8.014712333679199219e+00 -5.419740200042724609e+00 3.632277250289916992e-01
-8.260802268981933594e+00 -4.362339019775390625e+00 2.772607505321502686e-01
-7.545088768005371094e+00 -4.339932918548583984e+00 1.762480735778808594e-01
-6.604147911071777344e+00 -4.123124599456787109e+00 8.289214968681335449e-02
-4.891067028045654297e+00 -3.304969310760498047e+00 7.211873773485422134e-03
-8.574993133544921875e+00 -5.772141456604003906e+00 2.717577695846557617e+00
-8.430310249328613281e+00 -5.664065837860107422e+00 2.270216941833496094e+00
-8.455941200256347656e+00 -5.670582771301269531e+00 1.883312821388244629e+00
-8.480925559997558594e+00 -5.678757667541503906e+00 1.505357265472412109e+00
-8.515460968017578125e+00 -5.695426940917968750e+00 1.132819533348083496e+00
-8.817531585693359375e+00 -5.440704345703125000e+00 8.645736575126647949e-01
-8.532091140747070312e+00 -5.700086116790771484e+00 7.589206099510192871e-01
-8.830977439880371094e+00 -5.444745540618896484e+00 4.874369204044342041e-01
-8.088545799255371094e+00 -5.397640705108642578e+00 3.650660216808319092e-01
-8.281206130981445312e+00 -4.308340072631835938e+00 2.770530879497528076e-01
-7.565487861633300781e+00 -4.290102958679199219e+00 1.761063635349273682e-01
-6.659975051879882812e+00 -4.101401329040527344e+00 8.327542245388031006e-02
-5.046036720275878906e+00 -3.364771127700805664e+00 7.409793790429830551e-03
-8.615888595581054688e+00 -5.723163604736328125e+00 2.719357490539550781e+00
-8.579592704772949219e+00 -5.688269615173339844e+00 2.300975084304809570e+00
-8.534038543701171875e+00 -5.647351741790771484e+00 1.892953157424926758e+00
-8.528816223144531250e+00 -5.635338783264160156e+00 1.507691860198974609e+00
-8.551077842712402344e+00 -5.643617630004882812e+00 1.132929563522338867e+00
-8.563575744628906250e+00 -5.645431518554687500e+00 7.586255669593811035e-01
-7.982968807220458984e+00 -5.256679534912109375e+00 3.588383793830871582e-01
-8.360857963562011719e+00 -4.284799098968505859e+00 2.788330316543579102e-01
-7.580324649810791016e+00 -4.237259864807128906e+00 1.758431941270828247e-01
-6.839705467224121094e+00 -4.154417514801025391e+00 8.520240336656570435e-02
-5.231993198394775391e+00 -3.442580699920654297e+00 7.651696447283029556e-03
-8.643734931945800781e+00 -5.654753208160400391e+00 2.308828115463256836e+00
-8.600639343261718750e+00 -5.615848064422607422e+00 1.900046944618225098e+00
-8.589753150939941406e+00 -5.600190639495849609e+00 1.512361049652099609e+00
-8.595540046691894531e+00 -5.597551822662353516e+00 1.134248495101928711e+00
-8.601397514343261719e+00 -5.594955444335937500e+00 7.589206099510192871e-01
-8.069540023803710938e+00 -5.242986202239990234e+00 3.612768948078155518e-01
-8.400377273559570312e+00 -4.240173339843750000e+00 2.792780399322509766e-01
-7.611434936523437500e+00 -4.193562507629394531e+00 1.759646534919738770e-01
-6.741542816162109375e+00 -4.038376331329345703e+00 8.366933465003967285e-02
-5.061785697937011719e+00 -3.286259412765502930e+00 7.373142056167125702e-03
-8.637414932250976562e+00 -5.564567565917968750e+00 1.900592684745788574e+00
-8.659730911254882812e+00 -5.570393562316894531e+00 1.518635272979736328e+00
-8.641430854797363281e+00 -5.552227020263671875e+00 1.135787129402160645e+00
-8.643119812011718750e+00 -5.546920299530029297e+00 7.595844268798828125e-01
-8.193258285522460938e+00 -5.252156734466552734e+00 3.653661310672760010e-01
-8.362686157226562500e+00 -4.156960010528564453e+00 2.771717309951782227e-01
-7.635265827178955078e+00 -4.145826816558837891e+00 1.759241670370101929e-01
-6.386516571044921875e+00 -3.772651195526123047e+00 7.897430658340454102e-02
-5.120589256286621094e+00 -3.279950380325317383e+00 7.429341785609722137e-03
-8.691241264343261719e+00 -5.515563011169433594e+00 1.518197417259216309e+00
-8.716471672058105469e+00 -5.525174140930175781e+00 1.141172647476196289e+00
-8.693844795227050781e+00 -5.504452705383300781e+00 7.610596418380737305e-01
-8.295431137084960938e+00 -5.246117115020751953e+00 3.684799373149871826e-01
-8.513726234436035156e+00 -4.167088985443115234e+00 2.813250124454498291e-01
-7.660560131072998047e+00 -4.098899364471435547e+00 1.759241670370101929e-01
-6.844163894653320312e+00 -3.986547470092773438e+00 8.432940393686294556e-02
-5.187112808227539062e+00 -3.277850151062011719e+00 7.496536709368228912e-03
-8.762007713317871094e+00 -5.478964805603027344e+00 1.142711281776428223e+00
-8.778205871582031250e+00 -5.482702255249023438e+00 7.654852271080017090e-01
-8.400378227233886719e+00 -5.240606307983398438e+00 3.717063069343566895e-01
-8.553541183471679688e+00 -4.121714115142822266e+00 2.817996740341186523e-01
-7.682028770446777344e+00 -4.049952983856201172e+00 1.758431941270828247e-01
-6.902313709259033203e+00 -3.963898420333862305e+00 8.474460989236831665e-02
-5.200338840484619141e+00 -3.241728782653808594e+00 7.486762944608926773e-03
-8.834607124328613281e+00 -5.442861080169677734e+00 7.674767971038818359e-01
-8.442588806152343750e+00 -5.195248126983642578e+00 3.721564710140228271e-01
-8.645502090454101562e+00 -4.100852966308593750e+00 2.839949727058410645e-01
-7.665032386779785156e+00 -3.981081485748291016e+00 1.748916804790496826e-01
-6.836878776550292969e+00 -3.870729207992553711e+00 8.364804089069366455e-02
-5.077021598815917969e+00 -3.121763229370117188e+00 7.281512487679719925e-03
-8.488829612731933594e+00 -5.152162075042724609e+00 3.727942407131195068e-01
-8.616157531738281250e+00 -4.022357940673828125e+00 2.822149991989135742e-01
-7.726699352264404297e+00 -3.953100919723510742e+00 1.757419705390930176e-01
-6.871851921081542969e+00 -3.835041046142578125e+00 8.378644287586212158e-02
-5.263669490814208984e+00 -3.192188024520874023e+00 7.520970888435840607e-03
-8.576016426086425781e+00 -5.133338451385498047e+00 3.752327859401702881e-01
-8.728781700134277344e+00 -4.009889125823974609e+00 2.850926220417022705e-01
-7.771344661712646484e+00 -3.915964126586914062e+00 1.762075871229171753e-01
-6.882111549377441406e+00 -3.785575151443481445e+00 8.362674713134765625e-02
-5.312336444854736328e+00 -3.177282571792602539e+00 7.562509737908840179e-03
-8.677918434143066406e+00 -5.122273445129394531e+00 3.783090710639953613e-01
-8.812425613403320312e+00 -3.983013868331909180e+00 2.870209217071533203e-01
-7.815824985504150391e+00 -3.878427743911743164e+00 1.766732037067413330e-01
-7.001908779144287109e+00 -3.795696020126342773e+00 8.479783684015274048e-02
-5.367047309875488281e+00 -3.165455818176269531e+00 7.612601388245820999e-03
-8.748049736022949219e+00 -5.091550350189208984e+00 3.799972832202911377e-01
-8.676861763000488281e+00 -3.857802152633666992e+00 2.818293273448944092e-01
-7.803543090820312500e+00 -3.812841176986694336e+00 1.758634299039840698e-01
-6.867190837860107422e+00 -3.668326854705810547e+00 8.289214968681335449e-02
-5.216937541961669922e+00 -3.033930778503417969e+00 7.373142056167125702e-03
-8.797327041625976562e+00 -5.048222064971923828e+00 3.807851076126098633e-01
-8.684801101684570312e+00 -3.797681570053100586e+00 2.813250124454498291e-01
-7.853820800781250000e+00 -3.777889490127563477e+00 1.764707565307617188e-01
-6.900188446044921875e+00 -3.631710290908813477e+00 8.301990479230880737e-02
-5.324809551239013672e+00 -3.053096532821655273e+00 7.498980499804019928e-03
-8.860318183898925781e+00 -5.012352943420410156e+00 3.821731805801391602e-01
-8.813540458679199219e+00 -3.789728164672851562e+00 2.847366333007812500e-01
-7.866913795471191406e+00 -3.724921941757202148e+00 1.762480735778808594e-01
-7.011112689971923828e+00 -3.635331630706787109e+00 8.408454060554504395e-02
-5.160626888275146484e+00 -2.917030334472656250e+00 7.242416962981224060e-03
-9.082042694091796875e+00 -5.064476966857910156e+00 3.903891444206237793e-01
-8.879899978637695312e+00 -3.753870487213134766e+00 2.861309349536895752e-01
-7.923151493072509766e+00 -3.692206382751464844e+00 1.769971102476119995e-01
-7.085827350616455078e+00 -3.619078636169433594e+00 8.471266925334930420e-02
-5.223853111267089844e+00 -2.910620212554931641e+00 7.305947132408618927e-03
-9.154107093811035156e+00 -5.031277656555175781e+00 3.921523690223693848e-01
-8.627697944641113281e+00 -3.585016727447509766e+00 2.772903740406036377e-01
-7.963833808898925781e+00 -3.651856422424316406e+00 1.774020045995712280e-01
-7.051622867584228516e+00 -3.547223329544067383e+00 8.404195308685302734e-02
-5.268785953521728516e+00 -2.893434286117553711e+00 7.343820296227931976e-03
-8.736518859863281250e+00 -3.567530870437622070e+00 2.800790071487426758e-01
-7.982446193695068359e+00 -3.601278066635131836e+00 1.773210316896438599e-01
-7.066087245941162109e+00 -3.500337600708007812e+00 8.395677804946899414e-02
-5.328655242919921875e+00 -2.883898019790649414e+00 7.402463816106319427e-03
-8.761027336120605469e+00 -3.514974117279052734e+00 2.801680266857147217e-01
-7.998909473419189453e+00 -3.549797296524047852e+00 1.771995574235916138e-01
-7.199774265289306641e+00 -3.511710405349731445e+00 8.528757095336914062e-02
-5.550076484680175781e+00 -2.959847927093505859e+00 7.684683427214622498e-03
-9.878838539123535156e+00 -3.893245458602905273e+00 3.151445090770721436e-01
-8.024205207824707031e+00 -3.502249717712402344e+00 1.772805303335189819e-01
-7.418594360351562500e+00 -3.562258720397949219e+00 8.761911094188690186e-02
-5.589378356933593750e+00 -2.936900854110717773e+00 7.714004255831241608e-03
-9.882034301757812500e+00 -3.824619770050048828e+00 3.144918680191040039e-01
-8.053812980651855469e+00 -3.456497192382812500e+00 1.774627417325973511e-01
-7.020833969116210938e+00 -3.318405151367187500e+00 8.267922699451446533e-02
-5.469642639160156250e+00 -2.831296205520629883e+00 7.524636574089527130e-03
-9.853924751281738281e+00 -3.744384765625000000e+00 3.128602206707000732e-01
-8.097898483276367188e+00 -3.416731357574462891e+00 1.779688447713851929e-01
-7.454496860504150391e+00 -3.467578887939453125e+00 8.753394335508346558e-02
-5.437913894653320312e+00 -2.772698402404785156e+00 7.457441184669733047e-03
-9.937588691711425781e+00 -3.706557035446166992e+00 3.147885203361511230e-01
-8.126099586486816406e+00 -3.370043277740478516e+00 1.781308054924011230e-01
-7.471996307373046875e+00 -3.420109033584594727e+00 8.749135583639144897e-02
-5.539721012115478516e+00 -2.781912803649902344e+00 7.573505863547325134e-03
-9.965777397155761719e+00 -3.647572755813598633e+00 3.149665296077728271e-01
-8.139217376708984375e+00 -3.317100286483764648e+00 1.779688447713851929e-01
-7.322341918945312500e+00 -3.297417640686035156e+00 8.550049364566802979e-02
-5.595230579376220703e+00 -2.766930103302001953e+00 7.626039907336235046e-03
-1.011685371398925781e+01 -3.632632970809936523e+00 3.190308213233947754e-01
-8.159417152404785156e+00 -3.267096519470214844e+00 1.779688447713851929e-01
-7.362550735473632812e+00 -3.261336326599121094e+00 8.573471754789352417e-02
-5.466450691223144531e+00 -2.661628246307373047e+00 7.428119890391826630e-03
-1.014838123321533203e+01 -3.573809146881103516e+00 3.193274736404418945e-01
-8.182102203369140625e+00 -3.218067884445190430e+00 1.780295819044113159e-01
-7.537350177764892578e+00 -3.283591985702514648e+00 8.753394335508346558e-02
-5.468251228332519531e+00 -2.621120452880859375e+00 7.408571895211935043e-03
-9.668415069580078125e+00 -3.338247537612915039e+00 3.035747110843658447e-01
-8.220346450805664062e+00 -3.175007104873657227e+00 1.784344613552093506e-01
-7.577578067779541016e+00 -3.245944023132324219e+00 8.776815980672836304e-02
-5.701285362243652344e+00 -2.689927101135253906e+00 7.701787631958723068e-03
-9.166076660156250000e+00 -3.101988554000854492e+00 2.871989309787750244e-01
-8.229390144348144531e+00 -3.120608806610107422e+00 1.782117784023284912e-01
-7.615782737731933594e+00 -3.207149505615234375e+00 8.798108249902725220e-02
-5.856452941894531250e+00 -2.719329118728637695e+00 7.888711988925933838e-03
-1.041452884674072266e+01 -3.453415632247924805e+00 3.256463706493377686e-01
-8.280241012573242188e+00 -3.081913232803344727e+00 1.789000928401947021e-01
-7.743417739868164062e+00 -3.205103397369384766e+00 8.922670781612396240e-02
-5.812087535858154297e+00 -2.655500173568725586e+00 7.806856185197830200e-03
-8.293359756469726562e+00 -3.028990507125854492e+00 1.787786185741424561e-01
-7.769422054290771484e+00 -3.160167455673217773e+00 8.930122852325439453e-02
-5.906712055206298828e+00 -2.655046224594116211e+00 7.911925204098224640e-03
-8.317437171936035156e+00 -2.980069875717163086e+00 1.789000928401947021e-01
-7.552814960479736328e+00 -3.018187046051025391e+00 8.659707009792327881e-02
-5.868930816650390625e+00 -2.594895124435424805e+00 7.839842699468135834e-03
-8.342168807983398438e+00 -2.931298971176147461e+00 1.790418177843093872e-01
-7.580499649047851562e+00 -2.975440502166748047e+00 8.670352399349212646e-02
-5.888411045074462891e+00 -2.560430288314819336e+00 7.844730280339717865e-03
-8.406315803527832031e+00 -2.896014213562011719e+00 1.800337880849838257e-01
-7.882255554199218750e+00 -3.038200378417968750e+00 8.994000405073165894e-02
-5.924239158630371094e+00 -2.532900094985961914e+00 7.871608249843120575e-03
-8.433400154113769531e+00 -2.847577810287475586e+00 1.802362352609634399e-01
-7.824996948242187500e+00 -2.961112737655639648e+00 8.907765895128250122e-02
-5.869606018066406250e+00 -2.467053890228271484e+00 7.778756320476531982e-03
-8.460205078125000000e+00 -2.798918008804321289e+00 1.804386675357818604e-01
-7.782088756561279297e+00 -2.890413045883178711e+00 8.838564157485961914e-02
-5.928997039794921875e+00 -2.449319124221801758e+00 7.837399840354919434e-03
-8.513361930847167969e+00 -2.758666038513183594e+00 1.812079548835754395e-01
-7.926509380340576172e+00 -2.888832807540893555e+00 8.982289582490921021e-02
-6.027304649353027344e+00 -2.446745395660400391e+00 7.947354577481746674e-03
-8.541563987731933594e+00 -2.710005283355712891e+00 1.814508885145187378e-01
-7.745413303375244141e+00 -2.769113779067993164e+00 8.757653087377548218e-02
-5.885227680206298828e+00 -2.347112178802490234e+00 7.740882690995931625e-03
-8.592405319213867188e+00 -2.668218374252319336e+00 1.821796894073486328e-01
-7.761314392089843750e+00 -2.721205711364746094e+00 8.756588399410247803e-02
-6.010320663452148438e+00 -2.354360103607177734e+00 7.886269129812717438e-03
-8.651663780212402344e+00 -2.628524780273437500e+00 1.830906867980957031e-01
-7.793941497802734375e+00 -2.679057836532592773e+00 8.774687349796295166e-02
-5.708254337310791016e+00 -2.195731401443481445e+00 7.472102064639329910e-03
-8.686796188354492188e+00 -2.581084728240966797e+00 1.834955662488937378e-01
-7.851927757263183594e+00 -2.645231246948242188e+00 8.821530640125274658e-02
-6.118278980255126953e+00 -2.310455799102783203e+00 7.990116253495216370e-03
-8.707270622253417969e+00 -2.529129505157470703e+00 1.835967898368835449e-01
-7.850919246673583984e+00 -2.591361284255981445e+00 8.802367746829986572e-02
-6.097646713256835938e+00 -2.260012626647949219e+00 7.944911718368530273e-03
-8.741861343383789062e+00 -2.481114864349365234e+00 1.840016990900039673e-01
-8.141643524169921875e+00 -2.632033109664916992e+00 9.110045433044433594e-02
-6.089784145355224609e+00 -2.214694738388061523e+00 7.916811853647232056e-03
-8.773300170898437500e+00 -2.431969404220581055e+00 1.843458563089370728e-01
-7.874501228332519531e+00 -2.492409229278564453e+00 8.793850243091583252e-02
-6.092897891998291016e+00 -2.173590898513793945e+00 7.903372868895530701e-03
-8.842102050781250000e+00 -2.392716169357299805e+00 1.854795366525650024e-01
-7.955552577972412109e+00 -2.464461803436279297e+00 8.867309987545013428e-02
-6.087242126464843750e+00 -2.129560232162475586e+00 7.878938689827919006e-03
-8.849849700927734375e+00 -2.336630582809448242e+00 1.853378266096115112e-01
-8.283450126647949219e+00 -2.510438442230224609e+00 9.215443581342697144e-02
-6.164515972137451172e+00 -2.114229917526245117e+00 7.962015457451343536e-03
-8.856274604797363281e+00 -2.280290365219116211e+00 1.851758658885955811e-01
-8.281441688537597656e+00 -2.454450368881225586e+00 9.196280688047409058e-02
-6.175477027893066406e+00 -2.075728178024291992e+00 7.959572598338127136e-03
-8.959314346313476562e+00 -2.248294591903686523e+00 1.870383471250534058e-01
-8.346288681030273438e+00 -2.418059587478637695e+00 9.251641482114791870e-02
-6.205194473266601562e+00 -2.043427228927612305e+00 7.981563918292522430e-03
-8.986537933349609375e+00 -2.196602344512939453e+00 1.873217672109603882e-01
-8.449484825134277344e+00 -2.391859292984008789e+00 9.349587559700012207e-02
-6.042498588562011719e+00 -1.948835372924804688e+00 7.756765466183423996e-03
-9.063069343566894531e+00 -2.156463623046875000e+00 1.886376738548278809e-01
-8.454363822937011719e+00 -2.337304592132568359e+00 9.338941425085067749e-02
-6.152562141418457031e+00 -1.942736506462097168e+00 7.882603444159030914e-03
-9.106325149536132812e+00 -2.107802152633666992e+00 1.892652362585067749e-01
-8.450203895568847656e+00 -2.280435562133789062e+00 9.318713098764419556e-02
-6.266596794128417969e+00 -1.936540246009826660e+00 8.013328537344932556e-03
-9.147373199462890625e+00 -2.058252096176147461e+00 1.898523271083831787e-01
-8.611986160278320312e+00 -2.267497301101684570e+00 9.481601417064666748e-02
-5.931849956512451172e+00 -1.793296694755554199e+00 7.571062538772821426e-03
-9.162760734558105469e+00 -2.002726554870605469e+00 1.899130642414093018e-01
-8.609272956848144531e+00 -2.210385322570800781e+00 9.463503211736679077e-02
-5.936987876892089844e+00 -1.755164742469787598e+00 7.563732098788022995e-03
-9.121085166931152344e+00 -1.935055136680603027e+00 1.887996196746826172e-01
-8.570290565490722656e+00 -2.144411325454711914e+00 9.406012296676635742e-02
-6.437598705291748047e+00 -1.860285639762878418e+00 8.186814375221729279e-03
-9.138663291931152344e+00 -1.880261778831481934e+00 1.889210939407348633e-01
-8.648378372192382812e+00 -2.107647657394409180e+00 9.477343410253524780e-02
-6.466214656829833984e+00 -1.825641155242919922e+00 8.208805695176124573e-03
-9.222584724426269531e+00 -1.838617563247680664e+00 1.904191672801971436e-01
-8.688390731811523438e+00 -2.061004877090454102e+00 9.507152438163757324e-02
-6.399209022521972656e+00 -1.764400839805603027e+00 8.109845221042633057e-03
-9.243509292602539062e+00 -1.783888697624206543e+00 1.906216144561767578e-01
-8.729128837585449219e+00 -2.014174938201904297e+00 9.538027644157409668e-02
-6.417639732360839844e+00 -1.727181792259216309e+00 8.119619451463222504e-03
-9.270006179809570312e+00 -1.730072855949401855e+00 1.909455209970474243e-01
-8.792059898376464844e+00 -1.971955776214599609e+00 9.593388438224792480e-02
-6.221132278442382812e+00 -1.633425354957580566e+00 7.858168333768844604e-03
-9.282415390014648438e+00 -1.673515319824218750e+00 1.909860074520111084e-01
-8.826465606689453125e+00 -1.922867059707641602e+00 9.617874771356582642e-02
-6.546852111816406250e+00 -1.676074981689453125e+00 8.256453089416027069e-03
-9.336833953857421875e+00 -1.624238848686218262e+00 1.918970197439193726e-01
-8.821466445922851562e+00 -1.865156173706054688e+00 9.599775820970535278e-02
-6.428938865661621094e+00 -1.603920102119445801e+00 8.095184341073036194e-03
-9.406773567199707031e+00 -1.577002167701721191e+00 1.931319385766983032e-01
-8.839601516723632812e+00 -1.812399506568908691e+00 9.607227891683578491e-02
-6.480443477630615234e+00 -1.574595212936401367e+00 8.147718384861946106e-03
-9.498195648193359375e+00 -1.532471299171447754e+00 1.948122084140777588e-01
-8.700496673583984375e+00 -1.728317975997924805e+00 9.444339573383331299e-02
-6.594110965728759766e+00 -1.559427380561828613e+00 8.278444409370422363e-03
-1.011305999755859375e+01 -1.195840835571289062e+00 3.022397160530090332e-01
-9.599303245544433594e+00 -1.488409519195556641e+00 1.966949552297592163e-01
-8.723703384399414062e+00 -1.677354693412780762e+00 9.458180516958236694e-02
-6.667875766754150391e+00 -1.533732175827026367e+00 8.359078317880630493e-03
-9.637922286987304688e+00 -1.433895111083984375e+00 1.973022818565368652e-01
-8.887193679809570312e+00 -1.652308702468872070e+00 9.624261409044265747e-02
-6.699606418609619141e+00 -1.497808098793029785e+00 8.387178182601928711e-03
-9.566366195678710938e+00 -1.363305449485778809e+00 1.956624984741210938e-01
-8.943423271179199219e+00 -1.606053829193115234e+00 9.674300253391265869e-02
-6.334392547607421875e+00 -1.375403761863708496e+00 7.919255644083023071e-03
-9.578513145446777344e+00 -1.305121541023254395e+00 1.957434713840484619e-01
-9.065428733825683594e+00 -1.570607423782348633e+00 9.795667231082916260e-02
-6.530586719512939453e+00 -1.376098871231079102e+00 8.153827860951423645e-03
-9.573451995849609375e+00 -1.244648575782775879e+00 1.954802721738815308e-01
-9.055170059204101562e+00 -1.511660456657409668e+00 9.774375706911087036e-02
-6.628065586090087891e+00 -1.354218482971191406e+00 8.265005424618721008e-03
-9.652349472045898438e+00 -1.194726228713989258e+00 1.969378888607025146e-01
-9.040579795837402344e+00 -1.452264189720153809e+00 9.748823940753936768e-02
-6.573468208312988281e+00 -1.301097393035888672e+00 8.186814375221729279e-03
-9.692265510559082031e+00 -1.139329791069030762e+00 1.976059526205062866e-01
-9.058214187622070312e+00 -1.398137688636779785e+00 9.758405387401580811e-02
-6.716863155364990234e+00 -1.286702394485473633e+00 8.355412632226943970e-03
-9.928607940673828125e+00 -1.105392813682556152e+00 2.022824138402938843e-01
-9.146744728088378906e+00 -1.354395270347595215e+00 9.844641387462615967e-02
-6.789527893066406250e+00 -1.257483720779418945e+00 8.436047472059726715e-03
-9.890460014343261719e+00 -1.039747357368469238e+00 2.013714164495468140e-01
-9.181613922119140625e+00 -1.302037000656127930e+00 9.873385727405548096e-02
-6.543147087097167969e+00 -1.170372843742370605e+00 8.120840415358543396e-03
-9.943415641784667969e+00 -9.836670756340026855e-01 2.023229002952575684e-01
-9.247892379760742188e+00 -1.253600001335144043e+00 9.936198592185974121e-02
-6.630025386810302734e+00 -1.143975377082824707e+00 8.219800889492034912e-03
-1.028176879882812500e+01 -9.534714221954345703e-01 2.090845406055450439e-01
-9.289127349853515625e+00 -1.201192498207092285e+00 9.972396492958068848e-02
-6.686243534088134766e+00 -1.111471891403198242e+00 8.280887268483638763e-03
-1.030037498474121094e+01 -8.914865255355834961e-01 2.093477249145507812e-01
-9.362816810607910156e+00 -1.152356743812561035e+00 1.004372611641883850e-01
-6.924988269805908203e+00 -1.107537746429443359e+00 8.567994460463523865e-03
-1.014619827270507812e+01 -8.154525756835937500e-01 2.061086148023605347e-01
-9.318065643310546875e+00 -1.088850975036621094e+00 9.988365322351455688e-02
-6.895082473754882812e+00 -1.059406876564025879e+00 8.522789925336837769e-03
-1.027265071868896484e+01 -7.622067332267761230e-01 2.085784375667572021e-01
-9.318608283996582031e+00 -1.030996203422546387e+00 9.981977939605712891e-02
-7.029075145721435547e+00 -1.035887360572814941e+00 8.680393919348716736e-03
-1.029608631134033203e+01 -7.004499435424804688e-01 2.089630812406539917e-01
-9.404321670532226562e+00 -9.821076989173889160e-01 1.006714850664138794e-01
-7.247199058532714844e+00 -1.022639155387878418e+00 8.941843174397945404e-03
-1.047681713104248047e+01 -6.481887698173522949e-01 2.125463485717773438e-01
-9.446990966796875000e+00 -9.280022978782653809e-01 1.010653972625732422e-01
-7.039275169372558594e+00 -9.492844939231872559e-01 8.677949197590351105e-03
-1.065928268432617188e+01 -5.938469767570495605e-01 2.161701023578643799e-01
-9.456491470336914062e+00 -8.703858852386474609e-01 1.011079847812652588e-01
-6.613521575927734375e+00 -8.505848646163940430e-01 8.146497420966625214e-03
-1.063776206970214844e+01 -5.271944999694824219e-01 2.156639993190765381e-01
-9.506486892700195312e+00 -8.161947131156921387e-01 1.015870720148086548e-01
-7.006720542907714844e+00 -8.574854135513305664e-01 8.624194189906120300e-03
-1.051394271850585938e+01 -4.564057886600494385e-01 2.130929529666900635e-01
-9.565141677856445312e+00 -7.621374130249023438e-01 1.021619737148284912e-01
-7.186674118041992188e+00 -8.347839117050170898e-01 8.839217945933341980e-03
-1.049756145477294922e+01 -3.911774754524230957e-01 2.127083092927932739e-01
-9.592575073242187500e+00 -7.051184773445129395e-01 1.024068370461463928e-01
-6.663842201232910156e+00 -7.326416969299316406e-01 8.190480060875415802e-03
-1.056971549987792969e+01 -3.289352059364318848e-01 2.141254097223281860e-01
-9.636628150939941406e+00 -6.489336490631103516e-01 1.028326898813247681e-01
-6.762704849243164062e+00 -7.015417218208312988e-01 8.306543342769145966e-03
-1.059952068328857422e+01 -2.647735178470611572e-01 2.146922498941421509e-01
-9.672366142272949219e+00 -5.917461514472961426e-01 1.031733676791191101e-01
-7.661635398864746094e+00 -7.473064661026000977e-01 9.404879063367843628e-03
-1.078987312316894531e+01 -2.032906711101531982e-01 2.185184508562088013e-01
-9.728733062744140625e+00 -5.352981090545654297e-01 1.037376224994659424e-01
-7.684997558593750000e+00 -7.020099163055419922e-01 9.428092278540134430e-03
-1.041302585601806641e+01 -1.322809159755706787e-01 2.108660489320755005e-01
-9.767788887023925781e+00 -4.773507714271545410e-01 1.041208952665328979e-01
-7.651297569274902344e+00 -6.516178846359252930e-01 9.381666779518127441e-03
-1.086054039001464844e+01 -7.132003456354141235e-02 2.199153304100036621e-01
-9.801504135131835938e+00 -4.187308549880981445e-01 1.044509261846542358e-01
-7.509605407714843750e+00 -5.931618213653564453e-01 9.203294292092323303e-03
-4.390266895294189453e+00 1.567878723144531250e-01 1.303831487894058228e-01
-1.107172966003417969e+01 -4.770566709339618683e-03 2.241868972778320312e-01
-9.888827323913574219e+00 -3.616887331008911133e-01 1.053558662533760071e-01
-7.547013759613037109e+00 -5.495417714118957520e-01 9.244833141565322876e-03
-4.363256931304931641e+00 1.826362460851669312e-01 1.296118348836898804e-01
-1.095257759094238281e+01 6.248562410473823547e-02 2.217778116464614868e-01
-9.890860557556152344e+00 -3.010052144527435303e-01 1.053558662533760071e-01
-7.655010700225830078e+00 -5.102065801620483398e-01 9.373114444315433502e-03
-4.327109336853027344e+00 2.077276855707168579e-01 1.285735070705413818e-01
-1.121591567993164062e+01 1.328134983777999878e-01 2.271223515272140503e-01
-9.945502281188964844e+00 -2.415973842144012451e-01 1.059201136231422424e-01
-7.440395355224609375e+00 -4.500641226768493652e-01 9.106777608394622803e-03
-1.147179508209228516e+01 2.062494307756423950e-01 2.323251664638519287e-01
-9.956795692443847656e+00 -1.807498782873153687e-01 1.060265824198722839e-01
-7.916318416595458984e+00 -4.301182031631469727e-01 9.685877710580825806e-03
-1.145931816101074219e+01 2.763699889183044434e-01 2.321024686098098755e-01
-9.986713409423828125e+00 -1.200011447072029114e-01 1.063353270292282104e-01
-7.439364910125732422e+00 -3.584364056587219238e-01 9.099447168409824371e-03
-1.313316822052001953e+01 8.615127205848693848e-01 3.878601789474487305e+00
-1.300351142883300781e+01 8.507281541824340820e-01 3.309531211853027344e+00
-4.421070098876953125e+00 1.337725967168807983e-01 8.956138789653778076e-02
-1.008625507354736328e+01 -5.930360406637191772e-02 1.073893085122108459e-01
-7.444421291351318359e+00 -3.129085302352905273e-01 9.103111922740936279e-03
-1.309797477722167969e+01 9.399515986442565918e-01 3.869838714599609375e+00
-1.327550506591796875e+01 9.503628611564636230e-01 3.380177021026611328e+00
-1.345715141296386719e+01 9.610056877136230469e-01 2.897236347198486328e+00
-4.397185802459716797e+00 1.600607484579086304e-01 8.909576386213302612e-02
-1.007742881774902344e+01 2.583300927653908730e-03 1.072934865951538086e-01
-7.644073486328125000e+00 -2.743256688117980957e-01 9.345014579594135284e-03
-1.311013126373291016e+01 1.021717667579650879e+00 3.875209569931030273e+00
-1.345684909820556641e+01 1.044012904167175293e+00 2.898495912551879883e+00
-4.387131214141845703e+00 1.866558790206909180e-01 8.891356736421585083e-02
-1.017321586608886719e+01 6.503081321716308594e-02 1.083155348896980286e-01
-7.880508899688720703e+00 -2.344042807817459106e-01 9.632120840251445770e-03
-1.308126640319824219e+01 1.097961664199829102e+00 3.333900451660156250e+00
-4.375917434692382812e+00 2.130850404500961304e-01 8.871112763881683350e-02
-1.020562171936035156e+01 1.278646737337112427e-01 1.086668670177459717e-01
-7.832812786102294922e+00 -1.848896741867065430e-01 9.572256356477737427e-03
-1.290267372131347656e+01 1.165011644363403320e+00 3.817826271057128906e+00
-1.305594253540039062e+01 1.176553368568420410e+00 3.329223394393920898e+00
-1.385590744018554688e+01 1.246205329895019531e+00 2.987519025802612305e+00
-1.160717296600341797e+01 6.366224288940429688e-01 2.353820800781250000e-01
-1.028262710571289062e+01 1.919384151697158813e-01 1.094972789287567139e-01
-7.698820114135742188e+00 -1.344674080610275269e-01 9.407322853803634644e-03
-1.321704387664794922e+01 1.275203108787536621e+00 3.913088083267211914e+00
-1.316907310485839844e+01 1.268254995346069336e+00 3.359992504119873047e+00
-1.156712150573730469e+01 7.056390643119812012e-01 2.346532791852951050e-01
-1.028425407409667969e+01 2.551021873950958252e-01 1.095292121171951294e-01
-8.094474792480468750e+00 -9.170038253068923950e-02 9.889906272292137146e-03
-1.335019302368164062e+01 1.370777845382690430e+00 3.954924583435058594e+00
-1.320253849029541016e+01 8.543483614921569824e-01 3.748744249343872070e+00
-1.316489982604980469e+01 1.349430322647094727e+00 3.360977172851562500e+00
-1.364966678619384766e+01 3.818657696247100830e-01 3.182644844055175781e+00
-1.336560344696044922e+01 1.384147882461547852e+00 3.988033533096313477e-01
-1.162841224670410156e+01 7.810223102569580078e-01 2.359894067049026489e-01
-4.428628921508789062e+00 1.370476186275482178e-01 4.717379063367843628e-02
-7.740890026092529297e+00 -4.019380733370780945e-02 9.457413107156753540e-03
-1.329575824737548828e+01 1.447683453559875488e+00 3.941355943679809570e+00
-1.339666843414306641e+01 9.494896531105041504e-01 3.805448293685913086e+00
-1.316408157348632812e+01 1.431021213531494141e+00 3.362946510314941406e+00
-1.321528244018554688e+01 9.412701725959777832e-01 3.222351551055908203e+00
-1.347284126281738281e+01 4.596671164035797119e-01 3.142013549804687500e+00
-1.328435611724853516e+01 1.441750049591064453e+00 2.869521617889404297e+00
-1.342345809936523438e+01 1.466329216957092285e+00 1.383522629737854004e+00
-1.338962554931640625e+01 1.467363238334655762e+00 8.875787854194641113e-01
-4.439133167266845703e+00 1.623149961233139038e-01 2.087070941925048828e-01
-1.332307624816894531e+01 1.462423443794250488e+00 3.977946639060974121e-01
-1.180088901519775391e+01 8.653736114501953125e-01 2.395929247140884399e-01
-4.406720638275146484e+00 1.634403169155120850e-01 4.695021733641624451e-02
-7.933990955352783203e+00 7.486267480999231339e-03 9.693208150565624237e-03
-1.299407768249511719e+01 1.495566368103027344e+00 3.854574203491210938e+00
-1.338099765777587891e+01 1.030933141708374023e+00 3.802722215652465820e+00
-1.319164276123046875e+01 1.515972495079040527e+00 3.372300386428833008e+00
-1.309203720092773438e+01 1.013267517089843750e+00 3.193755865097045898e+00
-1.318298244476318359e+01 1.512646079063415527e+00 2.849575281143188477e+00
-1.331477642059326172e+01 1.530122876167297363e+00 2.368030309677124023e+00
-1.330387592315673828e+01 1.531222820281982422e+00 1.865399956703186035e+00
-1.338159656524658203e+01 1.544901371002197266e+00 1.380159139633178711e+00
-1.329809856414794922e+01 1.539965510368347168e+00 8.821213841438293457e-01
-4.409112453460693359e+00 1.883138418197631836e-01 2.073460817337036133e-01
-1.326520061492919922e+01 1.538502097129821777e+00 3.963410258293151855e-01
-1.184120178222656250e+01 9.414110183715820312e-01 2.405241578817367554e-01
-4.374665260314941406e+00 1.891374140977859497e-01 4.662018269300460815e-02
-7.936795234680175781e+00 5.618941783905029297e-02 9.696872904896736145e-03
-1.326746940612792969e+01 1.609578609466552734e+00 3.938529014587402344e+00
-1.333894443511962891e+01 1.110065698623657227e+00 3.792635440826416016e+00
-1.325329589843750000e+01 1.605511903762817383e+00 3.390515804290771484e+00
-1.332086944580078125e+01 1.113243699073791504e+00 3.251183986663818359e+00
-1.314239311218261719e+01 1.589749693870544434e+00 2.842856645584106445e+00
-1.320835494995117188e+01 1.600067734718322754e+00 2.350805044174194336e+00
-1.325686645507812500e+01 1.608292341232299805e+00 1.860157370567321777e+00
-1.327311515808105469e+01 1.614965081214904785e+00 1.369966745376586914e+00
-1.326264667510986328e+01 1.618389725685119629e+00 8.804118633270263672e-01
-1.323368263244628906e+01 1.617199420928955078e+00 3.956883847713470459e-01
-1.191688632965087891e+01 1.021048307418823242e+00 2.421841919422149658e-01
-4.388402938842773438e+00 2.167160958051681519e-01 4.677987471222877502e-02
-8.085288047790527344e+00 1.068566590547561646e-01 9.878911077976226807e-03
-1.323450756072998047e+01 1.688043236732482910e+00 3.931744813919067383e+00
-1.328109169006347656e+01 1.187350273132324219e+00 3.778186798095703125e+00
-1.327617549896240234e+01 6.908375024795532227e-01 3.626890659332275391e+00
-1.316339302062988281e+01 1.676638007164001465e+00 3.370085000991821289e+00
-1.313861846923828125e+01 1.179236054420471191e+00 3.208408117294311523e+00
-1.358269405364990234e+01 7.139188647270202637e-01 3.170160293579101562e+00
-1.307613658905029297e+01 1.663204789161682129e+00 2.830678939819335938e+00
-1.375922489166259766e+01 1.239779233932495117e+00 2.825755834579467773e+00
-1.317679691314697266e+01 1.678345203399658203e+00 2.346977233886718750e+00
-1.325264358520507812e+01 1.690356492996215820e+00 1.860985040664672852e+00
-1.325210094451904297e+01 1.694988608360290527e+00 1.368845462799072266e+00
-1.325741577148437500e+01 1.700371980667114258e+00 8.807406425476074219e-01
-1.322053718566894531e+01 1.697987437248229980e+00 3.955993950366973877e-01
-1.217224121093750000e+01 1.118203997611999512e+00 2.475084960460662842e-01
-1.047526359558105469e+01 5.817610025405883789e-01 1.117010638117790222e-01
-8.466408729553222656e+00 1.638567894697189331e-01 1.034561172127723694e-02
-1.291681003570556641e+01 1.728131413459777832e+00 3.840440273284912109e+00
-1.314330101013183594e+01 1.256368160247802734e+00 3.741111040115356445e+00
-1.328902244567871094e+01 7.732943892478942871e-01 3.631628036499023438e+00
-1.294534778594970703e+01 1.729649662971496582e+00 3.316915750503540039e+00
-1.313984107971191406e+01 1.260666131973266602e+00 3.210535287857055664e+00
-1.326500225067138672e+01 7.788659334182739258e-01 3.097069263458251953e+00
-1.302692031860351562e+01 1.738234519958496094e+00 2.822280645370483398e+00
-1.366066455841064453e+01 1.315447568893432617e+00 2.807119131088256836e+00
-1.314673042297363281e+01 1.756556749343872070e+00 2.343497514724731445e+00
-1.323907756805419922e+01 1.771247386932373047e+00 1.860571265220642090e+00
-1.325032615661621094e+01 1.777460575103759766e+00 1.369762897491455078e+00
-1.327244472503662109e+01 1.785144209861755371e+00 8.824501633644104004e-01
-1.321284008026123047e+01 1.779475331306457520e+00 3.956883847713470459e-01
-1.222286224365234375e+01 1.198529362678527832e+00 2.486826628446578979e-01
-1.054934501647949219e+01 6.508277654647827148e-01 1.125314757227897644e-01
-4.410563945770263672e+00 1.124375462532043457e-01 5.390273872762918472e-03
-1.292211246490478516e+01 1.809616565704345703e+00 3.845245838165283203e+00
-1.342154121398925781e+01 1.366120934486389160e+00 3.822623252868652344e+00
-1.294792938232421875e+01 1.810927748680114746e+00 3.320361852645874023e+00
-1.314055824279785156e+01 1.342155456542968750e+00 3.212662220001220703e+00
-1.309087085723876953e+01 8.492732048034667969e-01 3.057572603225708008e+00
-1.302375602722167969e+01 1.819215655326843262e+00 2.823960304260253906e+00
-1.314253139495849609e+01 1.838145256042480469e+00 2.344715356826782227e+00
-1.322207450866699219e+01 1.851623296737670898e+00 1.859743475914001465e+00
-1.326182746887207031e+01 1.861910581588745117e+00 1.372107148170471191e+00
-1.328396797180175781e+01 1.869747519493103027e+00 8.839624524116516113e-01
-1.320959186553955078e+01 1.861630201339721680e+00 3.959257006645202637e-01
-1.236443901062011719e+01 1.289055705070495605e+00 2.517193257808685303e-01
-1.057109165191650391e+01 7.173051834106445312e-01 1.128082796931266785e-01
-4.370810508728027344e+00 1.382650434970855713e-01 5.342626012861728668e-03
-1.288419055938720703e+01 1.884983062744140625e+00 3.837331056594848633e+00
-1.328568363189697266e+01 1.434709548950195312e+00 3.786365270614624023e+00
-1.288589191436767578e+01 9.086265563964843750e-01 3.524242639541625977e+00
-1.253185653686523438e+01 1.831201791763305664e+00 3.216485261917114258e+00
-1.317458057403564453e+01 1.427364230155944824e+00 3.223060607910156250e+00
-1.320101547241210938e+01 9.377936720848083496e-01 3.084584712982177734e+00
-1.301912021636962891e+01 1.900081992149353027e+00 2.825429916381835938e+00
-1.350421428680419922e+01 1.467846989631652832e+00 2.778462886810302734e+00
-1.316316032409667969e+01 1.923450350761413574e+00 2.350457191467285156e+00
-1.328984546661376953e+01 1.944331169128417969e+00 1.870918512344360352e+00
-1.327180671691894531e+01 1.946424245834350586e+00 1.374349355697631836e+00
-1.338459205627441406e+01 1.469027996063232422e+00 1.251477599143981934e+00
-1.330877304077148438e+01 1.956591486930847168e+00 8.863952755928039551e-01
-1.340850067138671875e+01 1.476389169692993164e+00 7.612676024436950684e-01
-4.401814937591552734e+00 1.647489368915557861e-01 1.653695255517959595e-01
-1.326219844818115234e+01 1.952109098434448242e+00 3.978540003299713135e-01
-1.246063995361328125e+01 1.376424193382263184e+00 2.538450062274932861e-01
-1.058444118499755859e+01 7.834833264350891113e-01 1.129999086260795593e-01
-4.387866973876953125e+00 1.657607257366180420e-01 5.364617332816123962e-03
-1.251015377044677734e+01 1.908736586570739746e+00 3.729348659515380859e+00
-1.273080539703369141e+01 1.453868389129638672e+00 3.630701541900634766e+00
-1.284640789031982422e+01 9.850941896438598633e-01 3.515030860900878906e+00
-1.275226116180419922e+01 1.943398714065551758e+00 3.276054382324218750e+00
-1.318295097351074219e+01 1.510165691375732422e+00 3.227314710617065430e+00
-1.333192539215087891e+01 1.029346704483032227e+00 3.116590261459350586e+00
-1.348201274871826172e+01 5.450289249420166016e-01 3.016048431396484375e+00
-1.302171611785888672e+01 1.982137084007263184e+00 2.828579425811767578e+00
-1.316597461700439453e+01 1.512877225875854492e+00 2.710729837417602539e+00
-1.321536159515380859e+01 2.013973474502563477e+00 2.361940622329711914e+00
-1.334249401092529297e+01 1.537879824638366699e+00 2.237912178039550781e+00
-1.331193351745605469e+01 2.031068086624145508e+00 1.875747203826904297e+00
-1.338232803344726562e+01 1.547204732894897461e+00 1.744857192039489746e+00
-1.333774089813232422e+01 1.546767950057983398e+00 1.247960925102233887e+00
-1.328613185882568359e+01 1.545483231544494629e+00 7.548443078994750977e-01
-4.385746002197265625e+00 1.911023557186126709e-01 1.648067981004714966e-01
-1.246487045288085938e+01 1.454361677169799805e+00 2.541081905364990234e-01
-1.061332416534423828e+01 8.511312603950500488e-01 1.133618876338005066e-01
-4.386767387390136719e+00 1.926810592412948608e-01 5.364617332816123962e-03
-1.248968124389648438e+01 1.984107017517089844e+00 3.726804733276367188e+00
-1.301776409149169922e+01 1.567614674568176270e+00 3.715212345123291016e+00
-1.303721809387207031e+01 1.080230593681335449e+00 3.568986654281616211e+00
-1.275732707977294922e+01 2.024342536926269531e+00 3.280485153198242188e+00
-1.322456359863281250e+01 1.597201228141784668e+00 3.239840030670166016e+00
-1.340202999114990234e+01 1.117523789405822754e+00 3.134522676467895508e+00
-1.346184349060058594e+01 6.269708871841430664e-01 3.012340307235717773e+00
-1.307593822479248047e+01 2.072560310363769531e+00 2.843066453933715820e+00
-1.312240314483642578e+01 1.589510321617126465e+00 2.703716039657592773e+00
-1.320275592803955078e+01 2.095023632049560547e+00 2.361940622329711914e+00
-1.324369907379150391e+01 1.608893752098083496e+00 2.222955703735351562e+00
-1.327413845062255859e+01 1.617293834686279297e+00 1.732012152671813965e+00
-1.330823326110839844e+01 1.626162409782409668e+00 1.246110081672668457e+00
-1.326648998260498047e+01 1.625761985778808594e+00 7.542809247970581055e-01
-1.252616596221923828e+01 1.539476156234741211e+00 2.555455267429351807e-01
-1.071449851989746094e+01 9.254444241523742676e-01 1.145010367035865784e-01
-4.393492698669433594e+00 2.199942022562026978e-01 5.374391097575426102e-03
-1.249525260925292969e+01 2.063674688339233398e+00 3.732175588607788086e+00
-1.295158481597900391e+01 1.640328288078308105e+00 3.699128150939941406e+00
-1.282438850402832031e+01 6.649438738822937012e-01 3.376122474670410156e+00
-1.283168888092041016e+01 2.116938829421997070e+00 3.302885055541992188e+00
-1.322415351867675781e+01 1.679539799690246582e+00 3.242203474044799805e+00
-1.328433895111083984e+01 1.189831614494323730e+00 3.108645677566528320e+00
-1.339342117309570312e+01 7.061680555343627930e-01 2.997942686080932617e+00
-1.305409145355224609e+01 1.662571310997009277e+00 2.691692352294921875e+00
-1.320911693572998047e+01 1.687001228332519531e+00 2.218846797943115234e+00
-1.323642253875732422e+01 1.695184469223022461e+00 1.728415608406066895e+00
-1.326936340332031250e+01 1.704111456871032715e+00 1.243426322937011719e+00
-1.324438190460205078e+01 1.705602765083312988e+00 7.536047697067260742e-01
-1.257597827911376953e+01 1.623989105224609375e+00 2.567602097988128662e-01
-1.077831649780273438e+01 9.976211190223693848e-01 1.152462884783744812e-01
-8.688271522521972656e+00 4.885068833827972412e-01 1.063149701803922653e-02
-1.284728622436523438e+01 2.202878713607788086e+00 3.841288566589355469e+00
-1.297465705871582031e+01 1.724202871322631836e+00 3.708669900894165039e+00
-1.264936733245849609e+01 2.166669607162475586e+00 3.259315729141235352e+00
-1.298629379272460938e+01 1.730362534523010254e+00 3.186429738998413086e+00
-1.313621616363525391e+01 1.257859945297241211e+00 3.075731754302978516e+00
-1.340637207031250000e+01 7.893677949905395508e-01 3.001869201660156250e+00
-1.303004837036132812e+01 1.740821957588195801e+00 2.688886642456054688e+00
-1.387083435058593750e+01 1.337976455688476562e+00 2.713779926300048828e+00
-1.318873977661132812e+01 1.766709446907043457e+00 2.217203140258789062e+00
-1.324346446990966797e+01 1.778746128082275391e+00 1.730727791786193848e+00
-1.324484252929687500e+01 1.783638119697570801e+00 1.242130637168884277e+00
-1.323663425445556641e+01 1.787237286567687988e+00 7.537738084793090820e-01
-1.261432456970214844e+01 1.707695364952087402e+00 2.577521800994873047e-01
-1.082174777984619141e+01 1.068650245666503906e+00 1.157786026597023010e-01
-8.642193794250488281e+00 5.391306281089782715e-01 1.057896204292774200e-02
-1.283069419860839844e+01 2.281162977218627930e+00 3.840440273284912109e+00
-1.292952728271484375e+01 1.799008131027221680e+00 3.698855638504028320e+00
-1.316773700714111328e+01 1.335498332977294922e+00 3.610835552215576172e+00
-1.294463634490966797e+01 1.805716514587402344e+00 3.178866863250732422e+00
-1.314375305175781250e+01 1.340018987655639648e+00 3.079363822937011719e+00
-1.339640712738037109e+01 8.712961673736572266e-01 3.000778436660766602e+00
-1.304725933074951172e+01 1.824675321578979492e+00 2.694698095321655273e+00
-1.317960548400878906e+01 1.847874760627746582e+00 2.217531919479370117e+00
-1.328140354156494141e+01 1.866874933242797852e+00 1.737150073051452637e+00
-1.327210140228271484e+01 1.870292067527770996e+00 1.245739817619323730e+00
-1.329659843444824219e+01 1.878478050231933594e+00 7.578306198120117188e-01
