-1.129241585731506348e+00 -1.428617954254150391e+00 1.346864551305770874e-01
-1.073370099067687988e+00 -1.356473565101623535e+00 6.493980437517166138e-02
-1.111847043037414551e+00 -1.404091477394104004e+00 2.188118873164057732e-03
-1.145464777946472168e+00 -1.431004881858825684e+00 1.355715841054916382e-01
-1.095420598983764648e+00 -1.367017984390258789e+00 6.576515734195709229e-02
-1.124820590019226074e+00 -1.402703881263732910e+00 2.196670975536108017e-03
-1.138524174690246582e+00 -1.404581427574157715e+00 1.337275803089141846e-01
-1.100639462471008301e+00 -1.356390953063964844e+00 6.557757407426834106e-02
-1.131515145301818848e+00 -1.393446803092956543e+00 2.193005755543708801e-03
-1.103231787681579590e+00 -1.342663288116455078e+00 6.523993611335754395e-02
-1.127341508865356445e+00 -1.371029496192932129e+00 2.168571110814809799e-03
-1.151089191436767578e+00 -1.382530450820922852e+00 2.197892870754003525e-03
-4.980459213256835938e+00 -5.907746315002441406e+00 9.440309368073940277e-03
-5.022458076477050781e+00 -5.883921146392822266e+00 9.451305493712425232e-03
-5.010078907012939453e+00 -5.797005176544189453e+00 9.360896423459053040e-03
-5.100211143493652344e+00 -5.828618049621582031e+00 9.462300688028335571e-03
-5.072219371795654297e+00 -5.725356578826904297e+00 9.345014579594135284e-03
-5.099909305572509766e+00 -5.685937881469726562e+00 9.331575594842433929e-03
-5.126634597778320312e+00 -5.645654678344726562e+00 9.316914714872837067e-03
-5.207200527191162109e+00 -5.664151668548583984e+00 9.399992413818836212e-03
-5.031337738037109375e+00 -5.405902862548828125e+00 9.022478014230728149e-03
-5.081557273864746094e+00 -5.393125057220458984e+00 9.053020738065242767e-03
-5.204282283782958984e+00 -5.455911159515380859e+00 9.211845695972442627e-03
-5.084838390350341797e+00 -5.265618801116943359e+00 8.943065069615840912e-03
-5.312087059020996094e+00 -5.433825016021728516e+00 9.283928200602531433e-03
-7.393091201782226562e+00 -6.949255466461181641e+00 1.080280840396881104e-01
-5.285537242889404297e+00 -5.340713024139404297e+00 9.180081076920032501e-03
-7.459773540496826172e+00 -6.926213741302490234e+00 1.083794087171554565e-01
-5.381199359893798828e+00 -5.371053695678710938e+00 9.288814850151538849e-03
-7.541190147399902344e+00 -6.916131973266601562e+00 1.089436709880828857e-01
-5.360647201538085938e+00 -5.285278320312500000e+00 9.197184816002845764e-03
-7.493813991546630859e+00 -6.788498878479003906e+00 1.076554656028747559e-01
-5.436676025390625000e+00 -5.294846057891845703e+00 9.271710179746150970e-03
-7.478692054748535156e+00 -6.691715240478515625e+00 1.068463400006294250e-01
-5.126029491424560547e+00 -4.931381225585937500e+00 8.690167218446731567e-03
-7.619263172149658203e+00 -6.733771800994873047e+00 1.082623079419136047e-01
-5.354088306427001953e+00 -5.087893009185791016e+00 9.023698978126049042e-03
-7.370411872863769531e+00 -6.433727264404296875e+00 1.041634753346443176e-01
-5.380102634429931641e+00 -5.050154685974121094e+00 9.015147574245929718e-03
-7.455190181732177734e+00 -6.427558898925781250e+00 1.048022583127021790e-01
-5.382389545440673828e+00 -4.990531444549560547e+00 8.967499248683452606e-03
-7.534838199615478516e+00 -6.416052341461181641e+00 1.053665056824684143e-01
-4.943889617919921875e+00 -4.527859687805175781e+00 8.190480060875415802e-03
-7.544983386993408203e+00 -6.345241546630859375e+00 1.049619466066360474e-01
-5.383157730102539062e+00 -4.869765758514404297e+00 8.868539705872535706e-03
-7.519160747528076172e+00 -6.245160579681396484e+00 1.040676608681678772e-01
-5.547905921936035156e+00 -4.957243442535400391e+00 9.089672937989234924e-03
-7.575893878936767578e+00 -6.214126110076904297e+00 1.043231710791587830e-01
-5.291810512542724609e+00 -4.670336246490478516e+00 8.622972294688224792e-03
-7.619319438934326172e+00 -6.171930313110351562e+00 1.043976992368698120e-01
-5.189204692840576172e+00 -4.523443698883056641e+00 8.410390466451644897e-03
-7.515711307525634766e+00 -6.012005329132080078e+00 1.024707108736038208e-01
-5.344934940338134766e+00 -4.601783752441406250e+00 8.616863749921321869e-03
-7.560305595397949219e+00 -5.971974849700927734e+00 1.025771722197532654e-01
-5.363166809082031250e+00 -4.560479640960693359e+00 8.600980974733829498e-03
-7.590499401092529297e+00 -5.920553684234619141e+00 1.024920120835304260e-01
-5.402534961700439453e+00 -4.537132740020751953e+00 8.619306609034538269e-03
-7.566475868225097656e+00 -5.827496528625488281e+00 1.016828864812850952e-01
-4.864538669586181641e+00 -4.034675121307373047e+00 7.721334695816040039e-03
-7.625172615051269531e+00 -5.798512935638427734e+00 1.019916310906410217e-01
-5.427634716033935547e+00 -4.445780754089355469e+00 8.571659214794635773e-03
-7.679799079895019531e+00 -5.766025543212890625e+00 1.022471338510513306e-01
-5.450146675109863281e+00 -4.408620357513427734e+00 8.564328774809837341e-03
-7.584094047546386719e+00 -5.621734619140625000e+00 1.005117893218994141e-01
-5.227851867675781250e+00 -4.176001071929931641e+00 8.174597285687923431e-03
-1.029162597656250000e+01 -6.974833011627197266e+00 2.517395615577697754e-01
-7.590202331542968750e+00 -5.554425239562988281e+00 1.001391708850860596e-01
-5.563507556915283203e+00 -4.388474941253662109e+00 8.657180704176425934e-03
-1.035916042327880859e+01 -6.928227901458740234e+00 2.523469030857086182e-01
-7.643594264984130859e+00 -5.521801471710205078e+00 1.003946810960769653e-01
-5.251091480255126953e+00 -4.090025424957275391e+00 8.131836540997028351e-03
-1.039313220977783203e+01 -6.859028339385986328e+00 2.521444857120513916e-01
-7.529158115386962891e+00 -5.369133472442626953e+00 9.845705330371856689e-02
-5.593954086303710938e+00 -4.302192211151123047e+00 8.621750399470329285e-03
-1.042245578765869141e+01 -6.786944389343261719e+00 2.518408000469207764e-01
-7.523529529571533203e+00 -5.295782566070556641e+00 9.795667231082916260e-02
-5.604318141937255859e+00 -4.255692005157470703e+00 8.597315289080142975e-03
-1.044287490844726562e+01 -6.709355354309082031e+00 2.513346970081329346e-01
-7.401496410369873047e+00 -5.142258644104003906e+00 9.595517069101333618e-02
-5.686332702636718750e+00 -4.263214588165283203e+00 8.682836778461933136e-03
-1.184076213836669922e+01 -6.918749332427978516e+00 4.070208668708801270e-01
-1.039602279663085938e+01 -6.589486598968505859e+00 2.492292672395706177e-01
-7.586301326751708984e+00 -5.201927661895751953e+00 9.793538600206375122e-02
-5.641652584075927734e+00 -4.175889015197753906e+00 8.575324900448322296e-03
-1.185614299774169922e+01 -6.830497741699218750e+00 4.061012566089630127e-01
-1.035911655426025391e+01 -6.477337837219238281e+00 2.473870217800140381e-01
-7.594060420989990234e+00 -5.139029026031494141e+00 9.762664139270782471e-02
-5.489540100097656250e+00 -4.011394500732421875e+00 8.306543342769145966e-03
-1.187175559997558594e+01 -6.742811203002929688e+00 4.052112400531768799e-01
-1.037058448791503906e+01 -6.396333217620849609e+00 2.467189431190490723e-01
-7.523999214172363281e+00 -5.024586200714111328e+00 9.632778912782669067e-02
-5.882248401641845703e+00 -4.243240356445312500e+00 8.861209265887737274e-03
-1.185883235931396484e+01 -6.639565944671630859e+00 4.033719599246978760e-01
-1.033105373382568359e+01 -6.284775733947753906e+00 2.448564618825912476e-01
-7.589756011962890625e+00 -5.001433849334716797e+00 9.677493572235107422e-02
-5.913875579833984375e+00 -4.211128234863281250e+00 8.869761601090431213e-03
-1.190897464752197266e+01 -6.571988582611083984e+00 4.036982655525207520e-01
-1.030340766906738281e+01 -6.181661128997802734e+00 2.432976514101028442e-01
-7.513834953308105469e+00 -4.885545253753662109e+00 9.542285650968551636e-02
-5.774342060089111328e+00 -4.058604717254638672e+00 8.622972294688224792e-03
-1.166457366943359375e+01 -6.344059467315673828e+00 3.940863907337188721e-01
-1.031877136230468750e+01 -6.105087757110595703e+00 2.427712976932525635e-01
-7.627835750579833984e+00 -4.893341541290283203e+00 9.648749232292175293e-02
-5.813104152679443359e+00 -4.032787799835205078e+00 8.643741719424724579e-03
-1.169270801544189453e+01 -6.266701698303222656e+00 3.937304019927978516e-01
-1.030767726898193359e+01 -6.013444900512695312e+00 2.416376024484634399e-01
-7.697429180145263672e+00 -4.871579170227050781e+00 9.698786586523056030e-02
-5.863317966461181641e+00 -4.014556884765625000e+00 8.681614883244037628e-03
-1.173093986511230469e+01 -6.194838523864746094e+00 3.937304019927978516e-01
-1.036084747314453125e+01 -5.959556102752685547e+00 2.420222461223602295e-01
-7.744139671325683594e+00 -4.834847927093505859e+00 9.720078855752944946e-02
-5.899440765380859375e+00 -3.986342906951904297e+00 8.698719553649425507e-03
-1.171375274658203125e+01 -6.094140052795410156e+00 3.918911218643188477e-01
-1.039548015594482422e+01 -5.894885063171386719e+00 2.419817745685577393e-01
-7.771957397460937500e+00 -4.786191463470458984e+00 9.717949479818344116e-02
-5.767374515533447266e+00 -3.845769882202148438e+00 8.469033986330032349e-03
-1.175804138183593750e+01 -6.025797843933105469e+00 3.921284377574920654e-01
-1.037734699249267578e+01 -5.800743103027343750e+00 2.407266050577163696e-01
-7.771265983581542969e+00 -4.720244407653808594e+00 9.680687636137008667e-02
-5.956268787384033203e+00 -3.919144153594970703e+00 8.710936643183231354e-03
-1.163506698608398438e+01 -5.872914791107177734e+00 3.868181705474853516e-01
-1.034356498718261719e+01 -5.698844909667968750e+00 2.391272932291030884e-01
-7.804371833801269531e+00 -4.675041675567626953e+00 9.686011075973510742e-02
-5.947493553161621094e+00 -3.861286878585815430e+00 8.663289248943328857e-03
-1.164940166473388672e+01 -5.790734767913818359e+00 3.861061632633209229e-01
-1.035812950134277344e+01 -5.624298095703125000e+00 2.386616766452789307e-01
-7.878540039062500000e+00 -4.654021263122558594e+00 9.742435812950134277e-02
-5.975284099578857422e+00 -3.827417612075805664e+00 8.669397793710231781e-03
-1.169638442993164062e+01 -5.724858760833740234e+00 3.864918649196624756e-01
-1.041977214813232422e+01 -5.575257778167724609e+00 2.392892539501190186e-01
-7.862882137298583984e+00 -4.579924106597900391e+00 9.688139706850051880e-02
-6.038387775421142578e+00 -3.815789222717285156e+00 8.726818487048149109e-03
-1.154039287567138672e+01 -5.560994625091552734e+00 3.802026212215423584e-01
-1.037153434753417969e+01 -5.467855930328369141e+00 2.374065071344375610e-01
-7.672320365905761719e+00 -4.406102180480957031e+00 9.419853240251541138e-02
-6.042169094085693359e+00 -3.766499757766723633e+00 8.698719553649425507e-03
-1.157700538635253906e+01 -5.491364002227783203e+00 3.802915811538696289e-01
-1.037649726867675781e+01 -5.389368057250976562e+00 2.367586940526962280e-01
-7.660054206848144531e+00 -4.336773395538330078e+00 9.371944516897201538e-02
-6.020018577575683594e+00 -3.701594114303588867e+00 8.633967489004135132e-03
-1.157515907287597656e+01 -5.403735637664794922e+00 3.791346251964569092e-01
-1.031680297851562500e+01 -5.278238773345947266e+00 2.346532791852951050e-01
-7.999988079071044922e+00 -4.464631080627441406e+00 9.754147380590438843e-02
-5.925476074218750000e+00 -3.593544960021972656e+00 8.466590195894241333e-03
-1.159174919128417969e+01 -5.325099468231201172e+00 3.786006271839141846e-01
-1.025971031188964844e+01 -5.169846057891845703e+00 2.326288223266601562e-01
-8.018470764160156250e+00 -4.410640716552734375e+00 9.743501245975494385e-02
-6.018645763397216797e+00 -3.599722623825073242e+00 8.567994460463523865e-03
-1.158048439025878906e+01 -5.234112739562988281e+00 3.771766424179077148e-01
-1.028407478332519531e+01 -5.103241443634033203e+00 2.324668765068054199e-01
-7.856379508972167969e+00 -4.258899688720703125e+00 9.514605253934860229e-02
-6.050955772399902344e+00 -3.568821191787719727e+00 8.582654409110546112e-03
-1.158132743835449219e+01 -5.149150848388671875e+00 3.761679828166961670e-01
-1.032956695556640625e+01 -5.047066211700439453e+00 2.327907830476760864e-01
-7.903531551361083984e+00 -4.221920967102050781e+00 9.540156275033950806e-02
-6.109046936035156250e+00 -3.552740573883056641e+00 8.633967489004135132e-03
-1.147166728973388672e+01 -5.016319751739501953e+00 3.715994060039520264e-01
-1.032700443267822266e+01 -4.967554569244384766e+00 2.320417463779449463e-01
-7.912475585937500000e+00 -4.164497852325439453e+00 9.519928693771362305e-02
-6.105573177337646484e+00 -3.500764369964599609e+00 8.598537184298038483e-03
-1.149029350280761719e+01 -4.940702915191650391e+00 3.712137341499328613e-01
-1.035186862945556641e+01 -4.901528358459472656e+00 2.319202721118927002e-01
-7.922788143157958984e+00 -4.108044147491455078e+00 9.501829743385314941e-02
-6.131290912628173828e+00 -3.465695619583129883e+00 8.604645729064941406e-03
-1.049936485290527344e+01 -4.438479900360107422e+00 3.383138477802276611e-01
-1.031378173828125000e+01 -4.806245326995849609e+00 2.304019331932067871e-01
-7.937159061431884766e+00 -4.053895473480224609e+00 9.489053487777709961e-02
-6.128854751586914062e+00 -3.414868116378784180e+00 8.571659214794635773e-03
-1.151959705352783203e+01 -4.786670207977294922e+00 3.702347278594970703e-01
-1.031217861175537109e+01 -4.728701591491699219e+00 2.297136187553405762e-01
-7.812705039978027344e+00 -3.930075407028198242e+00 9.311261028051376343e-02
-5.697406768798828125e+00 -3.128817796707153320e+00 7.941246964037418365e-03
-1.154319953918457031e+01 -4.713630199432373047e+00 3.700567483901977539e-01
-1.024986553192138672e+01 -4.624223232269287109e+00 2.276891916990280151e-01
-7.902978897094726562e+00 -3.914909839630126953e+00 9.390043467283248901e-02
-6.130723476409912109e+00 -3.317981719970703125e+00 8.516681380569934845e-03
-1.150511074066162109e+01 -4.615915775299072266e+00 3.679207861423492432e-01
-1.025611400604248047e+01 -4.551510810852050781e+00 2.272033244371414185e-01
-7.952914237976074219e+00 -3.879056453704833984e+00 9.420917183160781860e-02
-6.128907203674316406e+00 -3.268537759780883789e+00 8.486137725412845612e-03
-1.180383205413818359e+01 -4.651884078979492188e+00 3.765536546707153320e-01
-1.029576015472412109e+01 -4.493693828582763672e+00 2.274664938449859619e-01
-7.983777523040771484e+00 -3.833648204803466797e+00 9.429434686899185181e-02
-6.062979698181152344e+00 -3.185751438140869141e+00 8.367630653083324432e-03
-1.036601734161376953e+01 -4.453123569488525391e+00 6.366903781890869141e-01
-1.178088283538818359e+01 -4.559526920318603516e+00 3.749220073223114014e-01
-1.028822708129882812e+01 -4.415452480316162109e+00 2.266972213983535767e-01
-8.022519111633300781e+00 -3.791852712631225586e+00 9.447533637285232544e-02
-6.001598358154296875e+00 -3.106657028198242188e+00 8.256453089416027069e-03
-1.159466552734375000e+01 -4.405847549438476562e+00 3.681284487247467041e-01
-1.028564834594726562e+01 -4.339804649353027344e+00 2.260493785142898560e-01
-7.946809291839599609e+00 -3.696585893630981445e+00 9.331488609313964844e-02
-5.861080646514892578e+00 -2.988463878631591797e+00 8.037763647735118866e-03
-1.176102542877197266e+01 -4.386669158935546875e+00 3.725486993789672852e-01
-1.030007743835449219e+01 -4.271632194519042969e+00 2.257862091064453125e-01
-7.706576347351074219e+00 -3.527481794357299805e+00 9.023810923099517822e-02
-6.200126171112060547e+00 -3.113552331924438477e+00 8.476364426314830780e-03
-9.781997680664062500e+00 -3.589990854263305664e+00 3.070713043212890625e+00
-9.874403953552246094e+00 -3.625859498977661133e+00 2.671501874923706055e+00
-1.176143741607666016e+01 -4.304802417755126953e+00 3.717180490493774414e-01
-1.029831790924072266e+01 -4.197031974792480469e+00 2.251788675785064697e-01
-7.998867988586425781e+00 -3.602072715759277344e+00 9.340006113052368164e-02
-6.168020248413085938e+00 -3.050183773040771484e+00 8.406725712120532990e-03
-9.962119102478027344e+00 -3.588854789733886719e+00 2.689224720001220703e+00
-1.013141918182373047e+01 -3.651843070983886719e+00 2.312707901000976562e+00
-1.028187847137451172e+01 -3.704048156738281250e+00 1.930962562561035156e+00
-1.169543552398681641e+01 -4.199450492858886719e+00 3.688107430934906006e-01
-1.030252933502197266e+01 -4.125216007232666016e+00 2.247132509946823120e-01
-8.044589996337890625e+00 -3.563454389572143555e+00 9.367686510086059570e-02
-6.194711685180664062e+00 -3.016220092773437500e+00 8.417720906436443329e-03
-1.009556293487548828e+01 -3.569078445434570312e+00 2.299480438232421875e+00
-1.030255603790283203e+01 -3.640233755111694336e+00 1.930614590644836426e+00
-1.050468158721923828e+01 -3.709589481353759766e+00 1.551809549331665039e+00
-1.073791980743408203e+01 -3.787739276885986328e+00 1.166627287864685059e+00
-1.133820438385009766e+01 -3.992811918258666992e+00 3.567662835121154785e-01
-1.033695125579833984e+01 -4.065582752227783203e+00 2.249156981706619263e-01
-8.025966644287109375e+00 -3.496454238891601562e+00 9.320842474699020386e-02
-6.255484580993652344e+00 -2.998468637466430664e+00 8.475142531096935272e-03
-1.071865367889404297e+01 -3.707149505615234375e+00 1.162040829658508301e+00
-1.093194389343261719e+01 -3.776646375656127930e+00 7.621250152587890625e-01
-1.035774803161621094e+01 -4.443282604217529297e+00 5.295350551605224609e-01
-1.112344837188720703e+01 -3.840632200241088867e+00 3.492607176303863525e-01
-1.037196159362792969e+01 -4.006042003631591797e+00 2.251383811235427856e-01
-7.815640926361083984e+00 -3.347921133041381836e+00 9.052555263042449951e-02
-5.884876728057861328e+00 -2.776547670364379883e+00 7.949798367917537689e-03
-1.037285137176513672e+01 -4.374598503112792969e+00 5.289248824119567871e-01
-1.113165569305419922e+01 -3.767180919647216797e+00 3.487860560417175293e-01
-1.040382575988769531e+01 -3.945161581039428711e+00 2.253003418445587158e-01
-8.051681518554687500e+00 -3.390714645385742188e+00 9.301678836345672607e-02
-5.914500236511230469e+00 -2.746282339096069336e+00 7.966903038322925568e-03
-1.194867229461669922e+01 -3.962131738662719727e+00 3.736166954040527344e-01
-1.044189167022705078e+01 -3.886481523513793945e+00 2.256039977073669434e-01
-7.956844329833984375e+00 -3.293443441390991211e+00 9.168600291013717651e-02
-6.138619899749755859e+00 -2.804690361022949219e+00 8.245457895100116730e-03
-9.803045272827148438e+00 -3.607546806335449219e+00 2.959793090820312500e+00
-9.967286109924316406e+00 -3.664038181304931641e+00 2.582844257354736328e+00
-1.199272346496582031e+01 -3.895225763320922852e+00 3.742396831512451172e-01
-1.032373619079589844e+01 -3.770546197891235352e+00 2.225471138954162598e-01
-8.112135887145996094e+00 -3.299564599990844727e+00 9.324036538600921631e-02
-6.103724002838134766e+00 -2.743602514266967773e+00 8.175819180905818939e-03
-9.757124900817871094e+00 -3.522823572158813477e+00 2.939347028732299805e+00
-9.993236541748046875e+00 -3.604129552841186523e+00 2.583789587020874023e+00
-1.016478157043457031e+01 -3.661988973617553711e+00 2.209945201873779297e+00
-1.034866046905517578e+01 -3.724153041839599609e+00 1.832603096961975098e+00
-1.207069301605224609e+01 -3.838833808898925781e+00 3.759306669235229492e-01
-1.035044193267822266e+01 -3.708478927612304688e+00 2.226280868053436279e-01
-8.171227455139160156e+00 -3.265311717987060547e+00 9.368750452995300293e-02
-6.251230239868164062e+00 -2.763925313949584961e+00 8.350525982677936554e-03
-1.018982982635498047e+01 -3.600529193878173828e+00 2.210546255111694336e+00
-1.035457324981689453e+01 -3.654675245285034180e+00 1.829644680023193359e+00
-1.057065296173095703e+01 -3.726792335510253906e+00 1.451735615730285645e+00
-1.076947784423828125e+01 -3.792663812637329102e+00 1.061206459999084473e+00
-1.210833644866943359e+01 -3.769153356552124023e+00 3.763756453990936279e-01
-1.030508708953857422e+01 -3.621035575866699219e+00 2.211704701185226440e-01
-8.185524940490722656e+00 -3.212920427322387695e+00 9.362363070249557495e-02
-6.277242183685302734e+00 -2.729503870010375977e+00 8.362743072211742401e-03
-1.079536914825439453e+01 -3.727486848831176758e+00 1.061483979225158691e+00
-1.100153350830078125e+01 -3.794374942779541016e+00 6.567489504814147949e-01
-1.229092025756835938e+01 -3.743422031402587891e+00 3.813299238681793213e-01
-1.029591655731201172e+01 -3.546990156173706055e+00 2.205024063587188721e-01
-8.220013618469238281e+00 -3.168388605117797852e+00 9.379397332668304443e-02
-6.295710563659667969e+00 -2.691722393035888672e+00 8.365186862647533417e-03
-1.216421604156494141e+01 -3.623420715332031250e+00 3.767019808292388916e-01
-1.020760631561279297e+01 -3.446647167205810547e+00 2.181540578603744507e-01
-8.162611961364746094e+00 -3.088871955871582031e+00 9.292097389698028564e-02
-6.299201965332031250e+00 -2.647617340087890625e+00 8.348082192242145538e-03
-1.228986644744873047e+01 -3.578896999359130859e+00 3.799059391021728516e-01
-1.018964481353759766e+01 -3.371074438095092773e+00 2.173240333795547485e-01
-8.081111907958984375e+00 -3.001475811004638672e+00 9.178181737661361694e-02
-6.270041465759277344e+00 -2.590207576751708984e+00 8.288217708468437195e-03
-9.839284896850585938e+00 -3.624905347824096680e+00 2.860716581344604492e+00
-9.983018875122070312e+00 -3.671922922134399414e+00 2.479198932647705078e+00
-1.255482769012451172e+01 -3.572635412216186523e+00 3.874115049839019775e-01
-1.019587039947509766e+01 -3.303865432739257812e+00 2.170203626155853271e-01
-8.030793190002441406e+00 -2.926839351654052734e+00 9.100463986396789551e-02
-6.256166458129882812e+00 -2.539650201797485352e+00 8.249122649431228638e-03
-9.845917701721191406e+00 -3.558889150619506836e+00 2.856242179870605469e+00
-1.005208015441894531e+01 -3.627458572387695312e+00 2.490775346755981445e+00
-1.021777153015136719e+01 -3.679190635681152344e+00 2.114901781082153320e+00
-1.039136791229248047e+01 -3.739650249481201172e+00 1.733362674713134766e+00
-1.259769916534423828e+01 -3.501421689987182617e+00 3.880641460418701172e-01
-1.019117355346679688e+01 -3.233381271362304688e+00 2.164940088987350464e-01
-8.183245658874511719e+00 -2.925646066665649414e+00 9.252705425024032593e-02
-6.201967716217041016e+00 -2.473432302474975586e+00 8.157492615282535553e-03
-1.023274993896484375e+01 -3.613811492919921875e+00 2.113372564315795898e+00
-1.044486045837402344e+01 -3.686670541763305664e+00 1.738479495048522949e+00
-1.066906547546386719e+01 -3.755339622497558594e+00 1.358729004859924316e+00
-1.082362270355224609e+01 -3.805495738983154297e+00 9.573758840560913086e-01
-1.100045585632324219e+01 -3.863354682922363281e+00 5.477916598320007324e-01
-1.249353790283203125e+01 -3.390029191970825195e+00 3.842075467109680176e-01
-1.021941471099853516e+01 -3.173456907272338867e+00 2.166762053966522217e-01
-8.218972206115722656e+00 -2.881665706634521484e+00 9.272933751344680786e-02
-6.329691886901855469e+00 -2.479464054107666016e+00 8.305322378873825073e-03
-1.084111690521240234e+01 -3.737063169479370117e+00 9.568769931793212891e-01
-1.110895538330078125e+01 -3.825052499771118164e+00 5.520154833793640137e-01
-1.274987316131591797e+01 -3.375730037689208984e+00 3.914461135864257812e-01
-1.024730396270751953e+01 -3.113307952880859375e+00 2.168584167957305908e-01
-8.116403579711914062e+00 -2.789899587631225586e+00 9.137725830078125000e-02
-6.338253021240234375e+00 -2.438066005706787109e+00 8.296770043671131134e-03
-1.281680107116699219e+01 -3.309430122375488281e+00 3.928700983524322510e-01
-1.023171234130859375e+01 -3.040121793746948242e+00 2.161296159029006958e-01
-8.017760276794433594e+00 -2.701098442077636719e+00 9.007841348648071289e-02
-6.336254119873046875e+00 -2.392770290374755859e+00 8.274778723716735840e-03
-1.329245185852050781e+01 -3.345385074615478516e+00 4.068132042884826660e-01
-1.027321624755859375e+01 -2.983976840972900391e+00 2.166154831647872925e-01
-8.176615715026855469e+00 -2.698864459991455078e+00 9.167535603046417236e-02
-6.213917255401611328e+00 -2.303106784820556641e+00 8.096406236290931702e-03
-9.856668472290039062e+00 -3.633385658264160156e+00 2.761819601058959961e+00
-1.002997398376464844e+01 -3.687330722808837891e+00 2.388668775558471680e+00
-1.289916324615478516e+01 -3.162371158599853516e+00 3.941754102706909180e-01
-1.030575847625732422e+01 -2.924979925155639648e+00 2.169191390275955200e-01
-8.093118667602539062e+00 -2.616346359252929688e+00 9.055749326944351196e-02
-6.322849750518798828e+00 -2.299454689025878906e+00 8.219800889492034912e-03
-9.902423858642578125e+00 -3.581390142440795898e+00 2.768430471420288086e+00
-1.008454036712646484e+01 -3.637307643890380859e+00 2.396303653717041016e+00
-1.026322555541992188e+01 -3.691637516021728516e+00 2.017549514770507812e+00
-1.043716716766357422e+01 -3.745976448059082031e+00 1.635509371757507324e+00
-1.270734596252441406e+01 -3.032810449600219727e+00 3.877378404140472412e-01
-1.031580543518066406e+01 -2.859553575515747070e+00 2.167571932077407837e-01
-8.283479690551757812e+00 -2.621857643127441406e+00 9.250576794147491455e-02
-6.300107002258300781e+00 -2.247510910034179688e+00 8.172153495252132416e-03
-1.025786399841308594e+01 -3.618779659271240234e+00 2.012092590332031250e+00
-1.047395420074462891e+01 -3.686791896820068359e+00 1.637698054313659668e+00
-1.070604038238525391e+01 -3.762186288833618164e+00 1.254817247390747070e+00
-1.086626529693603516e+01 -3.812099695205688477e+00 8.517111539840698242e-01
-1.109021663665771484e+01 -3.884145975112915039e+00 4.411480128765106201e-01
-1.336443519592285156e+01 -3.103086948394775391e+00 4.071988761425018311e-01
-1.036403942108154297e+01 -2.804559946060180664e+00 2.174050062894821167e-01
-8.281262397766113281e+00 -2.565359830856323242e+00 9.230348467826843262e-02
-6.387403488159179688e+00 -2.234568834304809570e+00 8.267448283731937408e-03
-1.067253875732421875e+01 -3.676998615264892578e+00 1.248222827911376953e+00
-1.086870384216308594e+01 -3.738217830657958984e+00 8.500884175300598145e-01
-1.112707233428955078e+01 -3.820567846298217773e+00 4.416732192039489746e-01
-1.198991012573242188e+01 -2.706509828567504883e+00 3.648058176040649414e-01
-1.041681957244873047e+01 -2.750358343124389648e+00 2.181540578603744507e-01
-8.260482788085937500e+00 -2.503477811813354492e+00 9.189892560243606567e-02
-6.290322780609130859e+00 -2.157377481460571289e+00 8.124506101012229919e-03
-1.362021350860595703e+01 -2.986811399459838867e+00 4.138441383838653564e-01
-1.038121509552001953e+01 -2.672928094863891602e+00 2.170608490705490112e-01
-8.137633323669433594e+00 -2.411828756332397461e+00 9.036586433649063110e-02
-6.350835800170898438e+00 -2.134670495986938477e+00 8.185592480003833771e-03
-1.257361793518066406e+01 -2.676547527313232422e+00 3.815375864505767822e-01
-1.040517902374267578e+01 -2.611126661300659180e+00 2.172228097915649414e-01
-8.139792442321777344e+00 -2.358234167098999023e+00 9.022745490074157715e-02
-6.226090431213378906e+00 -2.050308465957641602e+00 8.008441887795925140e-03
-1.322609710693359375e+01 -2.730718851089477539e+00 4.008206427097320557e-01
-1.018791580200195312e+01 -2.490258216857910156e+00 2.123641520738601685e-01
-7.841414928436279297e+00 -2.219728231430053711e+00 8.676741272211074829e-02
-6.296608448028564453e+00 -2.030791282653808594e+00 8.082967251539230347e-03
-1.359741306304931641e+01 -2.720501899719238281e+00 4.115598499774932861e-01
-1.029637718200683594e+01 -2.449916601181030273e+00 2.143076062202453613e-01
-8.183539390563964844e+00 -2.262432098388671875e+00 9.039779752492904663e-02
-6.447221279144287109e+00 -2.035778284072875977e+00 8.260117843747138977e-03
-1.328020095825195312e+01 -2.572390556335449219e+00 4.014733135700225830e-01
-1.031511211395263672e+01 -2.387594938278198242e+00 2.143885791301727295e-01
-8.379729270935058594e+00 -2.261416673660278320e+00 9.240995347499847412e-02
-6.505451679229736328e+00 -2.010352611541748047e+00 8.318761363625526428e-03
-1.371524906158447266e+01 -2.569448947906494141e+00 4.141407907009124756e-01
-1.031591224670410156e+01 -2.321184873580932617e+00 2.141051590442657471e-01
-8.207786560058593750e+00 -2.161073446273803711e+00 9.036586433649063110e-02
-6.376953601837158203e+00 -1.927858948707580566e+00 8.139166980981826782e-03
-1.373567390441894531e+01 -2.486135482788085938e+00 4.142891168594360352e-01
-1.031726360321044922e+01 -2.255068778991699219e+00 2.138419896364212036e-01
-8.238325119018554688e+00 -2.115146636962890625e+00 9.055749326944351196e-02
-6.351263046264648438e+00 -1.877637743949890137e+00 8.091518655419349670e-03
-1.332825374603271484e+01 -2.328025341033935547e+00 4.015622735023498535e-01
-1.030058670043945312e+01 -2.185288667678833008e+00 2.132144123315811157e-01
-8.329721450805664062e+00 -2.084217548370361328e+00 9.141985327005386353e-02
-6.304062366485595703e+00 -1.821697354316711426e+00 8.016993291676044464e-03
-1.357293891906738281e+01 -2.285031557083129883e+00 4.085041880607604980e-01
-1.033142852783203125e+01 -2.125670909881591797e+00 2.135788053274154663e-01
-8.359840393066406250e+00 -2.037329673767089844e+00 9.161148220300674438e-02
-6.226582527160644531e+00 -1.757984519004821777e+00 7.904594764113426208e-03
-1.310421371459960938e+01 -2.123519659042358398e+00 3.939974308013916016e-01
-1.031290149688720703e+01 -2.055983304977416992e+00 2.129309922456741333e-01
-8.393589019775390625e+00 -1.991073966026306152e+00 9.184569865465164185e-02
-6.536100387573242188e+00 -1.802144765853881836e+00 8.283331058919429779e-03
-1.358218002319335938e+01 -2.115529775619506836e+00 4.079702198505401611e-01
-1.033612060546875000e+01 -1.994749784469604492e+00 2.131536751985549927e-01
-8.422210693359375000e+00 -1.943356156349182129e+00 9.202668070793151855e-02
-6.534482002258300781e+00 -1.758627533912658691e+00 8.267448283731937408e-03
-1.384106063842773438e+01 -2.068946123123168945e+00 4.153570830821990967e-01
-1.022138118743896484e+01 -1.907629132270812988e+00 2.105421423912048340e-01
-8.173464775085449219e+00 -1.833212137222290039e+00 8.918412774801254272e-02
-6.535477638244628906e+00 -1.715960144996643066e+00 8.255231194198131561e-03
-1.369320201873779297e+01 -1.961024284362792969e+00 4.105511605739593506e-01
-1.016205024719238281e+01 -1.832103729248046875e+00 2.090845406055450439e-01
-8.130822181701660156e+00 -1.771319389343261719e+00 8.859857171773910522e-02
-6.524570465087890625e+00 -1.670370578765869141e+00 8.228353224694728851e-03
-1.336628818511962891e+01 -1.830582380294799805e+00 4.004053175449371338e-01
-1.019083118438720703e+01 -1.772800445556640625e+00 2.094489485025405884e-01
-8.119036674499511719e+00 -1.716638803482055664e+00 8.835371583700180054e-02
-6.534697055816650391e+00 -1.630305171012878418e+00 8.228353224694728851e-03
-1.368848419189453125e+01 -1.789212584495544434e+00 4.097205102443695068e-01
-1.012756443023681641e+01 -1.697839617729187012e+00 2.079306244850158691e-01
-8.244026184082031250e+00 -1.690287470817565918e+00 8.959932625293731689e-02
-6.456150531768798828e+00 -1.568692684173583984e+00 8.117175661027431488e-03
-1.407216072082519531e+01 -1.751611113548278809e+00 4.208750128746032715e-01
-1.018023300170898438e+01 -1.642513751983642578e+00 2.088011205196380615e-01
-8.242472648620605469e+00 -1.637333393096923828e+00 8.947157114744186401e-02
-6.444244384765625000e+00 -1.523985743522644043e+00 8.090297691524028778e-03
-1.398734951019287109e+01 -1.653964757919311523e+00 4.180270731449127197e-01
-1.020197582244873047e+01 -1.581856369972229004e+00 2.090440541505813599e-01
-8.427152633666992188e+00 -1.620335221290588379e+00 9.136661887168884277e-02
-6.601605892181396484e+00 -1.518488883972167969e+00 8.276000618934631348e-03
-1.401412200927734375e+01 -1.570000767707824707e+00 4.185313880443572998e-01
-1.015314388275146484e+01 -1.510547995567321777e+00 2.078496366739273071e-01
-8.432020187377929688e+00 -1.567682743072509766e+00 9.131338447332382202e-02
-6.593233108520507812e+00 -1.474026441574096680e+00 8.254009298980236053e-03
-1.418650913238525391e+01 -1.501232862472534180e+00 4.233966469764709473e-01
-1.018300724029541016e+01 -1.451183199882507324e+00 2.082747668027877808e-01
-8.418844223022460938e+00 -1.511850357055664062e+00 9.106852114200592041e-02
-6.304098606109619141e+00 -1.368825912475585938e+00 7.881381548941135406e-03
-1.406714534759521484e+01 -1.401375651359558105e+00 4.195697009563446045e-01
-1.026304626464843750e+01 -1.398392677307128906e+00 2.097323685884475708e-01
-8.456534385681152344e+00 -1.465115070343017578e+00 9.137725830078125000e-02
-6.446434974670410156e+00 -1.358366727828979492e+00 8.048758842051029205e-03
-1.345943355560302734e+01 -1.257479429244995117e+00 4.012062847614288330e-01
-1.026052761077880859e+01 -1.333975672721862793e+00 2.095096856355667114e-01
-8.368708610534667969e+00 -1.397063374519348145e+00 9.033392369747161865e-02
-6.636883258819580078e+00 -1.356020092964172363e+00 8.276000618934631348e-03
-1.346888828277587891e+01 -1.175044059753417969e+00 4.012656509876251221e-01
-1.026852035522460938e+01 -1.270993113517761230e+00 2.095096856355667114e-01
-8.317886352539062500e+00 -1.336171865463256836e+00 8.969514071941375732e-02
-6.602897167205810547e+00 -1.306922316551208496e+00 8.223466575145721436e-03
-1.347086334228515625e+01 -1.091974616050720215e+00 4.011173248291015625e-01
-1.029697704315185547e+01 -1.210413932800292969e+00 2.099348157644271851e-01
-8.324940681457519531e+00 -1.284956693649291992e+00 8.968450129032135010e-02
-6.669720649719238281e+00 -1.277671694755554199e+00 8.296770043671131134e-03
-1.349226093292236328e+01 -1.010418057441711426e+00 4.015622735023498535e-01
-1.043139743804931641e+01 -1.161370396614074707e+00 2.125260978937149048e-01
-8.369266510009765625e+00 -1.239270925521850586e+00 9.007841348648071289e-02
-6.662685394287109375e+00 -1.233991265296936035e+00 8.278444409370422363e-03
-1.297168159484863281e+01 -8.914285898208618164e-01 3.858985006809234619e-01
-1.047809982299804688e+01 -1.101523756980895996e+00 2.133358716964721680e-01
-8.749957084655761719e+00 -1.240824103355407715e+00 9.409206360578536987e-02
-6.663241386413574219e+00 -1.191854119300842285e+00 8.269892074167728424e-03
-1.322331714630126953e+01 -8.272342085838317871e-01 3.932260870933532715e-01
-1.055331230163574219e+01 -1.044002056121826172e+00 2.147327363491058350e-01
-8.587965965270996094e+00 -1.164143562316894531e+00 9.227155148983001709e-02
-6.666486740112304688e+00 -1.150266647338867188e+00 8.265005424618721008e-03
-1.261937904357910156e+01 -7.117468714714050293e-01 3.751296699047088623e-01
-1.047589588165283203e+01 -9.714737534523010254e-01 2.130322158336639404e-01
-8.582055091857910156e+00 -1.109759688377380371e+00 9.213314950466156006e-02
-6.668487071990966797e+00 -1.108520269393920898e+00 8.258895948529243469e-03
-4.483366966247558594e+00 -2.252789437770843506e-01 1.332311034202575684e-01
-1.052648353576660156e+01 -9.110559821128845215e-01 2.139432132244110107e-01
-8.587710380554199219e+00 -1.056958317756652832e+00 9.212250262498855591e-02
-6.674175739288330078e+00 -1.067424416542053223e+00 8.257674984633922577e-03
-4.459700107574462891e+00 -1.966643780469894409e-01 1.324894428253173828e-01
-1.055280303955078125e+01 -8.481315374374389648e-01 2.143683433532714844e-01
-8.634754180908203125e+00 -1.009003400802612305e+00 9.255899488925933838e-02
-6.676645755767822266e+00 -1.025844812393188477e+00 8.252787403762340546e-03
-4.509766578674316406e+00 -1.711539626121520996e-01 1.339430958032608032e-01
-1.052689933776855469e+01 -7.810714244842529297e-01 2.137407660484313965e-01
-8.207451820373535156e+00 -9.080595374107360840e-01 8.791720867156982422e-02
-6.685782909393310547e+00 -9.852958321571350098e-01 8.256453089416027069e-03
-1.258509063720703125e+01 -4.003120958805084229e-01 3.737056851387023926e-01
-1.056540870666503906e+01 -7.187721133232116699e-01 2.144290953874588013e-01
-8.605710983276367188e+00 -8.987075090408325195e-01 9.212250262498855591e-02
-6.583771705627441406e+00 -9.290241599082946777e-01 8.123284205794334412e-03
-1.213066196441650391e+01 -3.113628923892974854e-01 3.601482212543487549e-01
-1.056662654876708984e+01 -6.537452340126037598e-01 2.143683433532714844e-01
-8.636937141418457031e+00 -8.484286069869995117e-01 9.239930659532546997e-02
-6.364385128021240234e+00 -8.582718968391418457e-01 7.845951244235038757e-03
-1.206838417053222656e+01 -2.356756627559661865e-01 3.582495748996734619e-01
-4.492111682891845703e+00 -2.502632737159729004e-01 9.109996259212493896e-02
-8.282520294189453125e+00 -7.623322606086730957e-01 8.855599164962768555e-02
-6.881315708160400391e+00 -8.850266337394714355e-01 8.476364426314830780e-03
-1.187670516967773438e+01 -1.590379774570465088e-01 3.525239825248718262e-01
-4.478584289550781250e+00 -2.219531685113906860e-01 9.079629927873611450e-02
-8.679575920104980469e+00 -7.451989650726318359e-01 9.275063872337341309e-02
-6.815149784088134766e+00 -8.340408802032470703e-01 8.388399146497249603e-03
-1.177650451660156250e+01 -8.542855829000473022e-02 3.495277166366577148e-01
-4.487852573394775391e+00 -1.948157846927642822e-01 9.095825254917144775e-02
-8.625174522399902344e+00 -6.872421503067016602e-01 9.212250262498855591e-02
-6.829079151153564453e+00 -7.932466864585876465e-01 8.399395272135734558e-03
-1.132000923156738281e+01 -1.265692524611949921e-02 3.359702229499816895e-01
-4.495957374572753906e+00 -1.675357818603515625e-01 9.109996259212493896e-02
-8.563410758972167969e+00 -6.294680237770080566e-01 9.141985327005386353e-02
-6.801015377044677734e+00 -7.477229237556457520e-01 8.359078317880630493e-03
-1.083609294891357422e+01 5.437403544783592224e-02 3.216117620468139648e-01
-1.057271385192871094e+01 -3.290285170078277588e-01 2.141861468553543091e-01
-8.570103645324707031e+00 -5.771135687828063965e-01 9.145177900791168213e-02
-6.773646354675292969e+00 -7.026767730712890625e-01 8.319983258843421936e-03
-1.076459026336669922e+01 1.200704723596572876e-01 3.195054531097412109e-01
-1.056853675842285156e+01 -2.639995515346527100e-01 2.140646725893020630e-01
-8.836976051330566406e+00 -5.406377315521240234e-01 9.426240622997283936e-02
-6.788777828216552734e+00 -6.621690392494201660e-01 8.333421312272548676e-03
-1.072167587280273438e+01 1.853926926851272583e-01 3.182594776153564453e-01
-1.057195663452148438e+01 -1.991849243640899658e-01 2.141051590442657471e-01
-4.477972507476806641e+00 -2.463887482881546021e-01 4.774868860840797424e-02
-6.903252601623535156e+00 -6.305990219116210938e-01 8.469033986330032349e-03
-4.541447162628173828e+00 -2.243236601352691650e-01 2.136349678039550781e-01
-1.052547645568847656e+01 2.466106116771697998e-01 3.124745786190032959e-01
-1.058297729492187500e+01 -1.344398707151412964e-01 2.143076062202453613e-01
-4.470411777496337891e+00 -2.184685170650482178e-01 4.765287414193153381e-02
-6.900017261505126953e+00 -5.876355767250061035e-01 8.460481651127338409e-03
-4.510803222656250000e+00 -1.950725913047790527e-01 2.121331393718719482e-01
-1.054674434661865234e+01 3.118685781955718994e-01 3.131569027900695801e-01
-1.058060359954833984e+01 -6.948171555995941162e-02 2.142468690872192383e-01
-4.486653327941894531e+00 -1.916746646165847778e-01 4.781256616115570068e-02
-6.773897171020507812e+00 -5.350503921508789062e-01 8.301657624542713165e-03
-1.054962730407714844e+01 3.767547011375427246e-01 3.133052289485931396e-01
-1.058982944488525391e+01 -4.562926478683948517e-03 2.144290953874588013e-01
-4.502733707427978516e+00 -1.646897047758102417e-01 4.797226190567016602e-02
-6.823928356170654297e+00 -4.968897700309753418e-01 8.359078317880630493e-03
-1.056409358978271484e+01 4.421895146369934082e-01 3.138095438480377197e-01
-1.057466125488281250e+01 6.032957136631011963e-02 2.141254097223281860e-01
-8.585538864135742188e+00 -2.612807750701904297e-01 9.145177900791168213e-02
-6.847802162170410156e+00 -4.564061462879180908e-01 8.384734392166137695e-03
-1.056118202209472656e+01 5.070012807846069336e-01 3.138095438480377197e-01
-1.059908485412597656e+01 1.255092918872833252e-01 2.146315127611160278e-01
-8.571986198425292969e+00 -2.082317471504211426e-01 9.129209071397781372e-02
-4.555669784545898438e+00 -2.755691707134246826e-01 5.575976800173521042e-03
-1.416425991058349609e+01 2.497109621763229370e-01 7.994690537452697754e-01
-4.535025119781494141e+00 -2.479897439479827881e-01 1.705091893672943115e-01
-1.055487823486328125e+01 5.716317892074584961e-01 3.137205541133880615e-01
-1.053913593292236328e+01 1.894813179969787598e-01 2.134370952844619751e-01
-8.489120483398437500e+00 -1.541065424680709839e-01 9.039779752492904663e-02
-4.484382629394531250e+00 -2.436504513025283813e-01 5.486790556460618973e-03
-4.507515907287597656e+00 -2.187539488077163696e-01 1.694212406873703003e-01
-1.052523040771484375e+01 6.348199248313903809e-01 3.129492402076721191e-01
-1.054477214813232422e+01 2.543134093284606934e-01 2.135788053274154663e-01
-8.715876579284667969e+00 -1.047306656837463379e-01 9.280385822057723999e-02
-4.466814994812011719e+00 -2.152158319950103760e-01 5.463577341288328171e-03
-4.530738353729248047e+00 -1.920231431722640991e-01 1.702465862035751343e-01
-1.051814556121826172e+01 6.991906166076660156e-01 3.128602206707000732e-01
-1.054301261901855469e+01 3.190101385116577148e-01 2.135788053274154663e-01
-8.695357322692871094e+00 -5.112561956048011780e-02 9.258028864860534668e-02
-4.504020214080810547e+00 -1.893157660961151123e-01 5.507559981197118759e-03
-1.419833755493164062e+01 -3.794556017965078354e-03 6.670930385589599609e-01
-1.050767612457275391e+01 7.632811069488525391e-01 3.126822412014007568e-01
-1.054085731506347656e+01 3.836948275566101074e-01 2.135788053274154663e-01
-8.637510299682617188e+00 2.214184729382395744e-03 9.196280688047409058e-02
-4.513091564178466797e+00 -1.619629710912704468e-01 5.517333745956420898e-03
-1.312129974365234375e+01 7.700546085834503174e-02 6.165002584457397461e-01
-1.053567790985107422e+01 8.303322196006774902e-01 3.136612176895141602e-01
-1.054230022430419922e+01 4.485351145267486572e-01 2.136597931385040283e-01
-8.655332565307617188e+00 5.532796308398246765e-02 9.215443581342697144e-02
-6.871955871582031250e+00 -2.044050544500350952e-01 8.399395272135734558e-03
-1.303368282318115234e+01 1.564715653657913208e-01 6.124171614646911621e-01
-1.052540493011474609e+01 8.945390582084655762e-01 3.135128915309906006e-01
-1.052836418151855469e+01 5.126780867576599121e-01 2.134370952844619751e-01
-8.766815185546875000e+00 1.098380908370018005e-01 9.334682673215866089e-02
-6.849087238311767578e+00 -1.616693288087844849e-01 8.370073512196540833e-03
-1.238729572296142578e+01 2.247365862131118774e-01 5.820990204811096191e-01
-1.048985481262207031e+01 9.563821554183959961e-01 3.126228749752044678e-01
-1.051703453063964844e+01 5.768312811851501465e-01 2.132751494646072388e-01
-8.608013153076171875e+00 1.606796085834503174e-01 9.166470915079116821e-02
-6.861948490142822266e+00 -1.198506355285644531e-01 8.384734392166137695e-03
-1.126425075531005859e+01 2.735096216201782227e-01 5.293942689895629883e-01
-1.051363468170166016e+01 1.023634672164916992e+00 3.135128915309906006e-01
-1.050331783294677734e+01 6.407428979873657227e-01 2.130727022886276245e-01
-8.755810737609863281e+00 2.171889692544937134e-01 9.325101226568222046e-02
-7.019544601440429688e+00 -7.952275127172470093e-02 8.576546795666217804e-03
-1.060843086242675781e+01 7.087956070899963379e-01 6.000102162361145020e-01
-1.145605754852294922e+01 3.485132157802581787e-01 5.384990572929382324e-01
-1.055587387084960938e+01 1.093171000480651855e+00 3.149665296077728271e-01
-1.050417613983154297e+01 7.055130004882812500e-01 2.131739258766174316e-01
-8.766306877136230469e+00 2.712806761264801025e-01 9.337876737117767334e-02
-7.000900745391845703e+00 -3.635148704051971436e-02 8.553333580493927002e-03
-1.272844409942626953e+01 4.654100537300109863e-01 5.984313488006591797e-01
-1.268106460571289062e+01 7.538929115980863571e-03 4.760751724243164062e-01
-1.054101848602294922e+01 1.157047510147094727e+00 3.147291839122772217e-01
-1.044181632995605469e+01 7.657111883163452148e-01 2.119997441768646240e-01
-9.054262161254882812e+00 3.358123898506164551e-01 9.646619856357574463e-02
-6.999992370605468750e+00 6.604975089430809021e-03 8.552111685276031494e-03
-1.170740127563476562e+01 5.000248551368713379e-01 5.505606532096862793e-01
-1.182939910888671875e+01 7.961809635162353516e-02 4.441117346286773682e-01
-1.053669929504394531e+01 1.222049713134765625e+00 3.148182034492492676e-01
-1.040403175354003906e+01 8.271517157554626465e-01 2.113316655158996582e-01
-9.052031517028808594e+00 3.913619816303253174e-01 9.646619856357574463e-02
-6.995819568634033203e+00 4.952767491340637207e-02 8.547225035727024078e-03
-1.210918235778808594e+01 5.916419625282287598e-01 5.696150660514831543e-01
-1.074154376983642578e+01 1.382120847702026367e-01 4.032945930957794189e-01
-1.052999591827392578e+01 1.286800026893615723e+00 3.148478865623474121e-01
-1.045155715942382812e+01 8.954976797103881836e-01 2.124046385288238525e-01
-8.776805877685546875e+00 4.334321916103363037e-01 9.355974942445755005e-02
-6.991384506225585938e+00 9.239942580461502075e-02 8.542337454855442047e-03
-1.196768379211425781e+01 6.583595871925354004e-01 5.631384253501892090e-01
-1.045874309539794922e+01 1.987638026475906372e-01 3.927151262760162354e-01
-1.051694393157958984e+01 1.350749969482421875e+00 3.146995306015014648e-01
-1.051157569885253906e+01 9.656468033790588379e-01 2.137407660484313965e-01
-9.250221252441406250e+00 5.137262344360351562e-01 9.863804280757904053e-02
-7.112663269042968750e+00 1.376567333936691284e-01 8.691389113664627075e-03
-1.177198791503906250e+01 7.200700640678405762e-01 5.541274547576904297e-01
-1.047231101989746094e+01 2.633104622364044189e-01 3.932778835296630859e-01
-1.053619575500488281e+01 1.418990850448608398e+00 3.155301809310913086e-01
-1.045072555541992188e+01 1.024760127067565918e+00 2.126273214817047119e-01
-8.868635177612304688e+00 5.471386909484863281e-01 9.460309147834777832e-02
-6.993722915649414062e+00 1.782894432544708252e-01 8.547225035727024078e-03
-1.170057296752929688e+01 7.877922058105468750e-01 5.509830117225646973e-01
-1.045152091979980469e+01 3.269687294960021973e-01 3.925650715827941895e-01
-1.054411697387695312e+01 1.485984325408935547e+00 3.160345256328582764e-01
-1.053771495819091797e+01 1.098610520362854004e+00 2.145302891731262207e-01
-9.059652328491210938e+00 6.147459745407104492e-01 9.667912125587463379e-02
-6.977504730224609375e+00 2.207245081663131714e-01 8.528898470103740692e-03
-1.172341346740722656e+01 8.616207838058471680e-01 5.522971153259277344e-01
-1.046030235290527344e+01 3.915030062198638916e-01 3.929777443408966064e-01
-1.053084468841552734e+01 1.550071477890014648e+00 3.159158527851104736e-01
-1.053475189208984375e+01 1.163687109947204590e+00 2.146112918853759766e-01
-8.738595962524414062e+00 6.468498706817626953e-01 9.329359978437423706e-02
-6.990009307861328125e+00 2.640620172023773193e-01 8.546003140509128571e-03
-1.175375270843505859e+01 9.363939166069030762e-01 5.539866685867309570e-01
-1.047467517852783203e+01 4.564183652400970459e-01 3.936155140399932861e-01
-1.053694343566894531e+01 1.617084503173828125e+00 3.163905143737792969e-01
-1.053734302520751953e+01 1.229463815689086914e+00 2.148137092590332031e-01
-9.261739730834960938e+00 7.427415251731872559e-01 9.892549365758895874e-02
-6.915327548980712891e+00 3.037436306476593018e-01 8.456816896796226501e-03
-1.206924724578857422e+01 1.036092042922973633e+00 5.691457390785217285e-01
-1.047467231750488281e+01 5.208300948143005371e-01 3.937280774116516113e-01
-1.054853725433349609e+01 1.685176491737365723e+00 3.170431554317474365e-01
-1.055440998077392578e+01 1.297145605087280273e+00 2.153198421001434326e-01
-9.021897315979003906e+00 7.792492508888244629e-01 9.641296416521072388e-02
-6.917328357696533203e+00 3.463695943355560303e-01 8.461703546345233917e-03
-1.203182697296142578e+01 1.107290267944335938e+00 5.676908493041992188e-01
-1.048923778533935547e+01 5.860951542854309082e-01 3.944033384323120117e-01
-1.054391574859619141e+01 1.750851869583129883e+00 3.172211647033691406e-01
-1.055616760253906250e+01 1.363162398338317871e+00 2.155222892761230469e-01
-9.028894424438476562e+00 8.356977701187133789e-01 9.654072672128677368e-02
-7.047863483428955078e+00 3.962732851505279541e-01 8.624194189906120300e-03
-1.204170703887939453e+01 1.182755231857299805e+00 5.684887170791625977e-01
-1.048245239257812500e+01 6.502591967582702637e-01 3.942907750606536865e-01
