-3.007271327078342438e-02 -7.275666594505310059e-01 7.460870593786239624e-02
-1.409797091037034988e-02 -6.401773095130920410e-01 1.557410955429077148e-01
-1.720757223665714264e-02 -7.573602199554443359e-01 1.262277215719223022e-01
-4.381596669554710388e-02 -7.328479290008544922e-01 7.522024959325790405e-02
-2.593386359512805939e-02 -7.264044880867004395e-01 6.755739450454711914e-02
-5.258109420537948608e-02 -7.239646315574645996e-01 6.746485084295272827e-02
-6.487410515546798706e-02 -7.089051604270935059e-01 4.017347469925880432e-02
-7.004621624946594238e-02 -6.764520406723022461e-01 6.320781260728836060e-02
-9.024894237518310547e-02 -7.343233227729797363e-01 1.498088333755731583e-02
-1.085355058312416077e-01 -7.338654398918151855e-01 1.502137258648872375e-02
-5.806118622422218323e-02 -7.256925106048583984e-01 5.384507775306701660e-02
-1.157905831933021545e-01 -7.216193675994873047e-01 1.479868311434984207e-02
-1.213673651218414307e-01 -7.277985811233520508e-01 1.494039501994848251e-02
-1.228176876902580261e-01 -6.859833002090454102e-01 3.932830691337585449e-02
-1.059246212244033813e-01 -7.154030203819274902e-01 3.397884964942932129e-02
-1.202812790870666504e-01 -7.463268041610717773e-01 8.048608899116516113e-03
-1.327576041221618652e-01 -7.370975613594055176e-01 7.974084466695785522e-03
-1.277152895927429199e-01 -7.319405674934387207e-01 9.077455615624785423e-04
-6.028833866119384766e+00 -6.975775241851806641e+00 1.126435212790966034e-02
-6.754082202911376953e+00 -6.994209766387939453e+00 1.187888346612453461e-02
-6.740247726440429688e+00 -6.894714832305908203e+00 1.177992299199104309e-02
-6.836589813232421875e+00 -6.907957077026367188e+00 1.187399681657552719e-02
-6.895833969116210938e+00 -6.882832527160644531e+00 1.190331671386957169e-02
-7.061841011047363281e+00 -6.962553977966308594e+00 1.211589947342872620e-02
-6.971181392669677734e+00 -6.789319992065429688e+00 1.188865769654512405e-02
-6.980278968811035156e+00 -6.715219974517822266e+00 1.183367986232042313e-02
-7.053971767425537109e+00 -6.703261852264404297e+00 1.188865769654512405e-02
-7.129237651824951172e+00 -6.692019939422607422e+00 1.194607838988304138e-02
-7.213429450988769531e+00 -6.688264369964599609e+00 1.201816089451313019e-02
-7.273505687713623047e+00 -6.661437988281250000e+00 1.204992551356554031e-02
-7.169633388519287109e+00 -6.485865116119384766e+00 1.181168761104345322e-02
-7.371854782104492188e+00 -6.587003707885742188e+00 1.207802537828683853e-02
-7.426378726959228516e+00 -6.554219245910644531e+00 1.210123859345912933e-02
-7.384289741516113281e+00 -6.436905384063720703e+00 1.196806970983743668e-02
-7.560812950134277344e+00 -6.509569644927978516e+00 1.218920201063156128e-02
-7.750689983367919922e+00 -6.590670585632324219e+00 1.242988370358943939e-02
-7.746568202972412109e+00 -6.505688667297363281e+00 1.235902309417724609e-02
-7.709370613098144531e+00 -6.394194602966308594e+00 1.223685033619403839e-02
-7.752327919006347656e+00 -6.349938869476318359e+00 1.224295888096094131e-02
-8.029053688049316406e+00 -6.494696617126464844e+00 1.261680852621793747e-02
-7.917175769805908203e+00 -6.324229240417480469e+00 1.237979251891374588e-02
-7.863970279693603516e+00 -6.203071594238281250e+00 1.223685033619403839e-02
-7.852969646453857422e+00 -6.116603851318359375e+00 1.216110307723283768e-02
-7.699316501617431641e+00 -5.921381950378417969e+00 1.186666544526815414e-02
-8.061235427856445312e+00 -6.121375083923339844e+00 1.236635353416204453e-02
-8.292267799377441406e+00 -6.216963291168212891e+00 1.266201213002204895e-02
-7.935607910156250000e+00 -5.873849868774414062e+00 1.206214260309934616e-02
-8.389736175537109375e+00 -6.130666255950927734e+00 1.269499957561492920e-02
-8.419896125793457031e+00 -6.073807239532470703e+00 1.268400344997644424e-02
-8.554755210876464844e+00 -6.091634750366210938e+00 1.283061131834983826e-02
-8.384166717529296875e+00 -5.892969608306884766e+00 1.252029091119766235e-02
-8.527803421020507812e+00 -5.916085243225097656e+00 1.268033869564533234e-02
-8.553215980529785156e+00 -5.856303691864013672e+00 1.266445498913526535e-02
-8.594788551330566406e+00 -5.807631015777587891e+00 1.267300732433795929e-02
-8.693493843078613281e+00 -5.796948909759521484e+00 1.276585925370454788e-02
-8.665410041809082031e+00 -5.701722621917724609e+00 1.267300732433795929e-02
-8.701910018920898438e+00 -5.649534702301025391e+00 1.267545204609632492e-02
-8.934295654296875000e+00 -5.722787857055664062e+00 1.296255830675363541e-02
-9.069839477539062500e+00 -5.731429576873779297e+00 1.310794334858655930e-02
-8.834975242614746094e+00 -5.507447719573974609e+00 1.271943282335996628e-02
-9.039823532104492188e+00 -5.558414459228515625e+00 1.296500116586685181e-02
-9.066918373107910156e+00 -5.498693943023681641e+00 1.295522693544626236e-02
-8.964032173156738281e+00 -5.361343860626220703e+00 1.276097260415554047e-02
-9.171612739562988281e+00 -5.409368038177490234e+00 1.300898380577564240e-02
-9.564241409301757812e+00 -5.562122344970703125e+00 1.351722236722707748e-02
-9.268534660339355469e+00 -5.314317703247070312e+00 1.305296644568443298e-02
-9.511641502380371094e+00 -5.376429557800292969e+00 1.334862504154443741e-02
-9.393325805664062500e+00 -5.233762264251708984e+00 1.313726510852575302e-02
-9.496261596679687500e+00 -5.215017318725585938e+00 1.323622558265924454e-02
-9.737393379211425781e+00 -5.269931793212890625e+00 1.352699752897024155e-02
-9.758956909179687500e+00 -5.204438209533691406e+00 1.351233664900064468e-02
-9.533988952636718750e+00 -5.009569644927978516e+00 1.315803453326225281e-02
-9.775909423828125000e+00 -5.060384750366210938e+00 1.344880647957324982e-02
-9.807665824890136719e+00 -5.000760078430175781e+00 1.345002837479114532e-02
-1.020366668701171875e+01 -5.124032974243164062e+00 1.394971553236246109e-02
-1.019995689392089844e+01 -5.044040203094482422e+00 1.390206813812255859e-02
-1.029454994201660156e+01 -5.012441158294677734e+00 1.398881152272224426e-02
-1.034314632415771484e+01 -4.957825183868408203e+00 1.401324570178985596e-02
-9.622727394104003906e+00 -4.540105342864990234e+00 1.299920957535505295e-02
-1.008938884735107422e+01 -4.684809684753417969e+00 1.359052676707506180e-02
-1.056453800201416016e+01 -4.826859951019287109e+00 1.419039722532033920e-02
-1.034221839904785156e+01 -4.648790836334228516e+00 1.385319884866476059e-02
-1.059553813934326172e+01 -4.684721946716308594e+00 1.415374502539634705e-02
-1.062041473388671875e+01 -4.618025302886962891e+00 1.414885744452476501e-02
-1.071475410461425781e+01 -4.581078052520751953e+00 1.423682272434234619e-02
-1.053431606292724609e+01 -4.427678108215332031e+00 1.396071165800094604e-02
-1.089308738708496094e+01 -4.500027179718017578e+00 1.439931243658065796e-02
-1.071109008789062500e+01 -4.348097801208496094e+00 1.412320137023925781e-02
-1.097071075439453125e+01 -4.375274658203125000e+00 1.442985609173774719e-02
-1.100293731689453125e+01 -4.310065746307373047e+00 1.443718560039997101e-02
-1.121117591857910156e+01 -4.312479496002197266e+00 1.467542443424463272e-02
-1.119813346862792969e+01 -4.228769779205322266e+00 1.462411042302846909e-02
-1.095007133483886719e+01 -4.058500289916992188e+00 1.426736544817686081e-02
-1.089864540100097656e+01 -3.963551521301269531e+00 1.416840497404336929e-02
-1.115916728973388672e+01 -3.980940580368041992e+00 1.447505969554185867e-02
-1.103141498565673828e+01 -3.859229326248168945e+00 1.427836064249277115e-02
-1.137555217742919922e+01 -3.901447057723999023e+00 1.469252817332744598e-02
-1.107889175415039062e+01 -3.723885059356689453e+00 1.427958346903324127e-02
-1.121930980682373047e+01 -3.694621562957763672e+00 1.443107705563306808e-02
-1.144829273223876953e+01 -3.692320108413696289e+00 1.469619292765855789e-02
-1.119323825836181641e+01 -3.534383535385131836e+00 1.434066984802484512e-02
-1.127012825012207031e+01 -3.482760906219482422e+00 1.441152952611446381e-02
-1.139179420471191406e+01 -3.443928241729736328e+00 1.453981176018714905e-02
-1.125064468383789062e+01 -3.326052665710449219e+00 1.433333847671747208e-02
-2.894877910614013672e+00 -5.056438446044921875e-01 8.721876144409179688e-02
-1.114691162109375000e+01 -3.221145391464233398e+00 1.417573634535074234e-02
-2.906797170639038086e+00 -4.893651604652404785e-01 8.748576045036315918e-02
-1.137530231475830078e+01 -3.211650133132934570e+00 1.444085128605365753e-02
-2.903825044631958008e+00 -4.705608189105987549e-01 8.730775862932205200e-02
-1.148541355133056641e+01 -3.166777610778808594e+00 1.455569360405206680e-02
-2.903694629669189453e+00 -4.522729218006134033e-01 8.721876144409179688e-02
-1.150173091888427734e+01 -3.095465183258056641e+00 1.455202884972095490e-02
-1.161626243591308594e+01 -3.049974918365478516e+00 1.467297971248626709e-02
-2.906535387039184570e+00 -5.240157842636108398e-01 5.980207026004791260e-02
-1.136738109588623047e+01 -2.910189867019653320e+00 1.433578226715326309e-02
-2.940901517868041992e+00 -5.126579403877258301e-01 1.684694141149520874e-01
-2.885071039199829102e+00 -5.018879175186157227e-01 5.929595604538917542e-02
-1.096393108367919922e+01 -2.735330104827880859e+00 1.380555145442485809e-02
-2.943991661071777344e+00 -4.946032464504241943e-01 1.684694141149520874e-01
-2.892040252685546875e+00 -4.848372340202331543e-01 5.937693268060684204e-02
-1.159949779510498047e+01 -2.818405151367187500e+00 1.458379346877336502e-02
-2.945985317230224609e+00 -4.763705432415008545e-01 1.684130579233169556e-01
-2.895947933197021484e+00 -4.672421514987945557e-01 5.939717963337898254e-02
-1.057626914978027344e+01 -2.501159667968750000e+00 1.327776443213224411e-02
-2.928400039672851562e+00 -4.540598988533020020e-01 6.000451371073722839e-02
-1.159422874450683594e+01 -2.666882514953613281e+00 1.453492417931556702e-02
-2.893552303314208984e+00 -4.304921925067901611e-01 5.923522263765335083e-02
-2.908983230590820312e+00 -5.408386588096618652e-01 3.150242567062377930e-02
-1.155669975280761719e+01 -2.583691835403442383e+00 1.446773018687963486e-02
-2.927010059356689453e+00 -5.256304740905761719e-01 3.166212141513824463e-02
-1.161337947845458984e+01 -2.521644353866577148e+00 1.451904233545064926e-02
-2.954407215118408203e+00 -5.134516358375549316e-01 1.408901959657669067e-01
-2.931165218353271484e+00 -5.078314542770385742e-01 3.167276456952095032e-02
-1.196426200866699219e+01 -2.521060943603515625e+00 1.493809465318918228e-02
-2.954546451568603516e+00 -4.948191046714782715e-01 1.407494097948074341e-01
-2.936198711395263672e+00 -4.901659190654754639e-01 3.169405832886695862e-02
-1.184038066864013672e+01 -2.419176816940307617e+00 1.476461067795753479e-02
-2.955554962158203125e+00 -4.763631820678710938e-01 1.406555473804473877e-01
-2.925328969955444336e+00 -4.699201285839080811e-01 3.154500946402549744e-02
-1.179123783111572266e+01 -2.333859205245971680e+00 1.468519680202007294e-02
-2.996920108795166016e+00 -4.641820788383483887e-01 1.424859017133712769e-01
-2.911357164382934570e+00 -4.493687152862548828e-01 3.136402368545532227e-02
-1.205676555633544922e+01 -2.309629917144775391e+00 1.499796099960803986e-02
-2.908124685287475586e+00 -4.306176900863647461e-01 3.130014240741729736e-02
-2.938031911849975586e+00 -5.441508293151855469e-01 3.650530008599162102e-03
-2.922341823577880859e+00 -5.237721204757690430e-01 1.114593669772148132e-01
-2.932456016540527344e+00 -5.245284438133239746e-01 3.639534348621964455e-03
-2.922546625137329102e+00 -5.053203701972961426e-01 1.113468185067176819e-01
-2.917881488800048828e+00 -5.034648180007934570e-01 3.617543261498212814e-03
-2.932492017745971680e+00 -4.885278940200805664e-01 1.116094291210174561e-01
-2.917956352233886719e+00 -4.850595891475677490e-01 3.613878041505813599e-03
-2.949248075485229492e+00 -4.727394878864288330e-01 1.121346503496170044e-01
-2.903103351593017578e+00 -4.643035233020782471e-01 3.591886721551418304e-03
-2.874068737030029297e+00 -4.426182508468627930e-01 1.091709062457084656e-01
-2.913805007934570312e+00 -4.476966261863708496e-01 3.601660719141364098e-03
-2.909572124481201172e+00 -4.287888407707214355e-01 3.593108616769313812e-03
-1.218329524993896484e+01 -1.719162821769714355e+00 1.503216940909624100e-02
-1.234028720855712891e+01 -1.664154648780822754e+00 1.521298475563526154e-02
-1.239489746093750000e+01 -1.594145059585571289e+00 1.526796258985996246e-02
-1.234191322326660156e+01 -1.510408520698547363e+00 1.519099436700344086e-02
-1.246518039703369141e+01 -1.447920441627502441e+00 1.533149275928735733e-02
-1.247283554077148438e+01 -1.371298909187316895e+00 1.533027086406946182e-02
-1.248002052307128906e+01 -1.294638037681579590e+00 1.532904990017414093e-02
-1.259322834014892578e+01 -1.228327989578247070e+00 1.545855309814214706e-02
-1.254675197601318359e+01 -1.146121978759765625e+00 1.539257913827896118e-02
-1.194076633453369141e+01 -1.016927719116210938e+00 1.464121509343385696e-02
-1.257482528686523438e+01 -9.932487607002258301e-01 1.541090477257966995e-02
-1.227549076080322266e+01 -8.938496708869934082e-01 1.503705605864524841e-02
-1.288141155242919922e+01 -8.585463166236877441e-01 1.577253825962543488e-02
-1.286447715759277344e+01 -7.781628966331481934e-01 1.574565842747688293e-02
-1.293990516662597656e+01 -7.030652761459350586e-01 1.583240181207656860e-02
-1.291700649261474609e+01 -6.223549246788024902e-01 1.579941436648368835e-02
-1.290859317779541016e+01 -5.425820350646972656e-01 1.578475534915924072e-02
-1.290968036651611328e+01 -4.632943868637084961e-01 1.578231155872344971e-02
-1.355799484252929688e+01 -4.032800495624542236e-01 1.657154969871044159e-02
-1.327029418945312500e+01 -3.132387399673461914e-01 1.621724665164947510e-02
-1.331396007537841797e+01 -2.325413227081298828e-01 1.626856066286563873e-02
-1.256718540191650391e+01 -1.423706561326980591e-01 1.535470597445964813e-02
-1.254882240295410156e+01 -6.515851616859436035e-02 1.533149275928735733e-02
-1.308898544311523438e+01 1.235035900026559830e-02 1.599122770130634308e-02
-1.311266231536865234e+01 9.283253550529479980e-02 1.602054946124553680e-02
-1.355580711364746094e+01 1.791560500860214233e-01 1.656299643218517303e-02
-1.364943408966064453e+01 2.641677856445312500e-01 1.667906157672405243e-02
-1.354259109497070312e+01 3.452382981777191162e-01 1.655077934265136719e-02
-1.352922248840332031e+01 4.279797673225402832e-01 1.653734035789966583e-02
-1.369522190093994141e+01 5.173652768135070801e-01 1.674381271004676819e-02
-1.300345325469970703e+01 5.711538791656494141e-01 1.590204052627086639e-02
-1.347610759735107422e+01 6.747856140136718750e-01 1.648480631411075592e-02
-1.347171306610107422e+01 7.574607729911804199e-01 1.648480631411075592e-02
-1.348178195953369141e+01 8.410412669181823730e-01 1.650313101708889008e-02
-1.362801265716552734e+01 9.341427087783813477e-01 1.668883487582206726e-02
-1.361903190612792969e+01 1.017521500587463379e+00 1.668516919016838074e-02
-1.361950969696044922e+01 1.101631522178649902e+00 1.669372245669364929e-02
-1.375595092773437500e+01 1.197668671607971191e+00 1.686965115368366241e-02
-1.372444629669189453e+01 1.279822707176208496e+00 1.684032939374446869e-02
-1.363971424102783203e+01 1.356390595436096191e+00 1.674625650048255920e-02
-1.398516368865966797e+01 1.477458119392395020e+00 1.718119159340858459e-02
-1.383968448638916016e+01 1.548012733459472656e+00 1.701381430029869080e-02
-1.388653182983398438e+01 1.639585971832275391e+00 1.708345301449298859e-02
-1.387124824523925781e+01 1.724144458770751953e+00 1.707734540104866028e-02
-1.384850883483886719e+01 1.807671189308166504e+00 1.706268452107906342e-02
-1.406602573394775391e+01 1.923914074897766113e+00 1.734490320086479187e-02
-1.385894107818603516e+01 1.982291698455810547e+00 1.710422337055206299e-02
-1.385047340393066406e+01 2.067881822586059570e+00 1.710911095142364502e-02
-1.378219032287597656e+01 2.144219160079956055e+00 1.704069413244724274e-02
-1.377568435668945312e+01 2.229863166809082031e+00 1.704924553632736206e-02
-1.373511600494384766e+01 2.309869289398193359e+00 1.701625809073448181e-02
-1.358769321441650391e+01 2.370897531509399414e+00 1.685132458806037903e-02
-1.363488578796386719e+01 2.465435266494750977e+00 1.692829467356204987e-02
-1.368732261657714844e+01 2.561744689941406250e+00 1.701259240508079529e-02
-1.456441688537597656e+01 4.481295108795166016e+00 3.870022296905517578e+00
-1.378621578216552734e+01 2.667909860610961914e+00 1.715553551912307739e-02
-1.433415794372558594e+01 4.506910800933837891e+00 3.816114902496337891e+00
-1.392354011535644531e+01 2.783224582672119141e+00 1.734734699130058289e-02
-1.407184123992919922e+01 4.519497871398925781e+00 3.753591775894165039e+00
-1.474778175354003906e+01 4.733752727508544922e+00 3.326184272766113281e+00
-1.498248195648193359e+01 4.811971187591552734e+00 2.780391216278076172e+00
-6.414893627166748047e+00 1.814702868461608887e+00 1.349899023771286011e-01
-1.399630355834960938e+01 2.887192010879516602e+00 1.745974645018577576e-02
-1.403555679321289062e+01 4.603037834167480469e+00 3.751376390457153320e+00
-6.464140415191650391e+00 1.871546864509582520e+00 1.362653076648712158e-01
-1.376705074310302734e+01 2.928081989288330078e+00 1.719585247337818146e-02
-1.398682785034179688e+01 4.682302474975585938e+00 3.745960950851440430e+00
-6.418024063110351562e+00 1.900953054428100586e+00 1.355365067720413208e-01
-1.376152324676513672e+01 3.015282392501831055e+00 1.721173524856567383e-02
-1.373495960235595703e+01 3.097904682159423828e+00 1.720196194946765900e-02
-1.376634693145751953e+01 3.193874597549438477e+00 1.726549118757247925e-02
-1.381555461883544922e+01 3.294753551483154297e+00 1.735223457217216492e-02
-1.449197483062744141e+01 4.648679256439208984e+00 3.701627731323242188e+00
-1.482669258117675781e+01 4.761757373809814453e+00 3.185262680053710938e+00
-6.444417953491210938e+00 1.827839136123657227e+00 7.131961733102798462e-02
-1.381353187561035156e+01 3.383982896804809570e+00 1.737544871866703033e-02
-1.405041885375976562e+01 4.602310657501220703e+00 3.595988512039184570e+00
-6.419637203216552734e+00 1.863444447517395020e+00 7.117056846618652344e-02
-1.380220603942871094e+01 3.471116304397583008e+00 1.738766394555568695e-02
-1.396109485626220703e+01 4.668099880218505859e+00 3.580390691757202148e+00
-6.391786575317382812e+00 1.897960662841796875e+00 7.098957896232604980e-02
-1.384939575195312500e+01 3.573478460311889648e+00 1.747440733015537262e-02
-1.384171009063720703e+01 3.662226200103759766e+00 1.749273389577865601e-02
-1.415774536132812500e+01 3.838946819305419922e+00 1.792156137526035309e-02
-1.437658023834228516e+01 4.503366470336914062e+00 4.110125064849853516e+00
-1.415704822540283203e+01 3.932167768478393555e+00 1.795088313519954681e-02
-1.435235214233398438e+01 4.592670917510986328e+00 4.111177921295166016e+00
-1.462152767181396484e+01 4.687246799468994141e+00 3.578744649887084961e+00
-1.490336418151855469e+01 4.789071559906005859e+00 3.048486471176147461e+00
-6.432940006256103516e+00 1.829361081123352051e+00 8.170931600034236908e-03
-6.431196212768554688e+00 1.871592760086059570e+00 8.183149620890617371e-03
-6.422466278076171875e+00 1.911874413490295410e+00 8.186814375221729279e-03
-1.343923473358154297e+01 4.090599060058593750e+00 1.716286502778530121e-02
-1.380919456481933594e+01 4.295962810516357422e+00 1.766866259276866913e-02
-1.380354213714599609e+01 4.387277603149414062e+00 1.769554056227207184e-02
-1.444408130645751953e+01 4.619071006774902344e+00 3.986865282058715820e+00
-1.468918704986572266e+01 4.711586952209472656e+00 3.448190450668334961e+00
-1.493685626983642578e+01 4.805407524108886719e+00 2.902455568313598633e+00
-1.381916332244873047e+01 4.485785484313964844e+00 1.775051839649677277e-02
-1.375625705718994141e+01 4.558854579925537109e+00 1.770531386137008667e-02
-1.413725185394287109e+01 4.781586647033691406e+00 1.823310181498527527e-02
-1.333344650268554688e+01 4.601081371307373047e+00 1.723250560462474823e-02
-1.340966796875000000e+01 4.719658851623535156e+00 1.736811734735965729e-02
-1.383224487304687500e+01 4.963984012603759766e+00 1.795454882085323334e-02
-1.439036273956298828e+01 5.264167308807373047e+00 1.872057281434535980e-02
-1.413290977478027344e+01 5.268533229827880859e+00 1.842735707759857178e-02
-1.401337528228759766e+01 5.322132587432861328e+00 1.831373572349548340e-02
-1.418284130096435547e+01 5.486304759979248047e+00 1.857885159552097321e-02
-1.327152442932128906e+01 5.227625370025634766e+00 1.742676086723804474e-02
-1.435112762451171875e+01 5.754846096038818359e+00 1.889039203524589539e-02
-1.405630779266357422e+01 5.736988067626953125e+00 1.854830794036388397e-02
-1.397189426422119141e+01 5.802799701690673828e+00 1.848355680704116821e-02
-1.429987907409667969e+01 6.042160034179687500e+00 1.896614022552967072e-02
-1.372507286071777344e+01 5.898796081542968750e+00 1.825142838060855865e-02
-1.396167755126953125e+01 6.102246284484863281e+00 1.861550286412239075e-02
-1.416248130798339844e+01 6.293791770935058594e+00 1.893437467515468597e-02
-1.402335071563720703e+01 6.335285186767578125e+00 1.879998482763767242e-02
-1.376974391937255859e+01 6.322731494903564453e+00 1.851165667176246643e-02
-1.385574436187744141e+01 6.465456485748291016e+00 1.868025586009025574e-02
-1.402092647552490234e+01 6.647600650787353516e+00 1.895758882164955139e-02
-1.396816062927246094e+01 6.727864742279052734e+00 1.894170604646205902e-02
-1.384397602081298828e+01 6.773014545440673828e+00 1.882930658757686615e-02
-1.379588890075683594e+01 6.854717254638671875e+00 1.882075332105159760e-02
-8.743202209472656250e+00 4.815127372741699219e+00 1.062714457511901855e-01
-1.384195613861083984e+01 6.983833312988281250e+00 1.894170604646205902e-02
-8.712360382080078125e+00 4.805948257446289062e+00 1.215621642768383026e-02
-3.601076841354370117e+00 4.675671577453613281e+00 6.283450871706008911e-02
-3.576726675033569336e+00 4.650662899017333984e+00 7.167891133576631546e-03
-1.095325469970703125e+00 2.830096721649169922e+00 9.006672352552413940e-02
-1.081135153770446777e+00 2.845173358917236328e+00 9.033371508121490479e-02
-1.048986077308654785e+00 2.812419176101684570e+00 8.908773958683013916e-02
-1.116114020347595215e+00 2.837776899337768555e+00 6.174553558230400085e-02
-1.096159219741821289e+00 2.838043451309204102e+00 6.160382553935050964e-02
-1.081915020942687988e+00 2.853129386901855469e+00 6.178602203726768494e-02
-1.061598181724548340e+00 2.852218151092529297e+00 6.162406876683235168e-02
-1.045106291770935059e+00 2.861495733261108398e+00 6.168480217456817627e-02
-1.088976263999938965e+00 2.825221538543701172e+00 3.223701938986778259e-02
-1.076221227645874023e+00 2.844007968902587891e+00 3.237542137503623962e-02
-1.062928438186645508e+00 2.861806631088256836e+00 3.250318020582199097e-02
-1.031652688980102539e+00 2.830694913864135742e+00 3.207732737064361572e-02
-1.089249372482299805e+00 2.831727266311645508e+00 3.706729505211114883e-03
-1.058782339096069336e+00 2.803743362426757812e+00 3.661525668576359749e-03
-1.034722104668617249e-01 7.296581268310546875e-01 7.846329361200332642e-03
-9.482927620410919189e-02 6.995619535446166992e-01 7.516293320804834366e-03
-4.811267182230949402e-02 7.072200775146484375e-01 1.435330603271722794e-02
-3.660471737384796143e-02 6.529342532157897949e-01 3.690550476312637329e-02
-1.340263895690441132e-02 7.044238448143005371e-01 5.879134312272071838e-02
-5.210362840443849564e-03 7.337064146995544434e-01 8.814086765050888062e-02
