-3.260974168777465820e+00 -3.726703166961669922e+00 6.050007883459329605e-03
-5.022301673889160156e+00 -5.272381305694580078e+00 7.752641290426254272e-02
-3.277811527252197266e+00 -3.699887514114379883e+00 6.039012689143419266e-03
-5.123969554901123047e+00 -5.313444137573242188e+00 7.859104871749877930e-02
-3.319815158843994141e+00 -3.701293706893920898e+00 6.074442528188228607e-03
-5.171144485473632812e+00 -5.296929836273193359e+00 7.881461828947067261e-02
-3.276582002639770508e+00 -3.608303070068359375e+00 5.954713094979524612e-03
-5.164889335632324219e+00 -5.225984096527099609e+00 7.822906970977783203e-02
-3.396117925643920898e+00 -3.694139957427978516e+00 6.130642257630825043e-03
-5.160788536071777344e+00 -5.158143043518066406e+00 7.768610864877700806e-02
-3.375799655914306641e+00 -3.627115726470947266e+00 6.053673569113016129e-03
-5.151781558990478516e+00 -5.086335659027099609e+00 7.707926630973815918e-02
-3.370560884475708008e+00 -3.577221393585205078e+00 6.004804279655218124e-03
-5.150679588317871094e+00 -5.023212432861328125e+00 7.660018652677536011e-02
-3.369669437408447266e+00 -3.532593965530395508e+00 5.964487325400114059e-03
-5.298067092895507812e+00 -5.103900909423828125e+00 7.832488417625427246e-02
-3.412121057510375977e+00 -3.533431768417358398e+00 6.001138594001531601e-03
-5.133700847625732422e+00 -4.885181427001953125e+00 7.545038312673568726e-02
-3.451213836669921875e+00 -3.530305862426757812e+00 6.031682249158620834e-03
-5.167950630187988281e+00 -4.857698917388916016e+00 7.551426440477371216e-02
-3.485472202301025391e+00 -3.521857023239135742e+00 6.053673569113016129e-03
-5.372796058654785156e+00 -4.988506793975830078e+00 7.805872708559036255e-02
-3.516217231750488281e+00 -3.509588003158569336e+00 6.069555878639221191e-03
-5.400355815887451172e+00 -4.952742576599121094e+00 7.801614701747894287e-02
-3.521307229995727539e+00 -3.471798658370971680e+00 6.041456013917922974e-03
-5.319481372833251953e+00 -4.818813800811767578e+00 7.641919702291488647e-02
-3.554722070693969727e+00 -3.461987972259521484e+00 6.062225438654422760e-03
-5.400366783142089844e+00 -4.832090377807617188e+00 7.715379446744918823e-02
-3.578059434890747070e+00 -3.442191123962402344e+00 6.065890658646821976e-03
-5.377466201782226562e+00 -4.752510547637939453e+00 7.640855014324188232e-02
-3.596213579177856445e+00 -3.417416572570800781e+00 6.061004009097814560e-03
-5.438164710998535156e+00 -4.747043609619140625e+00 7.685569673776626587e-02
-3.604719638824462891e+00 -3.383651494979858398e+00 6.040234118700027466e-03
-5.470976352691650391e+00 -4.716851234436035156e+00 7.690893113613128662e-02
-3.600481510162353516e+00 -3.338352918624877930e+00 5.998695734888315201e-03
-9.454017639160156250e+00 -6.938317298889160156e+00 3.480443954467773438e-01
-8.808900833129882812e+00 -6.968091487884521484e+00 2.274260073900222778e-01
-5.379526138305664062e+00 -4.580764293670654297e+00 7.522681355476379395e-02
-3.619422674179077148e+00 -3.314847230911254883e+00 5.996252410113811493e-03
-9.515028953552246094e+00 -6.893666267395019531e+00 3.487266898155212402e-01
-8.849127769470214844e+00 -6.912064075469970703e+00 2.273652851581573486e-01
-5.351665496826171875e+00 -4.500687599182128906e+00 7.444963604211807251e-02
-3.701245307922363281e+00 -3.348257541656494141e+00 6.097655277699232101e-03
-9.555522918701171875e+00 -6.833990573883056641e+00 3.486673831939697266e-01
-8.888205528259277344e+00 -6.855194091796875000e+00 2.272842973470687866e-01
-5.500718116760253906e+00 -4.568710327148437500e+00 7.613174617290496826e-02
-3.659828424453735352e+00 -3.270181655883789062e+00 5.996252410113811493e-03
-9.602992057800292969e+00 -6.779265403747558594e+00 3.488750457763671875e-01
-8.938055038452148438e+00 -6.806585311889648438e+00 2.274867445230484009e-01
-5.235631465911865234e+00 -4.294526100158691406e+00 7.209679484367370605e-02
-3.721811532974243164e+00 -3.284719228744506836e+00 6.064668763428926468e-03
-9.665730476379394531e+00 -6.735072612762451172e+00 3.496463596820831299e-01
-8.984446525573730469e+00 -6.755219459533691406e+00 2.276082187891006470e-01
-5.487992286682128906e+00 -4.445476531982421875e+00 7.519487291574478149e-02
-3.674053430557250977e+00 -3.202682256698608398e+00 5.954713094979524612e-03
-9.789234161376953125e+00 -6.732278823852539062e+00 3.526130020618438721e-01
-9.057034492492675781e+00 -6.723205566406250000e+00 2.283977419137954712e-01
-5.618238449096679688e+00 -4.494169235229492188e+00 7.660018652677536011e-02
-3.697424650192260742e+00 -3.183340787887573242e+00 5.960821639746427536e-03
-9.952761650085449219e+00 -6.755164623260498047e+00 3.570035994052886963e-01
-9.108600616455078125e+00 -6.675188541412353516e+00 2.286609113216400146e-01
-5.684942245483398438e+00 -4.490602970123291016e+00 7.713250070810317993e-02
-3.717649459838867188e+00 -3.161241531372070312e+00 5.962043534964323044e-03
-1.001810741424560547e+01 -6.710099697113037109e+00 3.578639328479766846e-01
-9.157487869262695312e+00 -6.625034332275390625e+00 2.288633584976196289e-01
-5.718696594238281250e+00 -4.460556030273437500e+00 7.721766829490661621e-02
-3.733147621154785156e+00 -3.135155439376831055e+00 5.955934524536132812e-03
-1.003407478332519531e+01 -6.631969451904296875e+00 3.569739460945129395e-01
-9.189016342163085938e+00 -6.562328815460205078e+00 2.286406755447387695e-01
-5.673074245452880859e+00 -4.369249820709228516e+00 7.623820751905441284e-02
-3.739229440689086914e+00 -3.101337671279907227e+00 5.935165565460920334e-03
-1.003690338134765625e+01 -6.545705318450927734e+00 3.556389510631561279e-01
-9.229108810424804688e+00 -6.505822658538818359e+00 2.286406755447387695e-01
-5.607447147369384766e+00 -4.264146327972412109e+00 7.500324398279190063e-02
-3.820850610733032227e+00 -3.129662275314331055e+00 6.034125573933124542e-03
-1.005081939697265625e+01 -6.467229843139648438e+00 3.547193109989166260e-01
-9.327942848205566406e+00 -6.490184307098388672e+00 2.300982624292373657e-01
-5.767846107482910156e+00 -4.330523014068603516e+00 7.679181545972824097e-02
-3.839982032775878906e+00 -3.106159210205078125e+00 6.034125573933124542e-03
-1.004558658599853516e+01 -6.377044677734375000e+00 3.531469702720642090e-01
-9.382426261901855469e+00 -6.443014621734619141e+00 2.304626852273941040e-01
-5.759766578674316406e+00 -4.269445896148681641e+00 7.633402943611145020e-02
-3.855843544006347656e+00 -3.080042600631713867e+00 6.029238924384117126e-03
-1.004979324340820312e+01 -6.293535232543945312e+00 3.519306778907775879e-01
-9.446612358093261719e+00 -6.402151107788085938e+00 2.310700118541717529e-01
-5.759225845336914062e+00 -4.214537143707275391e+00 7.598270475864410400e-02
-3.859752178192138672e+00 -3.044558525085449219e+00 6.006026174873113632e-03
-1.004910182952880859e+01 -6.207587718963623047e+00 3.505660295486450195e-01
-9.458292007446289062e+00 -6.325725078582763672e+00 2.304019331932067871e-01
-5.746880531311035156e+00 -4.151598453521728516e+00 7.548232376575469971e-02
-3.867315530776977539e+00 -3.012215614318847656e+00 5.988921970129013062e-03
-1.014334011077880859e+01 -6.180136203765869141e+00 3.525239825248718262e-01
-9.515286445617675781e+00 -6.279686927795410156e+00 2.308473289012908936e-01
-5.779573440551757812e+00 -4.121483325958251953e+00 7.557813823223114014e-02
-3.884139776229858398e+00 -2.987210035324096680e+00 5.986478179693222046e-03
-1.020163249969482422e+01 -6.130137443542480469e+00 3.532359898090362549e-01
-9.603069305419921875e+00 -6.253372669219970703e+00 2.320417463779449463e-01
-5.725438117980957031e+00 -4.030113220214843750e+00 7.454545050859451294e-02
-3.666659355163574219e+00 -2.784312248229980469e+00 5.624845623970031738e-03
-1.027087020874023438e+01 -6.086279869079589844e+00 3.543336391448974609e-01
-9.653035163879394531e+00 -6.201897621154785156e+00 2.323251664638519287e-01
-5.916762828826904297e+00 -4.110725879669189453e+00 7.670664787292480469e-02
-3.946908473968505859e+00 -2.959115982055664062e+00 6.026795133948326111e-03
-1.030543327331542969e+01 -6.021632194519042969e+00 3.542446494102478027e-01
-9.701041221618652344e+00 -6.148973941802978516e+00 2.325681000947952271e-01
-5.900639533996582031e+00 -4.046069145202636719e+00 7.617433369159698486e-02
-3.936859130859375000e+00 -2.914019823074340820e+00 5.984034854918718338e-03
-1.036990261077880859e+01 -5.974252700805664062e+00 3.551939427852630615e-01
-9.736892700195312500e+00 -6.088274002075195312e+00 2.325276136398315430e-01
-5.970902919769287109e+00 -4.040610790252685547e+00 7.675988227128982544e-02
-3.954664945602416992e+00 -2.889808893203735352e+00 5.984034854918718338e-03
-1.043243885040283203e+01 -5.925321578979492188e+00 3.560839295387268066e-01
-9.780873298645019531e+00 -6.032613277435302734e+00 2.326895594596862793e-01
-5.910763263702392578e+00 -3.947254419326782227e+00 7.567395269870758057e-02
-3.984487056732177734e+00 -2.874264478683471680e+00 6.002360489219427109e-03
-1.047383308410644531e+01 -5.864127635955810547e+00 3.562619388103485107e-01
-9.872370719909667969e+00 -6.005741119384765625e+00 2.339852005243301392e-01
-5.982464790344238281e+00 -3.942274570465087891e+00 7.628079503774642944e-02
-4.013452529907226562e+00 -2.857882499694824219e+00 6.019464693963527679e-03
-1.079316425323486328e+01 -5.956226825714111328e+00 3.658737838268280029e-01
-9.897890090942382812e+00 -5.938364982604980469e+00 2.337220162153244019e-01
-5.914326190948486328e+00 -3.845533847808837891e+00 7.510969787836074829e-02
-4.009641170501708984e+00 -2.818251848220825195e+00 5.987699609249830246e-03
-1.094014739990234375e+01 -5.950063228607177734e+00 3.696117401123046875e-01
-9.946187973022460938e+00 -5.884648799896240234e+00 2.340054512023925781e-01
-5.723191261291503906e+00 -3.671490907669067383e+00 7.239489257335662842e-02
-4.021928787231445312e+00 -2.790176153182983398e+00 5.980369634926319122e-03
-1.116939067840576172e+01 -5.986229896545410156e+00 3.761086463928222656e-01
-1.001319599151611328e+01 -5.841646194458007812e+00 2.347342371940612793e-01
-5.942482948303222656e+00 -3.760902166366577148e+00 7.487548142671585083e-02
-4.019995212554931641e+00 -2.752451419830322266e+00 5.952269770205020905e-03
-1.112282657623291016e+01 -5.873707771301269531e+00 3.733200430870056152e-01
-1.006358528137207031e+01 -5.788570880889892578e+00 2.350784093141555786e-01
-6.050268173217773438e+00 -3.777324438095092773e+00 7.594011723995208740e-02
-4.045922756195068359e+00 -2.733892202377319336e+00 5.965708754956722260e-03
-1.122427558898925781e+01 -5.839487075805664062e+00 3.755153417587280273e-01
-1.013370132446289062e+01 -5.746439933776855469e+00 2.358881831169128418e-01
-6.135487079620361328e+00 -3.778406620025634766e+00 7.671729475259780884e-02
-4.078429222106933594e+00 -2.719556331634521484e+00 5.988921970129013062e-03
-1.131148815155029297e+01 -5.796947002410888672e+00 3.772359788417816162e-01
-1.021851444244384766e+01 -5.711958408355712891e+00 2.370421141386032104e-01
-6.159409999847412109e+00 -3.741207838058471680e+00 7.672794163227081299e-02
-4.118430137634277344e+00 -2.709871053695678711e+00 6.023129913955926895e-03
-1.138343048095703125e+01 -5.745899200439453125e+00 3.784523010253906250e-01
-1.001605987548828125e+01 -5.518404006958007812e+00 2.315558791160583496e-01
-6.146221637725830078e+00 -3.681762218475341797e+00 7.628079503774642944e-02
-4.108139991760253906e+00 -2.667124748229980469e+00 5.984034854918718338e-03
-1.131643390655517578e+01 -5.625221729278564453e+00 3.750703334808349609e-01
-1.028783893585205078e+01 -5.586131572723388672e+00 2.370421141386032104e-01
-6.111874103546142578e+00 -3.610414028167724609e+00 7.557813823223114014e-02
-4.111797332763671875e+00 -2.633776903152465820e+00 5.965708754956722260e-03
-1.144500350952148438e+01 -5.601819038391113281e+00 3.781852722167968750e-01
-1.035453796386718750e+01 -5.540353298187255859e+00 2.377911508083343506e-01
-6.107126235961914062e+00 -3.557242393493652344e+00 7.524809986352920532e-02
-4.117735862731933594e+00 -2.602087497711181641e+00 5.951047874987125397e-03
-1.146835517883300781e+01 -5.526281833648681641e+00 3.778293132781982422e-01
-1.040691089630126953e+01 -5.486506462097167969e+00 2.382162809371948242e-01
-6.108894824981689453e+00 -3.508249282836914062e+00 7.500324398279190063e-02
-4.145504951477050781e+00 -2.584178447723388672e+00 5.968152079731225967e-03
-1.158061885833740234e+01 -5.493078231811523438e+00 3.804102838039398193e-01
-1.042086029052734375e+01 -5.412409782409667969e+00 2.377709150314331055e-01
-6.152059555053710938e+00 -3.483015775680541992e+00 7.526939362287521362e-02
-4.168950080871582031e+00 -2.563407421112060547e+00 5.979147739708423615e-03
-1.183600807189941406e+01 -5.525509834289550781e+00 3.876785039901733398e-01
-1.054822158813476562e+01 -5.396636009216308594e+00 2.399168312549591064e-01
-6.159344673156738281e+00 -3.437405347824096680e+00 7.509905844926834106e-02
-4.198281288146972656e+00 -2.546076059341430664e+00 5.998695734888315201e-03
-1.191056251525878906e+01 -5.471558570861816406e+00 3.890134990215301514e-01
-1.059542179107666016e+01 -5.339010238647460938e+00 2.402407377958297729e-01
-6.234641075134277344e+00 -3.429427146911621094e+00 7.575912773609161377e-02
-4.222406387329101562e+00 -2.525400638580322266e+00 6.010912358760833740e-03
-1.194026756286621094e+01 -5.396726608276367188e+00 3.888947963714599609e-01
-1.061186122894287109e+01 -5.265898227691650391e+00 2.398763447999954224e-01
-6.127219676971435547e+00 -3.321531772613525391e+00 7.420476526021957397e-02
-4.236961364746093750e+00 -2.498936891555786133e+00 6.009690929204225540e-03
-1.184802818298339844e+01 -5.267727851867675781e+00 3.848305642604827881e-01
-1.063588714599609375e+01 -5.196735382080078125e+00 2.396941334009170532e-01
-5.548612594604492188e+00 -2.963966608047485352e+00 6.697592139244079590e-02
-4.263452529907226562e+00 -2.479427814483642578e+00 6.025573238730430603e-03
-1.204863929748535156e+01 -5.268617153167724609e+00 3.902891278266906738e-01
-1.066396999359130859e+01 -5.129643440246582031e+00 2.396131604909896851e-01
-5.458740711212158203e+00 -2.873046875000000000e+00 6.567706912755966187e-02
-4.277718067169189453e+00 -2.452723741531372070e+00 6.024351809173822403e-03
-1.204400825500488281e+01 -5.178794860839843750e+00 3.891024589538574219e-01
-1.078379917144775391e+01 -5.106044292449951172e+00 2.415971159934997559e-01
-6.514884471893310547e+00 -3.378032207489013672e+00 7.813325524330139160e-02
-4.315321922302246094e+00 -2.439224004745483398e+00 6.056116893887519836e-03
-1.207003498077392578e+01 -5.102461814880371094e+00 3.889244794845581055e-01
-1.082942581176757812e+01 -5.046536922454833984e+00 2.419210225343704224e-01
-6.345809459686279297e+00 -3.241115331649780273e+00 7.586558908224105835e-02
-4.331080913543701172e+00 -2.413186311721801758e+00 6.057338323444128036e-03
-1.206050205230712891e+01 -5.011429309844970703e+00 3.876191675662994385e-01
-1.075476551055908203e+01 -4.931652069091796875e+00 2.395726740360260010e-01
-6.463839054107666016e+00 -3.251546621322631836e+00 7.703668624162673950e-02
-4.383496761322021484e+00 -2.407264471054077148e+00 6.109873298555612564e-03
-1.098167228698730469e+01 -4.954378128051757812e+00 2.439454644918441772e-01
-6.637785434722900391e+00 -3.288169145584106445e+00 7.886785268783569336e-02
-4.336622714996337891e+00 -2.347004413604736328e+00 6.024351809173822403e-03
-1.205893707275390625e+01 -4.838114261627197266e+00 3.856315314769744873e-01
-1.086290931701660156e+01 -4.820797920227050781e+00 2.406456321477890015e-01
-6.663228511810302734e+00 -3.250008821487426758e+00 7.893172651529312134e-02
-4.326235771179199219e+00 -2.307175636291503906e+00 5.990143399685621262e-03
-1.234227180480957031e+01 -4.864082813262939453e+00 3.937304019927978516e-01
-1.114518737792968750e+01 -4.864435672760009766e+00 2.462330758571624756e-01
-6.654199600219726562e+00 -3.195211887359619141e+00 7.859104871749877930e-02
-4.325262069702148438e+00 -2.272679328918457031e+00 5.969373974949121475e-03
-1.120330715179443359e+01 -4.808182239532470703e+00 2.468606531620025635e-01
-6.673679828643798828e+00 -3.154322385787963867e+00 7.859104871749877930e-02
-4.414611816406250000e+00 -2.285171747207641602e+00 6.073221098631620407e-03
-1.253091049194335938e+01 -4.761610507965087891e+00 3.978540003299713135e-01
-1.126576042175292969e+01 -4.753341197967529297e+00 2.475894689559936523e-01
-6.655736446380615234e+00 -3.096022605895996094e+00 7.815454900264739990e-02
-4.481112003326416016e+00 -2.284841537475585938e+00 6.145303137600421906e-03
-1.214594268798828125e+01 -4.530236721038818359e+00 3.847415447235107422e-01
-1.126700878143310547e+01 -4.672636508941650391e+00 2.469821423292160034e-01
-6.667333602905273438e+00 -3.051795959472656250e+00 7.806937396526336670e-02
-4.465556621551513672e+00 -2.242493629455566406e+00 6.104985717684030533e-03
-1.215285968780517578e+01 -4.448066711425781250e+00 3.840888738632202148e-01
-1.141119956970214844e+01 -4.650581836700439453e+00 2.495126873254776001e-01
-6.712374687194824219e+00 -3.022735595703125000e+00 7.837811857461929321e-02
-4.484610557556152344e+00 -2.217710971832275391e+00 6.112316157668828964e-03
-1.227588081359863281e+01 -4.407869338989257812e+00 3.871148526668548584e-01
-1.144972991943359375e+01 -4.584564208984375000e+00 2.497353702783584595e-01
-6.804850578308105469e+00 -3.014296054840087891e+00 7.924047112464904785e-02
-4.503528118133544922e+00 -2.192778825759887695e+00 6.119646597653627396e-03
-1.224141311645507812e+01 -4.310882091522216797e+00 3.851865231990814209e-01
-1.154463481903076172e+01 -4.540571689605712891e+00 2.511929869651794434e-01
-6.470277309417724609e+00 -2.818729400634765625e+00 7.514164596796035767e-02
-4.537638187408447266e+00 -2.175045967102050781e+00 6.147746462374925613e-03
-1.233093738555908203e+01 -4.257545948028564453e+00 3.871741592884063721e-01
-1.154802894592285156e+01 -4.460283756256103516e+00 2.506666183471679688e-01
-6.872580051422119141e+00 -2.943949937820434570e+00 7.960244268178939819e-02
-4.526480197906494141e+00 -2.135641574859619141e+00 6.114759482443332672e-03
-1.258501052856445312e+01 -4.259026050567626953e+00 3.943237364292144775e-01
-1.161818218231201172e+01 -4.405648708343505859e+00 2.515978515148162842e-01
-6.887749671936035156e+00 -2.900561094284057617e+00 7.957050204277038574e-02
-4.513196468353271484e+00 -2.095614433288574219e+00 6.079329643398523331e-03
-1.165061855316162109e+01 -4.336370944976806641e+00 2.517193257808685303e-01
-6.733567714691162109e+00 -2.787112951278686523e+00 7.759029418230056763e-02
-4.603282451629638672e+00 -2.103205919265747070e+00 6.183176767081022263e-03
-1.271428298950195312e+01 -4.129587650299072266e+00 3.967563509941101074e-01
-1.177091789245605469e+01 -4.299101829528808594e+00 2.537437677383422852e-01
-6.760730743408203125e+00 -2.749888181686401367e+00 7.770740240812301636e-02
-4.626133918762207031e+00 -2.079430818557739258e+00 6.196615286171436310e-03
-1.272223663330078125e+01 -4.046043872833251953e+00 3.962223827838897705e-01
-1.179613399505615234e+01 -4.226458549499511719e+00 2.537235319614410400e-01
-6.709692478179931641e+00 -2.681266069412231445e+00 7.693021744489669800e-02
-4.704656124114990234e+00 -2.080121517181396484e+00 6.284580100327730179e-03
-1.190673732757568359e+01 -4.183829307556152344e+00 2.555455267429351807e-01
-6.494246959686279297e+00 -2.549072742462158203e+00 7.427928596735000610e-02
-4.723750591278076172e+00 -2.054006576538085938e+00 6.293131969869136810e-03
-1.198039436340332031e+01 -4.127300262451171875e+00 2.565779983997344971e-01
-6.923099040985107422e+00 -2.668495416641235352e+00 7.899560779333114624e-02
-4.746379375457763672e+00 -2.029307842254638672e+00 6.306571420282125473e-03
-1.202159690856933594e+01 -4.059149742126464844e+00 2.569221556186676025e-01
-6.979556560516357422e+00 -2.641183614730834961e+00 7.945339381694793701e-02
-4.737538337707519531e+00 -1.991234540939331055e+00 6.278472021222114563e-03
-1.216492748260498047e+01 -4.024563789367675781e+00 2.594527006149291992e-01
-6.946887493133544922e+00 -2.580203771591186523e+00 7.889978587627410889e-02
-4.759833812713623047e+00 -1.966327905654907227e+00 6.291910540312528610e-03
-1.128679084777832031e+01 -3.657366752624511719e+00 2.402407377958297729e-01
-7.072509765625000000e+00 -2.577590942382812500e+00 8.014540374279022217e-02
-4.767176628112792969e+00 -1.935204505920410156e+00 6.285802461206912994e-03
-1.224675273895263672e+01 -3.885560512542724609e+00 2.601612806320190430e-01
-7.153161048889160156e+00 -2.557373762130737305e+00 8.088000118732452393e-02
-4.780818939208984375e+00 -1.906658053398132324e+00 6.288245785981416702e-03
-1.348329734802246094e+01 -3.658593177795410156e+00 4.146451056003570557e-01
-1.231810474395751953e+01 -3.825167894363403320e+00 2.611734867095947266e-01
-7.240433692932128906e+00 -2.538578748703002930e+00 8.168911933898925781e-02
-4.775667667388916016e+00 -1.870722413063049316e+00 6.266254466027021408e-03
-5.824648380279541016e+00 -1.542167544364929199e+00 1.788281351327896118e-01
-1.239395713806152344e+01 -3.765498161315917969e+00 2.622869312763214111e-01
-6.904096603393554688e+00 -2.373186111450195312e+00 7.772868871688842773e-02
-4.764656066894531250e+00 -1.832767844200134277e+00 6.236932706087827682e-03
-5.830129623413085938e+00 -1.505399584770202637e+00 1.787094622850418091e-01
-1.242257881164550781e+01 -3.691088199615478516e+00 2.624084055423736572e-01
-7.257774353027343750e+00 -2.445067167282104492e+00 8.154007047414779663e-02
-4.758037567138671875e+00 -1.796785712242126465e+00 6.213720422238111496e-03
-5.822778701782226562e+00 -1.465451002120971680e+00 1.782051473855972290e-01
-1.255924606323242188e+01 -3.647981405258178711e+00 2.648174762725830078e-01
-7.021008491516113281e+00 -2.317431688308715820e+00 7.871880382299423218e-02
-4.810230255126953125e+00 -1.782848596572875977e+00 6.267475895583629608e-03
-5.825835704803466797e+00 -1.428267478942871094e+00 1.780271381139755249e-01
-1.263429355621337891e+01 -3.585864543914794922e+00 2.659309208393096924e-01
-6.957075595855712891e+00 -2.249085664749145508e+00 7.784580439329147339e-02
-4.878406047821044922e+00 -1.774148344993591309e+00 6.342001724988222122e-03
-1.268688869476318359e+01 -3.516820669174194336e+00 2.665787339210510254e-01
-7.281530380249023438e+00 -2.304724454879760742e+00 8.131650090217590332e-02
-4.902386188507080078e+00 -1.748885512351989746e+00 6.359105929732322693e-03
-1.278254032135009766e+01 -3.459018468856811523e+00 2.681375741958618164e-01
-7.561069965362548828e+00 -2.342259407043457031e+00 8.427616953849792480e-02
-4.919631958007812500e+00 -1.721083641052246094e+00 6.367658264935016632e-03
-5.848344326019287109e+00 -1.544141411781311035e+00 1.224788427352905273e-01
-7.407831192016601562e+00 -2.245067596435546875e+00 8.241306990385055542e-02
-4.919694423675537109e+00 -1.687296271324157715e+00 6.354218814522027969e-03
-5.814138889312744141e+00 -1.497009277343750000e+00 1.215678453445434570e-01
-7.406127929687500000e+00 -2.195025444030761719e+00 8.224272727966308594e-02
-4.911944866180419922e+00 -1.651024341583251953e+00 6.331006065011024475e-03
-5.802850723266601562e+00 -1.456195950508117676e+00 1.211427077651023865e-01
-7.402168750762939453e+00 -2.144532203674316406e+00 8.205109089612960815e-02
-4.890638828277587891e+00 -1.610532164573669434e+00 6.290688645094633102e-03
-1.307724380493164062e+01 -3.196504116058349609e+00 2.725913524627685547e-01
-7.402680397033691406e+00 -2.095532417297363281e+00 8.191268891096115112e-02
-4.987035751342773438e+00 -1.608426094055175781e+00 6.401866208761930466e-03
-1.315010547637939453e+01 -3.128931999206542969e+00 2.737047970294952393e-01
-7.428891658782958984e+00 -2.053801298141479492e+00 8.206173777580261230e-02
-5.009207725524902344e+00 -1.581710338592529297e+00 6.417748983949422836e-03
-1.294307994842529297e+01 -2.995879411697387695e+00 2.690081000328063965e-01
-5.833951950073242188e+00 -1.574394106864929199e+00 6.433563679456710815e-02
-5.002576351165771484e+00 -1.545925378799438477e+00 6.396979093551635742e-03
-5.841417789459228516e+00 -1.541290283203125000e+00 2.838454246520996094e-01
-1.322262763977050781e+01 -2.975225448608398438e+00 2.744335830211639404e-01
-5.803855895996093750e+00 -1.528129339218139648e+00 6.389913707971572876e-02
-4.968893527984619141e+00 -1.502178907394409180e+00 6.342001724988222122e-03
-5.853667259216308594e+00 -1.506165623664855957e+00 2.839862108230590820e-01
-1.338909721374511719e+01 -2.926486968994140625e+00 2.775107324123382568e-01
-5.827651023864746094e+00 -1.496218681335449219e+00 6.405883282423019409e-02
-4.963632583618164062e+00 -1.467409491539001465e+00 6.323675625026226044e-03
-1.346841812133789062e+01 -2.857349872589111328e+00 2.787861526012420654e-01
-5.807621002197265625e+00 -1.453151345252990723e+00 6.373944878578186035e-02
-4.956211090087890625e+00 -1.432206273078918457e+00 6.302906665951013565e-03
-1.351801395416259766e+01 -2.781304597854614258e+00 2.794542014598846436e-01
-5.835858345031738281e+00 -1.422224283218383789e+00 6.395237147808074951e-02
-4.810925006866455078e+00 -1.358294367790222168e+00 6.107429042458534241e-03
-1.359855651855468750e+01 -2.711012840270996094e+00 2.807700932025909424e-01
-7.837064266204833984e+00 -1.859058737754821777e+00 8.575601130723953247e-02
-5.060175418853759766e+00 -1.395200252532958984e+00 6.412861868739128113e-03
-1.374746227264404297e+01 -2.653098821640014648e+00 2.835030853748321533e-01
-7.653455734252929688e+00 -1.765972137451171875e+00 8.362674713134765625e-02
-5.192243099212646484e+00 -1.397390365600585938e+00 6.569243501871824265e-03
-5.841205596923828125e+00 -1.535851359367370605e+00 2.267453372478485107e-01
-1.381164073944091797e+01 -2.577683925628662109e+00 2.844950854778289795e-01
-7.895388603210449219e+00 -1.770842909812927246e+00 8.614991605281829834e-02
-5.201686859130859375e+00 -1.365759015083312988e+00 6.570465397089719772e-03
-5.837935924530029297e+00 -1.496755123138427734e+00 2.262576371431350708e-01
-1.389607334136962891e+01 -2.505306243896484375e+00 2.859121859073638916e-01
-7.887541770935058594e+00 -1.718320250511169434e+00 8.594764024019241333e-02
-5.195437908172607422e+00 -1.330096244812011719e+00 6.552139297127723694e-03
-5.838284492492675781e+00 -1.458726048469543457e+00 2.259199917316436768e-01
-1.401756381988525391e+01 -2.438500165939331055e+00 2.880986034870147705e-01
-7.849021911621093750e+00 -1.659548521041870117e+00 8.541533350944519043e-02
-5.230668544769287109e+00 -1.304970383644104004e+00 6.586347706615924835e-03
-1.409142398834228516e+01 -2.362362384796142578e+00 2.893132567405700684e-01
-7.920769214630126953e+00 -1.624009609222412109e+00 8.608604222536087036e-02
-5.201651573181152344e+00 -1.263878941535949707e+00 6.539921741932630539e-03
-1.420633125305175781e+01 -2.292098283767700195e+00 2.913781702518463135e-01
-8.089470863342285156e+00 -1.606940150260925293e+00 8.781074732542037964e-02
-5.308570861816406250e+00 -1.255412697792053223e+00 6.664538756012916565e-03
-1.421716403961181641e+01 -2.204427003860473633e+00 2.913174331188201904e-01
-8.013748168945312500e+00 -1.540847778320312500e+00 8.688451349735260010e-02
-5.349308490753173828e+00 -1.230437874794006348e+00 6.706077139824628830e-03
-1.437381458282470703e+01 -2.138484001159667969e+00 2.942529022693634033e-01
-7.934573173522949219e+00 -1.475197315216064453e+00 8.592634648084640503e-02
-5.379203319549560547e+00 -1.202610015869140625e+00 6.734177004545927048e-03
-1.445397186279296875e+01 -2.059839487075805664e+00 2.956295013427734375e-01
-7.976938724517822266e+00 -1.432493209838867188e+00 8.628832548856735229e-02
-5.332733631134033203e+00 -1.157910943031311035e+00 6.666982080787420273e-03
-1.453766536712646484e+01 -1.980831503868103027e+00 2.970871329307556152e-01
-8.020062446594238281e+00 -1.389495134353637695e+00 8.666094392538070679e-02
-5.365179538726806641e+00 -1.130528926849365234e+00 6.698746699839830399e-03
-1.464571571350097656e+01 -1.904095768928527832e+00 2.990508079528808594e-01
-8.147779464721679688e+00 -1.360181570053100586e+00 8.794914931058883667e-02
-5.436679363250732422e+00 -1.110799431800842285e+00 6.779381074011325836e-03
-1.472757148742675781e+01 -1.822915315628051758e+00 3.004881739616394043e-01
-8.226068496704101562e+00 -1.321422457695007324e+00 8.870504051446914673e-02
-5.385515689849853516e+00 -1.065963983535766602e+00 6.707299035042524338e-03
-1.479805660247802734e+01 -1.739517688751220703e+00 3.017028570175170898e-01
-8.243904113769531250e+00 -1.272448658943176270e+00 8.881149441003799438e-02
-5.418472766876220703e+00 -1.037978887557983398e+00 6.740285549312829971e-03
-1.485813522338867188e+01 -1.654217243194580078e+00 3.027150630950927734e-01
-8.491921424865722656e+00 -1.257432937622070312e+00 9.139855206012725830e-02
-5.452270984649658203e+00 -1.009811282157897949e+00 6.774493958801031113e-03
-1.494953918457031250e+01 -1.571589589118957520e+00 3.043751120567321777e-01
-8.471755981445312500e+00 -1.201372742652893066e+00 9.110045433044433594e-02
-5.577474594116210938e+00 -9.976429343223571777e-01 6.922323722392320633e-03
-8.541394233703613281e+00 -1.157830595970153809e+00 9.177117794752120972e-02
-5.552942276000976562e+00 -9.581304192543029785e-01 6.884449627250432968e-03
-8.633622169494628906e+00 -1.116428017616271973e+00 9.268675744533538818e-02
-5.559702873229980469e+00 -9.242041110992431641e-01 6.885671522468328476e-03
-8.623438835144042969e+00 -1.061355590820312500e+00 9.250576794147491455e-02
-5.564281940460205078e+00 -8.899151086807250977e-01 6.884449627250432968e-03
-8.427179336547851562e+00 -9.847474694252014160e-01 9.033392369747161865e-02
-5.592370986938476562e+00 -8.592494726181030273e-01 6.912549957633018494e-03
-8.500646591186523438e+00 -9.404981136322021484e-01 9.105787426233291626e-02
-5.609409332275390625e+00 -8.266686797142028809e-01 6.927210371941328049e-03
-8.552004814147949219e+00 -8.930989503860473633e-01 9.154759347438812256e-02
-5.583680629730224609e+00 -7.879030704498291016e-01 6.889336742460727692e-03
-8.557324409484863281e+00 -8.406080007553100586e-01 9.154759347438812256e-02
-5.611203193664550781e+00 -7.567012310028076172e-01 6.917436607182025909e-03
-8.870999336242675781e+00 -8.164964914321899414e-01 9.484795480966567993e-02
-5.626650810241699219e+00 -7.236604690551757812e-01 6.930875591933727264e-03
-8.877834320068359375e+00 -7.622207999229431152e-01 9.486924856901168823e-02
-5.590289115905761719e+00 -6.841419339179992676e-01 6.880784872919321060e-03
-8.880351066589355469e+00 -7.075742483139038086e-01 9.484795480966567993e-02
-5.675833702087402344e+00 -6.592889428138732910e-01 6.980966310948133469e-03
-8.883527755737304688e+00 -6.529987454414367676e-01 9.483730792999267578e-02
-5.691700458526611328e+00 -6.257616877555847168e-01 6.995627190917730331e-03
-8.886369705200195312e+00 -5.984110236167907715e-01 9.482666850090026855e-02
-5.715325832366943359e+00 -5.928899645805358887e-01 7.020061835646629333e-03
-8.878895759582519531e+00 -5.432023406028747559e-01 9.470956027507781982e-02
-5.848242282867431641e+00 -5.704303383827209473e-01 7.178886793553829193e-03
-8.923995971679687500e+00 -4.910195767879486084e-01 9.515669941902160645e-02
-5.759017944335937500e+00 -5.260753631591796875e-01 7.065266370773315430e-03
-8.903868675231933594e+00 -4.351310729980468750e-01 9.491182863712310791e-02
-5.743206024169921875e+00 -4.891164898872375488e-01 7.042053155601024628e-03
-8.708562850952148438e+00 -3.720391988754272461e-01 9.280385822057723999e-02
-5.756067752838134766e+00 -4.546550214290618896e-01 7.054270245134830475e-03
-9.022455215454101562e+00 -3.300007283687591553e-01 9.612551331520080566e-02
-5.770717620849609375e+00 -4.201993942260742188e-01 7.068931125104427338e-03
-9.119261741638183594e+00 -2.775233983993530273e-01 9.713691473007202148e-02
-5.809107780456542969e+00 -3.871771097183227539e-01 7.112913765013217926e-03
-9.112794876098632812e+00 -2.213691473007202148e-01 9.705173969268798828e-02
-5.878251552581787109e+00 -3.555712103843688965e-01 7.194769568741321564e-03
-8.811049461364746094e+00 -1.599506586790084839e-01 9.382591396570205688e-02
-5.882319927215576172e+00 -3.196047246456146240e-01 7.197212893515825272e-03
-9.104827880859375000e+00 -1.094043329358100891e-01 9.694528579711914062e-02
-5.883171081542968750e+00 -2.834573686122894287e-01 7.195990998297929764e-03
-9.009333610534667969e+00 -5.297169089317321777e-02 9.592323005199432373e-02
-5.902783870697021484e+00 -2.481094896793365479e-01 7.217982318252325058e-03
-9.138483047485351562e+00 2.342606429010629654e-03 9.729661047458648682e-02
-5.912189960479736328e+00 -2.121729254722595215e-01 7.227756083011627197e-03
-8.931311607360839844e+00 5.709211900830268860e-02 9.509281814098358154e-02
-6.064313888549804688e+00 -1.803818941116333008e-01 7.412237580865621567e-03
-9.063775062561035156e+00 1.135586574673652649e-01 9.650877863168716431e-02
-6.065306186676025391e+00 -1.431685686111450195e-01 7.412237580865621567e-03
-9.441820144653320312e+00 1.762436777353286743e-01 1.005437299609184265e-01
-6.091066837310791016e+00 -1.063864305615425110e-01 7.442780770361423492e-03
-9.445559501647949219e+00 2.342982739210128784e-01 1.005969643592834473e-01
-6.118603229522705078e+00 -6.931620091199874878e-02 7.475767284631729126e-03
-9.401967048645019531e+00 2.909516990184783936e-01 1.001498177647590637e-01
-6.130913257598876953e+00 -3.183416277170181274e-02 7.490428164601325989e-03
-9.390011787414550781e+00 3.482649922370910645e-01 1.000433564186096191e-01
-6.136992931365966797e+00 5.790675524622201920e-03 7.497758138924837112e-03
-9.362723350524902344e+00 4.047946631908416748e-01 9.977719932794570923e-02
-6.143841266632080078e+00 4.349600151181221008e-02 7.506310474127531052e-03
-9.397015571594238281e+00 4.640604853630065918e-01 1.001711115241050720e-01
-6.126460552215576172e+00 8.096843212842941284e-02 7.485541049391031265e-03
-9.642593383789062500e+00 5.355173349380493164e-01 1.028220355510711670e-01
-6.105852603912353516e+00 1.181711629033088684e-01 7.461106404662132263e-03
-9.978462219238281250e+00 6.156079173088073730e-01 1.064417809247970581e-01
-6.283954143524169922e+00 1.601954698562622070e-01 7.679796312004327774e-03
-9.400848388671875000e+00 6.378979682922363281e-01 1.003201603889465332e-01
-6.237874984741210938e+00 1.973272562026977539e-01 7.624818012118339539e-03
-9.664011001586914062e+00 7.153511047363281250e-01 1.031733676791191101e-01
-6.061672210693359375e+00 2.289921641349792480e-01 7.411015685647726059e-03
-9.560762405395507812e+00 7.667214870452880859e-01 1.021193787455558777e-01
-6.057155609130859375e+00 2.660499215126037598e-01 7.407350465655326843e-03
-9.526988029479980469e+00 8.228754997253417969e-01 1.018106415867805481e-01
-5.805722236633300781e+00 2.907084226608276367e-01 7.101917639374732971e-03
-9.848344802856445312e+00 9.115446209907531738e-01 1.053026318550109863e-01
-5.799835681915283203e+00 3.261016607284545898e-01 7.097030989825725555e-03
-1.017791557312011719e+01 1.005071640014648438e+00 1.088904365897178650e-01
-6.444467544555664062e+00 4.020286798477172852e-01 7.888711988925933838e-03
-8.870527267456054688e+00 1.585073590278625488e+00 2.674412131309509277e-01
-9.903046607971191406e+00 1.039323091506958008e+00 1.060159280896186829e-01
-6.455846786499023438e+00 4.425210356712341309e-01 7.905815728008747101e-03
-8.845890998840332031e+00 1.636744379997253418e+00 2.669962048530578613e-01
-1.028904342651367188e+01 1.143703460693359375e+00 1.102212294936180115e-01
-6.431071281433105469e+00 4.804859161376953125e-01 7.878938689827919006e-03
-1.028381824493408203e+01 1.207047462463378906e+00 1.102425158023834229e-01
-6.445943355560302734e+00 5.213884115219116211e-01 7.900930009782314301e-03
-1.028614234924316406e+01 1.271351695060729980e+00 1.103489845991134644e-01
-6.454577445983886719e+00 5.619709491729736328e-01 7.915589958429336548e-03
-1.053200244903564453e+01 1.367401003837585449e+00 1.130744293332099915e-01
-6.494817733764648438e+00 6.056502461433410645e-01 7.969345897436141968e-03
-1.051251506805419922e+01 1.430515408515930176e+00 1.129573285579681396e-01
-6.605414867401123047e+00 6.568703055381774902e-01 8.109845221042633057e-03
-8.863649368286132812e+00 1.590131282806396484e+00 1.823416352272033691e-01
-1.075202083587646484e+01 1.530358791351318359e+00 1.156295463442802429e-01
-6.640044212341308594e+00 7.014853358268737793e-01 8.157492615282535553e-03
-8.821287155151367188e+00 1.638462543487548828e+00 1.816735714673995972e-01
-1.082056617736816406e+01 1.607914328575134277e+00 1.164706051349639893e-01
-6.585924625396728516e+00 7.366566658020019531e-01 8.096406236290931702e-03
-1.007332706451416016e+01 1.560108542442321777e+00 1.085284575819969177e-01
-6.624977111816406250e+00 7.822125554084777832e-01 8.150162175297737122e-03
-1.004678249359130859e+01 1.619183182716369629e+00 1.083474680781364441e-01
-6.468221187591552734e+00 8.039757609367370605e-01 7.963237352669239044e-03
-9.880837440490722656e+00 1.654703855514526367e+00 1.066653504967689514e-01
-6.740810871124267578e+00 8.798903822898864746e-01 8.305322378873825073e-03
-8.863646507263183594e+00 1.540329217910766602e+00 9.578483551740646362e-02
-6.533167362213134766e+00 8.935894370079040527e-01 8.056089282035827637e-03
-8.807775497436523438e+00 1.586356043815612793e+00 9.528446197509765625e-02
-6.740395069122314453e+00 9.641017317771911621e-01 8.318761363625526428e-03
-8.799841880798339844e+00 1.640736222267150879e+00 9.530574828386306763e-02
-6.795672893524169922e+00 1.014597058296203613e+00 8.394508622586727142e-03
-1.068557929992675781e+01 2.060256958007812500e+00 1.158637627959251404e-01
-6.784378528594970703e+00 1.055506706237792969e+00 8.388399146497249603e-03
-1.083847236633300781e+01 2.158794641494750977e+00 1.176629960536956787e-01
-6.837003231048583984e+00 1.106702327728271484e+00 8.461703546345233917e-03
-1.146167278289794922e+01 2.356131315231323242e+00 1.245830953121185303e-01
-6.833042621612548828e+00 1.149130225181579590e+00 8.465369231998920441e-03
-1.183534908294677734e+01 2.508732795715332031e+00 1.288096755743026733e-01
-6.822907447814941406e+00 1.190519571304321289e+00 8.461703546345233917e-03
-8.878243446350097656e+00 1.602147698402404785e+00 3.386924266815185547e-01
-1.209815502166748047e+01 2.642110109329223633e+00 1.318438798189163208e-01
-6.900102615356445312e+00 1.247664093971252441e+00 8.566772565245628357e-03
-8.824042320251464844e+00 1.648336172103881836e+00 3.370042145252227783e-01
-1.350510120391845703e+01 3.036308765411376953e+00 1.473768353462219238e-01
-6.972917079925537109e+00 1.305064082145690918e+00 8.666954003274440765e-03
-1.154068660736083984e+01 2.669151544570922852e+00 1.261161565780639648e-01
-7.001104354858398438e+00 1.354854345321655273e+00 8.712158538401126862e-03
-1.334522151947021484e+01 3.172896623611450195e+00 1.460460424423217773e-01
-6.795558452606201172e+00 1.358387708663940430e+00 8.466590195894241333e-03
-1.217634963989257812e+01 2.974044084548950195e+00 1.334514766931533813e-01
-6.966321945190429688e+00 1.437030076980590820e+00 8.690167218446731567e-03
-1.193479156494140625e+01 2.992761373519897461e+00 1.310028135776519775e-01
-6.988673210144042969e+00 1.486404776573181152e+00 8.729262277483940125e-03
-1.330779933929443359e+01 3.423980951309204102e+00 1.463015675544738770e-01
-6.953047275543212891e+00 1.523479580879211426e+00 8.696275763213634491e-03
-1.233708667755126953e+01 3.255064249038696289e+00 1.358468830585479736e-01
-7.209877967834472656e+00 1.626179814338684082e+00 9.029808454215526581e-03
-1.255337429046630859e+01 3.394653558731079102e+00 1.384552419185638428e-01
-7.070205688476562500e+00 1.640329837799072266e+00 8.867317810654640198e-03
-1.346705150604248047e+01 3.730551958084106445e+00 1.487821489572525024e-01
-7.189379692077636719e+00 1.714533686637878418e+00 9.029808454215526581e-03
-1.363630771636962891e+01 3.867684841156005859e+00 1.509114205837249756e-01
-7.251570224761962891e+00 1.776460170745849609e+00 9.121438488364219666e-03
-1.225156688690185547e+01 3.556293725967407227e+00 1.358255892992019653e-01
-7.268657684326171875e+00 1.827994465827941895e+00 9.156867861747741699e-03
-1.078014850616455078e+01 3.201029539108276367e+00 1.197283715009689331e-01
-7.284416198730468750e+00 1.879555225372314453e+00 9.191076271235942841e-03
-1.283849906921386719e+01 3.898110389709472656e+00 1.428521573543548584e-01
-7.405189037322998047e+00 1.959257721900939941e+00 9.358453564345836639e-03
-7.379516124725341797e+00 2.000994443893432617e+00 9.341349825263023376e-03
-7.415275573730468750e+00 2.059617757797241211e+00 9.402436204254627228e-03
-7.391917705535888672e+00 2.102069377899169922e+00 9.388997219502925873e-03
-7.444171905517578125e+00 2.166386604309082031e+00 9.472073987126350403e-03
-7.586963653564453125e+00 2.258528232574462891e+00 9.671216830611228943e-03
-7.584443092346191406e+00 2.308532714843750000e+00 9.685877710580825806e-03
-7.890013694763183594e+00 2.454539060592651367e+00 1.009515672922134399e-02
-7.842401027679443359e+00 2.492606163024902344e+00 1.005361787974834442e-02
-7.784157752990722656e+00 2.526785612106323242e+00 9.998640045523643494e-03
-7.866278648376464844e+00 2.606902360916137695e+00 1.012447848916053772e-02
-7.805612564086914062e+00 2.640061378479003906e+00 1.006705779582262039e-02
-7.899866104125976562e+00 2.726071357727050781e+00 1.020999904721975327e-02
-8.185783386230468750e+00 2.881063699722290039e+00 1.060217525810003281e-02
-8.093594551086425781e+00 2.904551744461059570e+00 1.050565764307975769e-02
-8.180803298950195312e+00 2.992635965347290039e+00 1.064249221235513687e-02
-8.253176689147949219e+00 3.076658487319946289e+00 1.076100021600723267e-02
-8.366891860961914062e+00 3.177657604217529297e+00 1.093448605388402939e-02
-7.889304637908935547e+00 3.051795482635498047e+00 1.033461652696132660e-02
-8.099314689636230469e+00 3.190302848815917969e+00 1.063516177237033844e-02
-8.458273887634277344e+00 3.391793966293334961e+00 1.113362796604633331e-02
-8.640990257263183594e+00 3.526762485504150391e+00 1.140240766108036041e-02
-8.754020690917968750e+00 3.635715246200561523e+00 1.158078014850616455e-02
-8.679042816162109375e+00 3.667175531387329102e+00 1.151114236563444138e-02
-8.645353317260742188e+00 3.715621709823608398e+00 1.149648148566484451e-02
-1.045764541625976562e+01 5.501742362976074219e+00 2.392690032720565796e-01
-8.846885681152343750e+00 3.866718292236328125e+00 1.179580576717853546e-02
-1.039458656311035156e+01 5.550265312194824219e+00 2.386009246110916138e-01
-9.092572212219238281e+00 4.040729522705078125e+00 1.215621642768383026e-02
-9.168764114379882812e+00 4.142143726348876953e+00 1.229182817041873932e-02
-8.805110931396484375e+00 4.043093204498291016e+00 1.183734368532896042e-02
-8.789199829101562500e+00 4.101272583007812500e+00 1.184956170618534088e-02
-9.397282600402832031e+00 4.455439090728759766e+00 1.270599476993083954e-02
-1.045098876953125000e+01 5.507413864135742188e+00 1.257754713296890259e-01
-8.698567390441894531e+00 4.189727783203125000e+00 1.179580576717853546e-02
-1.041876411437988281e+01 5.572379589080810547e+00 1.257967799901962280e-01
-8.471486091613769531e+00 4.144582271575927734e+00 1.152213849127292633e-02
-9.615479469299316406e+00 4.777611255645751953e+00 1.311771757900714874e-02
-9.820790290832519531e+00 4.954990386962890625e+00 1.343903318047523499e-02
-9.769730567932128906e+00 5.004669666290283203e+00 1.341093238443136215e-02
-9.997014999389648438e+00 5.198781967163085938e+00 1.376645639538764954e-02
-1.003656101226806641e+01 5.297836303710937500e+00 1.386541686952114105e-02
-1.021189403533935547e+01 5.470765590667724609e+00 1.415374502539634705e-02
-1.014035511016845703e+01 5.512783527374267578e+00 1.410121098160743713e-02
-1.013698482513427734e+01 5.591804981231689453e+00 1.414397079497575760e-02
-1.030580711364746094e+01 5.767690181732177734e+00 1.442863419651985168e-02
-1.026674461364746094e+01 5.828842163085937500e+00 1.442374754697084427e-02
-1.086338615417480469e+01 6.256030559539794922e+00 1.531560998409986496e-02
-1.122977542877197266e+01 6.559111118316650391e+00 1.588860154151916504e-02
-1.144485282897949219e+01 6.779255867004394531e+00 1.625145599246025085e-02
-1.038635063171386719e+01 6.238667488098144531e+00 1.480248291045427322e-02
-3.886711359024047852e+00 3.103588581085205078e+00 1.476192325353622437e-01
-9.672847747802734375e+00 6.138058185577392578e+00 1.399614103138446808e-02
-3.866040468215942383e+00 3.126121759414672852e+00 1.475599110126495361e-01
-3.807343721389770508e+00 3.117488622665405273e+00 1.460469365119934082e-01
-3.836828231811523438e+00 3.106863737106323242e+00 9.996703267097473145e-02
-3.844124078750610352e+00 3.078244209289550781e+00 5.243306607007980347e-02
-3.822834014892578125e+00 3.099884033203125000e+00 5.240112915635108948e-02
-3.874382972717285156e+00 3.067977905273437500e+00 6.037790793925523758e-03
-3.883485078811645508e+00 3.111918926239013672e+00 1.868285536766052246e-01
-3.856265306472778320e+00 3.092318296432495117e+00 6.039012689143419266e-03
-3.866645574569702148e+00 3.137578010559082031e+00 1.869411021471023560e-01
-3.837218761444091797e+00 3.115921735763549805e+00 6.039012689143419266e-03
-3.803351640701293945e+00 3.127340555191040039e+00 6.015799473971128464e-03
-3.747203111648559570e+00 3.119905948638916016e+00 5.957156885415315628e-03
-5.815234184265136719e+00 5.881967544555664062e+00 1.674822419881820679e-01
-5.735024929046630859e+00 5.872475147247314453e+00 1.662068217992782593e-01
-5.774115562438964844e+00 5.848410606384277344e+00 8.750201016664505005e-02
-5.738819122314453125e+00 5.884445667266845703e+00 8.751264959573745728e-02
-5.816110610961914062e+00 5.827096939086914062e+00 1.005850546061992645e-02
-5.808330059051513672e+00 5.891157627105712891e+00 1.010737475007772446e-02
-5.756025791168212891e+00 5.910208702087402344e+00 1.007927395403385162e-02
-5.886947512626647949e-01 2.466605663299560547e+00 7.526326924562454224e-02
-5.721923708915710449e-01 2.464329481124877930e+00 7.508526742458343506e-02
-5.599220395088195801e-01 2.480469465255737305e+00 7.547093182802200317e-02
-5.414799451828002930e-01 2.469212770462036133e+00 7.502593100070953369e-02
-5.254865288734436035e-01 2.468578100204467773e+00 7.490726560354232788e-02
-5.125529170036315918e-01 2.482523918151855469e+00 7.523359358310699463e-02
-5.834347009658813477e-01 2.452028036117553711e+00 5.103622749447822571e-02
-6.020836234092712402e-01 2.470549106597900391e+00 2.707356214523315430e-02
-5.772198438644409180e-01 2.433333158493041992e+00 2.662641555070877075e-02
-5.782715678215026855e-01 2.500165224075317383e+00 1.205685958266258240e-01
-5.649761557579040527e-01 2.448521137237548828e+00 2.675417065620422363e-02
-5.637965202331542969e-01 2.507564783096313477e+00 1.207563281059265137e-01
-5.492852330207824707e-01 2.449014663696289062e+00 2.672223374247550964e-02
-5.496785640716552734e-01 2.516832351684570312e+00 1.210379227995872498e-01
-5.327580571174621582e-01 2.445499420166015625e+00 2.664770744740962982e-02
-5.321537852287292480e-01 2.510385751724243164e+00 1.205685958266258240e-01
-5.187769532203674316e-01 2.453613996505737305e+00 2.670093998312950134e-02
-5.874333381652832031e-01 2.417655467987060547e+00 3.039664821699261665e-03
-5.854668617248535156e-01 2.471820831298828125e+00 9.536509960889816284e-02
-5.721275806427001953e-01 2.419267892837524414e+00 3.037221264094114304e-03
-5.738785862922668457e-01 2.490947246551513672e+00 9.596534818410873413e-02
-5.572724342346191406e-01 2.422732830047607422e+00 3.037221264094114304e-03
-5.585836172103881836e-01 2.494421720504760742e+00 9.596534818410873413e-02
-5.487235784530639648e-01 2.454407930374145508e+00 3.072651568800210953e-03
-5.439047217369079590e-01 2.500731468200683594e+00 9.607789665460586548e-02
-5.313192009925842285e-01 2.446979284286499023e+00 3.059212584048509598e-03
-5.289630889892578125e-01 2.505977392196655273e+00 9.615293145179748535e-02
-9.489092975854873657e-02 6.964209675788879395e-01 1.423183921724557877e-02
-5.142329931259155273e-01 2.440408229827880859e+00 3.046995261684060097e-03
-5.207904577255249023e-01 2.544419765472412109e+00 9.750350564718246460e-02
-4.672599583864212036e-02 6.833145618438720703e-01 3.865217790007591248e-02
