-1.328717824071645737e-02 -7.536835670471191406e-01 4.253993555903434753e-02
-4.180348943918943405e-03 -7.573562860488891602e-01 6.319861859083175659e-02
-4.741158336400985718e-02 -7.133449912071228027e-01 6.644686311483383179e-02
-8.017548173666000366e-02 -6.892485022544860840e-01 3.915927559137344360e-02
-3.479329496622085571e-02 -7.072106599807739258e-01 5.236987397074699402e-02
-1.160291954874992371e-01 -6.972874999046325684e-01 3.989174962043762207e-02
-8.492616564035415649e-02 -7.592646479606628418e-01 9.334019268862903118e-04
-1.179236248135566711e-01 -7.064352035522460938e-01 3.365032374858856201e-02
-1.229250207543373108e-01 -7.073578238487243652e-01 7.644049357622861862e-03
-1.826925635337829590e+00 -2.231197834014892578e+00 8.558712154626846313e-02
-1.825559020042419434e+00 -2.202609300613403320e+00 1.885093897581100464e-01
-1.834839701652526855e+00 -2.213020801544189453e+00 8.532012253999710083e-02
-1.839039564132690430e+00 -2.191366434097290039e+00 1.885093897581100464e-01
-1.841314435005187988e+00 -2.193299770355224609e+00 8.499379456043243408e-02
-1.848574161529541016e+00 -2.175478696823120117e+00 1.881148815155029297e-01
-1.832726716995239258e+00 -2.156065940856933594e+00 8.398514240980148315e-02
-1.844617605209350586e+00 -2.143265008926391602e+00 8.392581343650817871e-02
-4.600621223449707031e+00 -6.692146778106689453e+00 9.921670891344547272e-03
-1.865613698959350586e+00 -2.140949249267578125e+00 8.428180217742919922e-02
-1.804472446441650391e+00 -2.228437185287475586e+00 5.806104466319084167e-02
-4.651313304901123047e+00 -6.677742004394531250e+00 9.942440316081047058e-03
-1.833173394203186035e+00 -2.237284183502197266e+00 1.632293760776519775e-01
-1.819379806518554688e+00 -2.218869686126708984e+00 5.810153484344482422e-02
-1.847504258155822754e+00 -2.226762533187866211e+00 1.632857322692871094e-01
-1.822741627693176270e+00 -2.195356845855712891e+00 5.777762457728385925e-02
-1.845077276229858398e+00 -2.196273088455200195e+00 1.618771255016326904e-01
-1.836821079254150391e+00 -2.184896469116210938e+00 5.779786407947540283e-02
-4.999267101287841797e+00 -6.902808189392089844e+00 1.041280757635831833e-02
-1.843640089035034180e+00 -2.167419195175170898e+00 1.605812013149261475e-01
-1.848896741867065430e+00 -2.172062397003173828e+00 5.775738134980201721e-02
-5.050400733947753906e+00 -6.884097099304199219e+00 1.043113227933645248e-02
-1.862842202186584473e+00 -2.161434173583984375e+00 5.777762457728385925e-02
-1.802569746971130371e+00 -2.251056671142578125e+00 3.070395067334175110e-02
-5.087177276611328125e+00 -6.845755100250244141e+00 1.042013708502054214e-02
-1.811391353607177734e+00 -2.236233472824096680e+00 1.352114081382751465e-01
-1.816348075866699219e+00 -2.239953756332397461e+00 3.070395067334175110e-02
-5.041888236999511719e+00 -6.698561668395996094e+00 1.024298649281263351e-02
-1.840915799140930176e+00 -2.244385242462158203e+00 1.363847255706787109e-01
-1.832596302032470703e+00 -2.231858253479003906e+00 3.074653819203376770e-02
-5.152008056640625000e+00 -6.758158683776855469e+00 1.038226298987865448e-02
-1.857843518257141113e+00 -2.236889600753784180e+00 1.366193890571594238e-01
-1.843059778213500977e+00 -2.216727018356323242e+00 3.069330565631389618e-02
-5.173211097717285156e+00 -6.700298786163330078e+00 1.034194603562355042e-02
-1.867676377296447754e+00 -2.220860958099365234e+00 1.363377869129180908e-01
-1.852762699127197266e+00 -2.200786590576171875e+00 3.062942624092102051e-02
-5.222849845886230469e+00 -6.679459095001220703e+00 1.035905070602893829e-02
-1.856659412384033203e+00 -2.180458784103393555e+00 1.345543712377548218e-01
-1.856501579284667969e+00 -2.177962064743041992e+00 3.046973422169685364e-02
-5.279876708984375000e+00 -6.667670249938964844e+00 1.039081532508134842e-02
-1.863296985626220703e+00 -2.158959865570068359e+00 3.036327101290225983e-02
-1.824861884117126465e+00 -2.275687932968139648e+00 3.563787089660763741e-03
-1.821596145629882812e+00 -2.244873762130737305e+00 1.085331365466117859e-01
-1.822401285171508789e+00 -2.244264364242553711e+00 3.532022004947066307e-03
-1.831529617309570312e+00 -2.229021787643432617e+00 1.083080396056175232e-01
-1.829786300659179688e+00 -2.225316047668457031e+00 3.519804682582616806e-03
-1.850285291671752930e+00 -2.223887205123901367e+00 1.086081713438034058e-01
-1.830609083175659180e+00 -2.198676824569702148e+00 3.495370037853717804e-03
-1.865827560424804688e+00 -2.214785099029541016e+00 1.087207198143005371e-01
-1.879515886306762695e+00 -2.229453802108764648e+00 3.562565427273511887e-03
-1.883921623229980469e+00 -2.208616733551025391e+00 1.089833304286003113e-01
-1.886018753051757812e+00 -2.209512948989868164e+00 3.549126442521810532e-03
-1.882539510726928711e+00 -2.178227424621582031e+00 3.517361357808113098e-03
-5.485443115234375000e+00 -6.268867969512939453e+00 1.017701253294944763e-02
-5.583486080169677734e+00 -6.302458286285400391e+00 1.028696820139884949e-02
-5.626058578491210938e+00 -6.272546768188476562e+00 1.029429957270622253e-02
-5.636205673217773438e+00 -6.206814765930175781e+00 1.024298649281263351e-02
-5.726973533630371094e+00 -6.229536533355712891e+00 1.033828221261501312e-02
-5.781439781188964844e+00 -6.211847305297851562e+00 1.036760210990905762e-02
-5.830419063568115234e+00 -6.187901496887207031e+00 1.038715057075023651e-02
-5.882081508636474609e+00 -6.166481971740722656e+00 1.041158474981784821e-02
-5.926059246063232422e+00 -6.136747837066650391e+00 1.042257994413375854e-02
-5.965699672698974609e+00 -6.102416038513183594e+00 1.042624562978744507e-02
-5.772307395935058594e+00 -5.832564353942871094e+00 1.002551801502704620e-02
-5.568759441375732422e+00 -5.558260440826416016e+00 9.612573310732841492e-03
-6.012214183807373047e+00 -5.927684307098388672e+00 1.031506899744272232e-02
-5.952475547790527344e+00 -5.797189712524414062e+00 1.015135645866394043e-02
-6.008833885192871094e+00 -5.780662536621093750e+00 1.018678676337003708e-02
-6.053614139556884766e+00 -5.752639770507812500e+00 1.020266953855752945e-02
-6.177749156951904297e+00 -5.798883438110351562e+00 1.035172026604413986e-02
-6.144284248352050781e+00 -5.696957111358642578e+00 1.023687794804573059e-02
-6.292691707611083984e+00 -5.763159751892089844e+00 1.042502373456954956e-02
-6.091370582580566406e+00 -5.510436534881591797e+00 1.003529224544763565e-02
-5.990097522735595703e+00 -5.352356910705566406e+00 9.814158082008361816e-03
-6.327229499816894531e+00 -5.584155082702636719e+00 1.031018141657114029e-02
-6.356851577758789062e+00 -5.541284561157226562e+00 1.030285097658634186e-02
-6.374818325042724609e+00 -5.488473415374755859e+00 1.027719490230083466e-02
-6.431229114532470703e+00 -5.468688964843750000e+00 1.031384617090225220e-02
-6.468492031097412109e+00 -5.432340145111083984e+00 1.031995564699172974e-02
-6.502471923828125000e+00 -5.393186092376708984e+00 1.032117661088705063e-02
-6.286339759826660156e+00 -5.149147033691406250e+00 9.927779436111450195e-03
-6.329478740692138672e+00 -5.119911670684814453e+00 9.946106001734733582e-03
-6.527978420257568359e+00 -5.214540004730224609e+00 1.020755618810653687e-02
-6.552784919738769531e+00 -5.168813228607177734e+00 1.019656099379062653e-02
-6.604099750518798828e+00 -5.143870830535888672e+00 1.022710371762514114e-02
-6.673586845397949219e+00 -5.132514476776123047e+00 1.028574723750352859e-02
-6.712121009826660156e+00 -5.096912384033203125e+00 1.029674243181943893e-02
-6.921691417694091797e+00 -5.189400672912597656e+00 1.056918781250715256e-02
-6.791845798492431641e+00 -5.027249336242675781e+00 1.032362133264541626e-02
-6.701453685760498047e+00 -4.896980762481689453e+00 1.014036033302545547e-02
-6.814097881317138672e+00 -4.915442943572998047e+00 1.026497781276702881e-02
-6.878342628479003906e+00 -4.897901535034179688e+00 1.031628996133804321e-02
-6.904175281524658203e+00 -4.852729320526123047e+00 1.031018141657114029e-02
-6.932178020477294922e+00 -4.809134960174560547e+00 1.030773762613534927e-02
-6.954129695892333984e+00 -4.761425018310546875e+00 1.029674243181943893e-02
-6.998128414154052734e+00 -4.728743076324462891e+00 1.031873282045125961e-02
-7.060291290283203125e+00 -4.707905769348144531e+00 1.036760210990905762e-02
-6.807522296905517578e+00 -4.479257583618164062e+00 9.955879300832748413e-03
-6.833200931549072266e+00 -4.436314105987548828e+00 9.953436441719532013e-03
-6.909132480621337891e+00 -4.425586223602294922e+00 1.002429611980915070e-02
-7.130589962005615234e+00 -4.505975723266601562e+00 1.030529476702213287e-02
-6.944251537322998047e+00 -4.328829765319824219e+00 9.997419081628322601e-03
-7.298644542694091797e+00 -4.487796783447265625e+00 1.046778541058301926e-02
-7.315783023834228516e+00 -4.436706066131591797e+00 1.045312453061342239e-02
-7.336860656738281250e+00 -4.388140678405761719e+00 1.044457219541072845e-02
-7.522135734558105469e+00 -4.436514854431152344e+00 1.066937018185853958e-02
-7.575149059295654297e+00 -4.405358314514160156e+00 1.070602238178253174e-02
-7.373880386352539062e+00 -4.227976322174072266e+00 1.038470678031444550e-02
-7.089767456054687500e+00 -4.007472038269042969e+00 9.949770756065845490e-03
-7.383278846740722656e+00 -4.113806247711181641e+00 1.032606419175863266e-02
-7.396110534667968750e+00 -4.061686992645263672e+00 1.030896045267581940e-02
-7.295129776000976562e+00 -3.948164939880371094e+00 1.013425178825855255e-02
-7.418924808502197266e+00 -3.956502199172973633e+00 1.027230732142925262e-02
-7.737845420837402344e+00 -4.065798282623291016e+00 1.067914348095655441e-02
-7.741333484649658203e+00 -4.007210254669189453e+00 1.064982172101736069e-02
-7.824573040008544922e+00 -3.989614963531494141e+00 1.073045656085014343e-02
-7.578131198883056641e+00 -3.805552721023559570e+00 1.036027260124683380e-02
-7.918658733367919922e+00 -3.915902376174926758e+00 1.079276483505964279e-02
-8.128647804260253906e+00 -3.957858324050903320e+00 1.104566268622875214e-02
-8.075229644775390625e+00 -3.870734930038452148e+00 1.094059459865093231e-02
-7.549861907958984375e+00 -3.562105178833007812e+00 1.019900385290384293e-02
-8.042305946350097656e+00 -3.734287023544311523e+00 1.083308178931474686e-02
-8.416157722473144531e+00 -3.845280408859252930e+00 1.130467001348733902e-02
-8.311901092529296875e+00 -3.736170291900634766e+00 1.113362796604633331e-02
-8.438931465148925781e+00 -3.731197834014892578e+00 1.127290446311235428e-02
-8.460750579833984375e+00 -3.678948879241943359e+00 1.127168349921703339e-02
-8.503393173217773438e+00 -3.635613918304443359e+00 1.129856053739786148e-02
-8.504337310791015625e+00 -3.574457645416259766e+00 1.127046160399913788e-02
-8.805230140686035156e+00 -3.637515783309936523e+00 1.163942366838455200e-02
-8.839429855346679688e+00 -3.588309288024902344e+00 1.165530737489461899e-02
-8.862209320068359375e+00 -3.534374237060546875e+00 1.165652833878993988e-02
-6.199017524719238281e+00 -1.682057619094848633e+00 1.906352937221527100e-01
-8.887453079223632812e+00 -3.481389045715332031e+00 1.166141498833894730e-02
-6.206323146820068359e+00 -1.643221974372863770e+00 1.905462890863418579e-01
-8.933847427368164062e+00 -3.436484813690185547e+00 1.169440150260925293e-02
-6.149509429931640625e+00 -1.587866663932800293e+00 1.884993165731430054e-01
-8.940732002258300781e+00 -3.376303672790527344e+00 1.167607586830854416e-02
-8.941589355468750000e+00 -3.314082622528076172e+00 1.165041886270046234e-02
-8.999346733093261719e+00 -3.272826671600341797e+00 1.169928815215826035e-02
-9.094608306884765625e+00 -3.244426012039184570e+00 1.179702673107385635e-02
-6.160132408142089844e+00 -1.666962265968322754e+00 1.292202472686767578e-01
-9.177586555480957031e+00 -3.210686206817626953e+00 1.187888346612453461e-02
-6.181845188140869141e+00 -1.632195711135864258e+00 1.294631808996200562e-01
-9.226437568664550781e+00 -3.164370059967041016e+00 1.191675662994384766e-02
-6.182061195373535156e+00 -1.591740965843200684e+00 1.292607337236404419e-01
-9.264636993408203125e+00 -3.114070177078247070e+00 1.194119080901145935e-02
-9.379502296447753906e+00 -3.088756084442138672e+00 1.206458546221256256e-02
-9.353547096252441406e+00 -3.016719579696655273e+00 1.200716383755207062e-02
-6.165363311767578125e+00 -1.704484462738037109e+00 6.810443103313446045e-02
-9.402396202087402344e+00 -2.968906164169311523e+00 1.204625982791185379e-02
-6.157363414764404297e+00 -1.661672353744506836e+00 6.790214776992797852e-02
-9.408971786499023438e+00 -2.907615184783935547e+00 1.203159894794225693e-02
-6.167443275451660156e+00 -1.623860120773315430e+00 6.790214776992797852e-02
-9.444822311401367188e+00 -2.855326414108276367e+00 1.205481216311454773e-02
-6.170511245727539062e+00 -1.584246277809143066e+00 6.782762706279754639e-02
-8.132071495056152344e+00 -2.404102087020874023e+00 1.036027260124683380e-02
-9.737576484680175781e+00 -2.813886880874633789e+00 1.238345820456743240e-02
-9.764283180236816406e+00 -2.756802320480346680e+00 1.239567529410123825e-02
-1.484183216094970703e+01 -2.958872556686401367e+00 3.064400553703308105e-01
-6.172662734985351562e+00 -1.701937079429626465e+00 7.822738960385322571e-03
-6.182884693145751953e+00 -1.666316986083984375e+00 2.404010891914367676e-01
-1.480375194549560547e+01 -2.856950283050537109e+00 3.052861094474792480e-01
-6.174298763275146484e+00 -1.661691308021545410e+00 7.811743300408124924e-03
-6.189126968383789062e+00 -1.627331614494323730e+00 2.402510195970535278e-01
-6.176640033721923828e+00 -1.621743559837341309e+00 7.801969069987535477e-03
-6.172912120819091797e+00 -1.580341696739196777e+00 7.784864865243434906e-03
-1.000725555419921875e+01 -2.496654272079467773e+00 1.260092481970787048e-02
-1.003501892089843750e+01 -2.438273429870605469e+00 1.261680852621793747e-02
-1.479506206512451172e+01 -2.938978433609008789e+00 1.605995595455169678e-01
-1.013834762573242188e+01 -2.397596359252929688e+00 1.272798515856266022e-02
-1.482361793518066406e+01 -2.850219011306762695e+00 1.607166677713394165e-01
-9.772794723510742188e+00 -2.247919559478759766e+00 1.225151121616363525e-02
-1.014651298522949219e+01 -2.268420934677124023e+00 1.270232908427715302e-02
-1.034786891937255859e+01 -2.246860742568969727e+00 1.293690130114555359e-02
-1.034971809387207031e+01 -2.180850744247436523e+00 1.292224042117595673e-02
-1.034134960174560547e+01 -2.112900972366333008e+00 1.289536245167255402e-02
-1.096506023406982422e+01 -1.357207894325256348e+00 2.237212806940078735e-01
-1.008631515502929688e+01 -1.996401071548461914e+00 1.256183069199323654e-02
-1.092254161834716797e+01 -1.283949255943298340e+00 2.226888239383697510e-01
-1.031051731109619141e+01 -1.975113630294799805e+00 1.282572373747825623e-02
-1.063905811309814453e+01 -1.970452427864074707e+00 1.321912091225385666e-02
-1.051904201507568359e+01 -1.881541252136230469e+00 1.305540930479764938e-02
-1.053137397766113281e+01 -1.817132115364074707e+00 1.305663026869297028e-02
-1.073567199707031250e+01 -1.784619212150573730e+00 1.329609006643295288e-02
-1.093883514404296875e+01 -1.346329927444458008e+00 1.173436045646667480e-01
-1.078394317626953125e+01 -1.724713921546936035e+00 1.334251556545495987e-02
-1.093199348449707031e+01 -1.277444362640380859e+00 1.171839162707328796e-01
-1.102264308929443359e+01 -1.693593144416809082e+00 1.362473517656326294e-02
-1.103084945678710938e+01 -1.625635981559753418e+00 1.362229231745004654e-02
-1.106834125518798828e+01 -1.561833620071411133e+00 1.365650072693824768e-02
-1.108564472198486328e+01 -1.494959354400634766e+00 1.366627495735883713e-02
-1.029122638702392578e+01 -1.323585510253906250e+00 1.267667300999164581e-02
-1.088180637359619141e+01 -1.331720113754272461e+00 1.339382864534854889e-02
-1.090070056915283203e+01 -1.266194820404052734e+00 1.340726763010025024e-02
-1.127306556701660156e+01 -1.239392876625061035e+00 1.385564263910055161e-02
-1.167335033416748047e+01 -1.210956573486328125e+00 1.433822698891162872e-02
-1.153923130035400391e+01 -1.125522375106811523e+00 1.416474021971225739e-02
-1.160766220092773438e+01 -1.060337901115417480e+00 1.424048747867345810e-02
-1.176739406585693359e+01 -1.002162694931030273e+00 1.442863419651985168e-02
-1.204547405242919922e+01 -9.514368772506713867e-01 1.476216595619916916e-02
-1.174988269805908203e+01 -8.555770516395568848e-01 1.439320296049118042e-02
-1.201732921600341797e+01 -8.009551763534545898e-01 1.471451856195926666e-02
-1.193817138671875000e+01 -7.221313714981079102e-01 1.461189426481723785e-02
-1.210214138031005859e+01 -6.575469970703125000e-01 1.480737049132585526e-02
-1.207498455047607422e+01 -5.817853808403015137e-01 1.476949732750654221e-02
-1.245899009704589844e+01 -5.236840248107910156e-01 1.523497514426708221e-02
-1.256190490722656250e+01 -4.508136510848999023e-01 1.535714883357286453e-02
-1.256643295288085938e+01 -3.737862408161163330e-01 1.535959262400865555e-02
-1.242652988433837891e+01 -2.933220863342285156e-01 1.518610678613185883e-02
-1.280203914642333984e+01 -2.236001044511795044e-01 1.564303413033485413e-02
-1.264018058776855469e+01 -1.431975960731506348e-01 1.544389221817255020e-02
-1.257982158660888672e+01 -6.531947851181030273e-02 1.536936685442924500e-02
-1.275398540496826172e+01 1.203426439315080643e-02 1.558194775134325027e-02
-1.284466838836669922e+01 9.093524515628814697e-02 1.569312438368797302e-02
-1.230991649627685547e+01 1.626901328563690186e-01 1.504072081297636032e-02
-1.229168987274169922e+01 2.378903329372406006e-01 1.501995138823986053e-02
-1.277184200286865234e+01 3.255897760391235352e-01 1.560882572084665298e-02
-1.330933380126953125e+01 4.210238456726074219e-01 1.626856066286563873e-02
-1.334047508239746094e+01 5.039639472961425781e-01 1.631009764969348907e-02
-1.374973297119140625e+01 6.039329171180725098e-01 1.681467331945896149e-02
-1.375176143646240234e+01 6.885883808135986328e-01 1.682200469076633453e-02
-1.450508022308349609e+01 8.155628442764282227e-01 1.774929650127887726e-02
-1.328316879272460938e+01 8.286510705947875977e-01 1.626000739634037018e-02
-1.323593235015869141e+01 9.072672128677368164e-01 1.620869524776935577e-02
-1.395509529113769531e+01 1.042629837989807129e+00 1.709689199924468994e-02
-1.483952426910400391e+01 1.200313925743103027e+00 1.818911917507648468e-02
-1.397711372375488281e+01 1.216924309730529785e+00 1.714087463915348053e-02
-1.477986717224121094e+01 1.378242015838623047e+00 1.813536323606967926e-02
-1.350836753845214844e+01 2.337929010391235352e+00 2.775917351245880127e-01
-1.448653602600097656e+01 1.440602183341979980e+00 1.778594776988029480e-02
-1.480261516571044922e+01 1.563817501068115234e+00 1.818545535206794739e-02
-1.410999870300292969e+01 1.578248262405395508e+00 1.734612695872783661e-02
-1.448139953613281250e+01 1.709822058677673340e+00 1.781526952981948853e-02
-1.348216056823730469e+01 2.342936992645263672e+00 1.456947177648544312e-01
-1.477981758117675781e+01 3.217117309570312500e+00 3.062780797481536865e-01
-1.344588088989257812e+01 2.421718597412109375e+00 1.454605013132095337e-01
-1.407078456878662109e+01 2.012592554092407227e+00 1.736567355692386627e-02
-1.407201766967773438e+01 2.100958585739135742e+00 1.738277822732925415e-02
-1.340278339385986328e+01 2.253980159759521484e+00 1.660453528165817261e-02
-1.343697071075439453e+01 2.344598293304443359e+00 1.666440069675445557e-02
-1.482277870178222656e+01 3.237139463424682617e+00 1.615364253520965576e-01
-1.341938018798828125e+01 2.426468133926391602e+00 1.666073501110076904e-02
-1.487037086486816406e+01 3.162744760513305664e+00 1.857396587729454041e-02
-1.472174453735351562e+01 3.225675821304321289e+00 1.841269619762897491e-02
-1.467240905761718750e+01 3.309345245361328125e+00 1.837604306638240814e-02
-9.337075233459472656e+00 3.080091476440429688e+00 1.990838050842285156e-01
-9.280098915100097656e+00 3.124563455581665039e+00 1.982740163803100586e-01
-9.307858467102050781e+00 3.077547788619995117e+00 1.043764054775238037e-01
-9.277430534362792969e+00 3.130765199661254883e+00 1.042486503720283508e-01
-9.336424827575683594e+00 3.030661106109619141e+00 1.199250482022762299e-02
-9.338535308837890625e+00 3.094811677932739258e+00 1.201938185840845108e-02
-1.056675434112548828e+01 4.447687625885009766e+00 2.321429699659347534e-01
-9.296635627746582031e+00 3.144364118576049805e+00 1.199006009846925735e-02
-1.050905799865722656e+01 4.431906700134277344e+00 1.214317828416824341e-01
-1.054102706909179688e+01 4.377893924713134766e+00 1.394482888281345367e-02
-1.049738597869873047e+01 4.435483932495117188e+00 1.392283849418163300e-02
-1.045894813537597656e+01 4.495072841644287109e+00 1.390817761421203613e-02
-4.734708786010742188e+00 2.910143136978149414e+00 1.649443358182907104e-01
-4.704037666320800781e+00 2.931210279464721680e+00 1.644993275403976440e-01
-4.599765777587890625e+00 2.905569314956665039e+00 1.614733785390853882e-01
-4.665809154510498047e+00 2.911842584609985352e+00 1.113646551966667175e-01
-4.652627468109130859e+00 2.908060789108276367e+00 5.841629207134246826e-02
-4.617803096771240234e+00 2.925850391387939453e+00 5.820336565375328064e-02
-4.699076652526855469e+00 2.861929893493652344e+00 6.721959915012121201e-03
-4.689085006713867188e+00 2.895437479019165039e+00 6.732955109328031540e-03
-4.665297508239746094e+00 2.920440435409545898e+00 6.724403239786624908e-03
-4.626181602478027344e+00 2.935616254806518555e+00 6.693859584629535675e-03
-6.646101951599121094e+00 6.898937702178955078e+00 1.019916310906410217e-01
-6.607091903686523438e+00 6.943208694458007812e+00 1.020448580384254456e-01
-6.550216674804687500e+00 6.808763027191162109e+00 1.154290791600942612e-02
-6.601999759674072266e+00 6.947412014007568359e+00 1.170906238257884979e-02
-1.091191172599792480e-01 7.369228005409240723e-01 7.931499741971492767e-03
-6.379248946905136108e-02 6.879068613052368164e-01 1.398890651762485504e-02
-1.340751815587282181e-02 6.865667700767517090e-01 2.038071118295192719e-02
-4.781861975789070129e-02 7.046002149581909180e-01 3.318100422620773315e-02
-7.992809987626969814e-04 7.079483866691589355e-01 6.579905003309249878e-02
