-3.654302563518285751e-03 -7.298452854156494141e-01 6.783502548933029175e-02
-2.647433616220951080e-02 -7.343537807464599609e-01 4.146939143538475037e-02
-3.456796333193778992e-02 -7.150259017944335938e-01 4.039884731173515320e-02
-4.741158336400985718e-02 -7.133449912071228027e-01 6.644686311483383179e-02
-6.002232804894447327e-02 -6.584203243255615234e-01 6.144946813583374023e-02
-3.910700231790542603e-02 -7.154417634010314941e-01 5.978921800851821899e-02
-9.832608699798583984e-02 -7.300842404365539551e-01 2.186402305960655212e-02
-7.671716064214706421e-02 -7.358601093292236328e-01 1.498088333755731583e-02
-7.137736678123474121e-02 -7.266975045204162598e-01 3.430737182497978210e-02
-1.237847357988357544e-01 -7.152183651924133301e-01 1.469746138900518417e-02
-1.001765206456184387e-01 -7.361733317375183105e-01 7.910206913948059082e-03
-1.171012818813323975e-01 -7.015088796615600586e-01 3.341566398739814758e-02
-1.195009201765060425e-01 -6.876541972160339355e-01 7.431122474372386932e-03
-1.004170179367065430e-01 -7.341639399528503418e-01 9.053021203726530075e-04
-1.182996928691864014e-01 -7.072154283523559570e-01 5.303371697664260864e-02
-3.350480079650878906e+00 -6.956151008605957031e+00 9.432978928089141846e-03
-3.513800621032714844e+00 -6.859371185302734375e+00 9.415875189006328583e-03
-3.624567747116088867e+00 -6.969875335693359375e+00 9.597912430763244629e-03
-3.548228979110717773e+00 -6.721992969512939453e+00 9.286371059715747833e-03
-3.547379493713378906e+00 -6.621644020080566406e+00 9.177637286484241486e-03
-3.639526128768920898e+00 -6.694637298583984375e+00 9.309584274888038635e-03
-3.713862657546997070e+00 -6.732596874237060547e+00 9.393883869051933289e-03
-3.673056602478027344e+00 -6.563079833984375000e+00 9.188633412122726440e-03
-3.729056835174560547e+00 -6.568246841430664062e+00 9.227728471159934998e-03
-3.681456565856933594e+00 -6.392724990844726562e+00 9.012703783810138702e-03
-3.822995901107788086e+00 -6.545305252075195312e+00 9.260714985430240631e-03
-3.820275306701660156e+00 -6.449452400207519531e+00 9.158089756965637207e-03
-3.869559764862060547e+00 -6.442177772521972656e+00 9.181302972137928009e-03
-3.892890214920043945e+00 -6.391837120056152344e+00 9.143428876996040344e-03
-3.922579765319824219e+00 -6.352515220642089844e+00 9.121438488364219666e-03
-3.964137077331542969e+00 -6.332564830780029297e+00 9.127546101808547974e-03
-4.000775337219238281e+00 -6.304745197296142578e+00 9.122659452259540558e-03
-4.035598278045654297e+00 -6.274190902709960938e+00 9.114108048379421234e-03
-3.992102861404418945e+00 -6.123654365539550781e+00 8.930847980082035065e-03
-3.864228010177612305e+00 -5.848741054534912109e+00 8.564328774809837341e-03
-3.907275199890136719e+00 -5.835722923278808594e+00 8.580211549997329712e-03
-3.981748580932617188e+00 -5.868737220764160156e+00 8.664511144161224365e-03
-3.974628686904907227e+00 -5.781566619873046875e+00 8.571659214794635773e-03
-3.962018251419067383e+00 -5.688142776489257812e+00 8.469033986330032349e-03
-4.037206172943115234e+00 -5.720918178558349609e+00 8.554555475711822510e-03
-4.065253734588623047e+00 -5.686276435852050781e+00 8.539894595742225647e-03
-4.183946132659912109e+00 -5.777041912078857422e+00 8.714601397514343262e-03
-4.174950599670410156e+00 -5.690789222717285156e+00 8.622972294688224792e-03
-3.754097223281860352e+00 -5.051844596862792969e+00 7.689570076763629913e-03
-3.743529558181762695e+00 -4.973586082458496094e+00 7.605270948261022568e-03
-4.175321578979492188e+00 -5.476987838745117188e+00 8.414056152105331421e-03
-4.213737964630126953e+00 -5.457597732543945312e+00 8.423830382525920868e-03
-4.237290382385253906e+00 -5.419035434722900391e+00 8.404281921684741974e-03
-4.238800525665283203e+00 -5.352951526641845703e+00 8.341974578797817230e-03
-4.297840595245361328e+00 -5.359608173370361328e+00 8.393286727368831635e-03
-4.278955459594726562e+00 -5.269479751586914062e+00 8.293104358017444611e-03
-4.319464206695556641e+00 -5.253166675567626953e+00 8.308987133204936981e-03
-4.318343639373779297e+00 -5.186602592468261719e+00 8.245457895100116730e-03
-4.348797798156738281e+00 -5.158478736877441406e+00 8.243014104664325714e-03
-4.327130794525146484e+00 -5.069329738616943359e+00 8.142831735312938690e-03
-4.367962360382080078e+00 -5.054032325744628906e+00 8.161158300936222076e-03
-4.410086154937744141e+00 -5.039929866790771484e+00 8.181927725672721863e-03
-4.446232318878173828e+00 -5.018763065338134766e+00 8.191701024770736694e-03
-4.478278636932373047e+00 -4.992875576019287109e+00 8.194144815206527710e-03
-4.498745918273925781e+00 -4.954198837280273438e+00 8.175819180905818939e-03
-4.512816905975341797e+00 -4.908833503723144531e+00 8.146497420966625214e-03
-4.426351070404052734e+00 -4.755877017974853516e+00 7.937581278383731842e-03
-4.485623359680175781e+00 -4.760652065277099609e+00 7.991337217390537262e-03
-4.485069751739501953e+00 -4.701924324035644531e+00 7.938803173601627350e-03
-6.968070983886718750e+00 -6.712701797485351562e+00 1.030136793851852417e-01
-4.463126182556152344e+00 -4.621803760528564453e+00 7.849616929888725281e-03
-7.204710960388183594e+00 -6.855935096740722656e+00 1.058881729841232300e-01
-4.483012676239013672e+00 -4.585750579833984375e+00 7.834956049919128418e-03
-4.492073535919189453e+00 -4.538966178894042969e+00 7.801969069987535477e-03
-4.564429283142089844e+00 -4.555823802947998047e+00 7.878938689827919006e-03
-7.313473224639892578e+00 -6.707289695739746094e+00 1.056539639830589294e-01
-4.487619400024414062e+00 -4.424525260925292969e+00 7.699344307184219360e-03
-7.664262771606445312e+00 -6.942905426025390625e+00 1.101041212677955627e-01
-4.338451385498046875e+00 -4.225271701812744141e+00 7.398798130452632904e-03
-7.427273750305175781e+00 -6.645707607269287109e+00 1.061117425560951233e-01
-4.468070030212402344e+00 -4.298406124114990234e+00 7.574727293103933334e-03
-7.603528499603271484e+00 -6.719865798950195312e+00 1.080387309193611145e-01
-4.603820323944091797e+00 -4.374927043914794922e+00 7.759208790957927704e-03
-4.630577564239501953e+00 -4.346596240997314453e+00 7.759208790957927704e-03
-7.865664482116699219e+00 -6.781453132629394531e+00 1.105725541710853577e-01
-4.665226936340332031e+00 -4.325580596923828125e+00 7.772647775709629059e-03
-7.760190963745117188e+00 -6.607944011688232422e+00 1.085178181529045105e-01
-4.679881095886230469e+00 -4.286067485809326172e+00 7.753099780529737473e-03
-7.874057769775390625e+00 -6.621989250183105469e+00 1.095398589968681335e-01
-4.693484783172607422e+00 -4.245867252349853516e+00 7.732330821454524994e-03
-7.853772640228271484e+00 -6.523077487945556641e+00 1.086988002061843872e-01
-4.709754943847656250e+00 -4.208326339721679688e+00 7.716448511928319931e-03
-7.997249603271484375e+00 -6.559742927551269531e+00 1.101254150271415710e-01
-4.685253620147705078e+00 -4.135014057159423828e+00 7.634591776877641678e-03
-7.897487640380859375e+00 -6.397256374359130859e+00 1.082090735435485840e-01
-4.657771110534667969e+00 -4.060191631317138672e+00 7.549071218818426132e-03
-7.197904586791992188e+00 -5.757783412933349609e+00 9.813766181468963623e-02
-4.687143325805664062e+00 -4.035450458526611328e+00 7.556401658803224564e-03
-7.747842311859130859e+00 -6.120112419128417969e+00 1.051216423511505127e-01
-4.743812084197998047e+00 -4.033822059631347656e+00 7.607714273035526276e-03
-7.722172260284423828e+00 -6.023257732391357422e+00 1.042699441313743591e-01
-4.784554958343505859e+00 -4.018143653869628906e+00 7.633370347321033478e-03
-7.823946475982666016e+00 -6.025793552398681641e+00 1.051429361104965210e-01
-4.816047668457031250e+00 -3.994456529617309570e+00 7.644366007298231125e-03
-7.963449478149414062e+00 -6.055753707885742188e+00 1.065163090825080872e-01
-4.840466499328613281e+00 -3.964830636978149414e+00 7.644366007298231125e-03
-7.710186004638671875e+00 -5.788839817047119141e+00 1.026517003774642944e-01
-4.857705593109130859e+00 -3.929394960403442383e+00 7.633370347321033478e-03
-7.991374969482421875e+00 -5.923633098602294922e+00 1.059094741940498352e-01
-4.860628604888916016e+00 -3.882663488388061523e+00 7.600383833050727844e-03
-7.848427772521972656e+00 -5.743391990661621094e+00 1.035459935665130615e-01
-4.820764541625976562e+00 -3.802601575851440430e+00 7.501423824578523636e-03
-7.740051269531250000e+00 -5.591483116149902344e+00 1.016615927219390869e-01
-4.836905956268310547e+00 -3.767420053482055664e+00 7.490428164601325989e-03
-7.749789714813232422e+00 -5.526468276977539062e+00 1.013422012329101562e-01
-4.860723972320556641e+00 -3.738280057907104492e+00 7.491650059819221497e-03
-7.765564918518066406e+00 -5.466150283813476562e+00 1.011079847812652588e-01
-4.887551784515380859e+00 -3.711408376693725586e+00 7.497758138924837112e-03
-4.130190372467041016e+00 -2.447455167770385742e+00 1.424869894981384277e-01
-7.844123840332031250e+00 -5.449778079986572266e+00 1.016935259103775024e-01
-4.927034854888916016e+00 -3.693946361541748047e+00 7.523415144532918930e-03
-4.113197803497314453e+00 -2.403408288955688477e+00 1.413893252611160278e-01
-7.567333698272705078e+00 -5.188921451568603516e+00 9.769052267074584961e-02
-4.972113132476806641e+00 -3.680303573608398438e+00 7.557623088359832764e-03
-4.097553730010986328e+00 -2.360660791397094727e+00 1.403510123491287231e-01
-7.685984134674072266e+00 -5.201235294342041016e+00 9.880837798118591309e-02
-4.849268913269042969e+00 -3.543526411056518555e+00 7.337712217122316360e-03
-4.078933715820312500e+00 -2.316715478897094727e+00 1.392236948013305664e-01
-1.126068305969238281e+01 -6.945325851440429688e+00 2.678946256637573242e-01
-7.731059551239013672e+00 -5.162862777709960938e+00 9.897872805595397949e-02
-4.960131168365478516e+00 -3.578058481216430664e+00 7.472102064639329910e-03
-1.131675338745117188e+01 -6.884414196014404297e+00 2.682185471057891846e-01
-7.861117362976074219e+00 -5.180253505706787109e+00 1.002349928021430969e-01
-4.997469425201416016e+00 -3.558577299118041992e+00 7.495314814150333405e-03
-1.137249946594238281e+01 -6.823076248168945312e+00 2.685424685478210449e-01
-7.684013366699218750e+00 -4.996196269989013672e+00 9.758405387401580811e-02
-4.953760147094726562e+00 -3.481843471527099609e+00 7.397576700896024704e-03
-1.274023628234863281e+01 -6.929084777832031250e+00 4.304275512695312500e-01
-4.113913059234619141e+00 -2.433991193771362305e+00 9.678865224123001099e-02
-7.936719417572021484e+00 -5.091494083404541016e+00 1.003946810960769653e-01
-5.042405605316162109e+00 -3.498122692108154297e+00 7.497758138924837112e-03
-4.104110240936279297e+00 -2.396236896514892578e+00 2.681987881660461426e-01
-1.257988071441650391e+01 -6.742181301116943359e+00 4.236043095588684082e-01
-4.129633903503417969e+00 -2.409206628799438477e+00 9.680889546871185303e-02
-8.001608848571777344e+00 -5.064089298248291016e+00 1.008205339312553406e-01
-5.068725109100341797e+00 -3.470506906509399414e+00 7.505088578909635544e-03
-1.277569389343261719e+01 -6.746548652648925781e+00 4.287959039211273193e-01
-4.122672557830810547e+00 -2.371360063552856445e+00 9.630279242992401123e-02
-8.018959045410156250e+00 -5.006424427032470703e+00 1.006501913070678711e-01
-5.077496051788330078e+00 -3.430942296981811523e+00 7.486762944608926773e-03
-1.278226661682128906e+01 -6.650040149688720703e+00 4.276389479637145996e-01
-4.101487636566162109e+00 -2.325798988342285156e+00 9.547276049852371216e-02
-8.010360717773437500e+00 -4.933006763458251953e+00 1.001604571938514709e-01
-5.003605365753173828e+00 -3.336477279663085938e+00 7.347485981881618500e-03
-1.264136219024658203e+01 -6.478485107421875000e+00 4.215870201587677002e-01
-1.171956920623779297e+01 -6.551020145416259766e+00 2.718625664710998535e-01
-8.030222892761230469e+00 -4.877534389495849609e+00 1.000327095389366150e-01
-5.089978218078613281e+00 -3.349136829376220703e+00 7.444002665579319000e-03
-1.265142822265625000e+01 -6.385933399200439453e+00 4.206080138683319092e-01
-1.180245304107666016e+01 -6.502627372741699219e+00 2.728545367717742920e-01
-4.110634326934814453e+00 -2.462387323379516602e+00 5.101710930466651917e-02
-5.097012519836425781e+00 -3.309129714965820312e+00 7.424454204738140106e-03
-1.185443019866943359e+01 -6.436765670776367188e+00 2.731379568576812744e-01
-4.107585906982421875e+00 -2.426438331604003906e+00 5.079353600740432739e-02
-5.046487808227539062e+00 -3.232485294342041016e+00 7.321829441934823990e-03
-4.117693901062011719e+00 -2.401338100433349609e+00 2.239600419998168945e-01
-1.191397762298583984e+01 -6.374755382537841797e+00 2.736035585403442383e-01
-4.112028121948242188e+00 -2.395149469375610352e+00 5.066578090190887451e-02
-5.080597877502441406e+00 -3.210541009902954102e+00 7.342598401010036469e-03
-4.118495464324951172e+00 -2.368060588836669922e+00 2.232091277837753296e-01
-1.281275367736816406e+01 -6.174109935760498047e+00 4.221210181713104248e-01
-1.199178314208984375e+01 -6.322048664093017578e+00 2.744943201541900635e-01
-4.122311592102050781e+00 -2.367383480072021484e+00 5.061254650354385376e-02
-5.243618488311767578e+00 -3.268707990646362305e+00 7.549071218818426132e-03
-1.206761360168457031e+01 -6.267704010009765625e+00 2.753445804119110107e-01
-4.135019779205322266e+00 -2.341059684753417969e+00 5.059125646948814392e-02
-5.215020656585693359e+00 -3.206616401672363281e+00 7.479432504624128342e-03
-1.211741447448730469e+01 -6.199460029602050781e+00 2.756077647209167480e-01
-7.221119880676269531e+00 -4.029960632324218750e+00 8.804496377706527710e-02
-5.209801673889160156e+00 -3.159519433975219727e+00 7.444002665579319000e-03
-1.216147613525390625e+01 -6.128141880035400391e+00 2.757494747638702393e-01
-7.992186069488525391e+00 -4.396183013916015625e+00 9.711562097072601318e-02
-4.079943180084228516e+00 -2.440194129943847656e+00 5.808105692267417908e-03
-4.088535308837890625e+00 -2.413320302963256836e+00 1.782374531030654907e-01
-1.227676486968994141e+01 -6.092069149017333984e+00 2.775107324123382568e-01
-7.905607700347900391e+00 -4.285585880279541016e+00 9.574224054813385010e-02
-4.102591037750244141e+00 -2.419686079025268555e+00 5.819100886583328247e-03
-4.125721454620361328e+00 -2.401257514953613281e+00 1.792128682136535645e-01
-1.233457565307617188e+01 -6.026721000671386719e+00 2.779763638973236084e-01
-7.918525695800781250e+00 -4.229930400848388672e+00 9.558255225419998169e-02
-4.113903522491455078e+00 -2.392456769943237305e+00 5.814214237034320831e-03
-4.127376556396484375e+00 -2.368436574935913086e+00 1.786501109600067139e-01
-1.240195560455322266e+01 -5.965659141540527344e+00 2.786646783351898193e-01
-7.961143493652343750e+00 -4.190112590789794922e+00 9.578483551740646362e-02
-4.128505706787109375e+00 -2.367169380187988281e+00 5.814214237034320831e-03
-1.247989368438720703e+01 -5.909131526947021484e+00 2.795959115028381348e-01
-8.115420341491699219e+00 -4.207926273345947266e+00 9.732854366302490234e-02
-4.147305488586425781e+00 -2.344253301620483398e+00 5.820323247462511063e-03
-1.255488395690917969e+01 -5.850604057312011719e+00 2.804664373397827148e-01
-7.936269283294677734e+00 -4.053441047668457031e+00 9.487989544868469238e-02
-5.231715202331542969e+00 -2.915000677108764648e+00 7.316942326724529266e-03
-1.261235713958740234e+01 -5.783460140228271484e+00 2.809523046016693115e-01
-7.971710681915283203e+00 -4.010061264038085938e+00 9.500765800476074219e-02
-5.402894496917724609e+00 -2.967082023620605469e+00 7.530745584517717361e-03
-1.268770599365234375e+01 -5.724054336547851562e+00 2.818430662155151367e-01
-8.029318809509277344e+00 -3.977494955062866211e+00 9.540156275033950806e-02
-5.328655242919921875e+00 -2.883898019790649414e+00 7.402463816106319427e-03
-1.273995208740234375e+01 -5.653801441192626953e+00 2.822276949882507324e-01
-8.051775932312011719e+00 -3.927276611328125000e+00 9.538027644157409668e-02
-5.333014011383056641e+00 -2.844089031219482422e+00 7.384137250483036041e-03
-1.282021999359130859e+01 -5.595521450042724609e+00 2.832399308681488037e-01
-8.073919296264648438e+00 -3.876932144165039062e+00 9.535898268222808838e-02
-5.312299728393554688e+00 -2.791311740875244141e+00 7.331603206694126129e-03
-1.286625480651855469e+01 -5.521878242492675781e+00 2.835030853748321533e-01
-8.153605461120605469e+00 -3.853810787200927734e+00 9.601904451847076416e-02
-5.352416992187500000e+00 -2.770615816116333008e+00 7.363368291407823563e-03
-1.295424270629882812e+01 -5.465759754180908203e+00 2.846975326538085938e-01
-8.004835128784179688e+00 -3.723577499389648438e+00 9.399624913930892944e-02
-5.329226970672607422e+00 -2.717280864715576172e+00 7.308390457183122635e-03
-1.303463554382324219e+01 -5.405704021453857422e+00 2.857299745082855225e-01
-8.003891944885253906e+00 -3.663570165634155273e+00 9.371944516897201538e-02
-5.355629920959472656e+00 -2.689466714859008789e+00 7.321829441934823990e-03
-1.308329868316650391e+01 -5.332037925720214844e+00 2.860741317272186279e-01
-8.210395812988281250e+00 -3.697328567504882812e+00 9.586999565362930298e-02
-5.436570644378662109e+00 -2.688470125198364258e+00 7.409793790429830551e-03
-1.315475177764892578e+01 -5.267268657684326172e+00 2.869243919849395752e-01
-8.165272712707519531e+00 -3.616912364959716797e+00 9.508217871189117432e-02
-5.492524147033691406e+00 -2.674323320388793945e+00 7.463549729436635971e-03
-1.327335262298583984e+01 -5.220486164093017578e+00 2.888071537017822266e-01
-8.201062202453613281e+00 -3.572733402252197266e+00 9.524186700582504272e-02
-5.400619506835937500e+00 -2.588702440261840820e+00 7.316942326724529266e-03
-1.335270023345947266e+01 -5.157315254211425781e+00 2.898395955562591553e-01
-8.215476989746093750e+00 -3.519195556640625000e+00 9.515669941902160645e-02
-5.388365745544433594e+00 -2.542288303375244141e+00 7.279068697243928909e-03
-1.343737888336181641e+01 -5.095493793487548828e+00 2.909935414791107178e-01
-8.241523742675781250e+00 -3.470660686492919922e+00 9.520993381738662720e-02
-5.437422275543212891e+00 -2.524760484695434570e+00 7.324272766709327698e-03
-1.350024986267089844e+01 -5.024805068969726562e+00 2.916818559169769287e-01
-8.258044242858886719e+00 -3.418114185333251953e+00 9.515669941902160645e-02
-5.292728900909423828e+00 -2.418208837509155273e+00 7.109248079359531403e-03
-1.352894878387451172e+01 -4.941188812255859375e+00 2.916413843631744385e-01
-8.266819953918457031e+00 -3.362481355667114258e+00 9.501829743385314941e-02
-5.260950088500976562e+00 -2.364778757095336914e+00 7.046939805150032043e-03
-1.362866210937500000e+01 -4.883038043975830078e+00 2.931394577026367188e-01
-8.302152633666992188e+00 -3.317630767822265625e+00 9.518863260746002197e-02
-5.257069587707519531e+00 -2.324366092681884766e+00 7.022505160421133041e-03
-1.369798374176025391e+01 -4.813242912292480469e+00 2.939897179603576660e-01
-8.228342056274414062e+00 -3.229726552963256836e+00 9.411335736513137817e-02
-5.340929031372070312e+00 -2.322371244430541992e+00 7.115357089787721634e-03
-1.378208541870117188e+01 -4.747991085052490234e+00 2.951638996601104736e-01
-7.863595485687255859e+00 -3.031008005142211914e+00 8.972708135843276978e-02
-5.473691463470458984e+00 -2.340269088745117188e+00 7.272959686815738678e-03
-1.389147567749023438e+01 -4.690523147583007812e+00 2.968846857547760010e-01
-7.866146087646484375e+00 -2.976684331893920898e+00 8.954609185457229614e-02
-5.555245399475097656e+00 -2.334924936294555664e+00 7.362146861851215363e-03
-1.393423271179199219e+01 -4.609908580780029297e+00 2.971883416175842285e-01
-8.401694297790527344e+00 -3.120546102523803711e+00 9.542285650968551636e-02
-5.573164463043212891e+00 -2.302321910858154297e+00 7.367033045738935471e-03
-1.398318004608154297e+01 -4.531103610992431641e+00 2.976337075233459473e-01
-8.410348892211914062e+00 -3.065169334411621094e+00 9.530574828386306763e-02
-5.580700397491455078e+00 -2.265449285507202148e+00 7.358481176197528839e-03
-1.414318370819091797e+01 -4.487246513366699219e+00 3.004477024078369141e-01
-8.276461601257324219e+00 -2.958972454071044922e+00 9.358104318380355835e-02
-5.586136341094970703e+00 -2.227830171585083008e+00 7.347485981881618500e-03
-1.419909477233886719e+01 -4.409276008605957031e+00 3.010550141334533691e-01
-8.348248481750488281e+00 -2.926991462707519531e+00 9.418788552284240723e-02
-5.568043231964111328e+00 -2.181111335754394531e+00 7.305947132408618927e-03
-1.426797485351562500e+01 -4.334856986999511719e+00 3.019457757472991943e-01
-8.281889915466308594e+00 -2.846783161163330078e+00 9.324036538600921631e-02
-5.643854618072509766e+00 -2.170959472656250000e+00 7.387802936136722565e-03
-1.434126472473144531e+01 -4.261182308197021484e+00 3.029377460479736328e-01
-8.267930030822753906e+00 -2.785377979278564453e+00 9.288903325796127319e-02
-5.634616374969482422e+00 -2.127809762954711914e+00 7.358481176197528839e-03
-1.446987342834472656e+01 -4.202945232391357422e+00 3.051039278507232666e-01
-8.420651435852050781e+00 -2.779413461685180664e+00 9.441145509481430054e-02
-5.363453388214111328e+00 -1.987893581390380859e+00 6.988296750932931900e-03
-1.450885486602783203e+01 -4.117902755737304688e+00 3.053873479366302490e-01
-8.587878227233886719e+00 -2.776292085647583008e+00 9.609357267618179321e-02
-5.803150653839111328e+00 -2.110453605651855469e+00 7.544184103608131409e-03
-1.459647369384765625e+01 -4.046160221099853516e+00 3.067032098770141602e-01
-8.515138626098632812e+00 -2.695181608200073242e+00 9.509281814098358154e-02
-5.757595539093017578e+00 -2.053974390029907227e+00 7.468436844646930695e-03
-1.465094280242919922e+01 -3.964617490768432617e+00 3.073307871818542480e-01
-8.554439544677734375e+00 -2.649984359741210938e+00 9.534832835197448730e-02
-5.755931854248046875e+00 -2.013654708862304688e+00 7.450111210346221924e-03
-1.470786094665527344e+01 -3.883324146270751953e+00 3.080191314220428467e-01
-8.580108642578125000e+00 -2.600345611572265625e+00 9.545479714870452881e-02
-5.634804725646972656e+00 -1.932556033134460449e+00 7.277846802026033401e-03
-1.487277126312255859e+01 -3.829402208328247070e+00 3.109748065471649170e-01
-8.583437919616699219e+00 -2.543956041336059570e+00 9.531638771295547485e-02
-5.711961269378662109e+00 -1.919929146766662598e+00 7.362146861851215363e-03
-1.490665435791015625e+01 -3.740749359130859375e+00 3.111974895000457764e-01
-8.577756881713867188e+00 -2.485119819641113281e+00 9.508217871189117432e-02
-5.727433204650878906e+00 -1.886096119880676270e+00 7.367033045738935471e-03
-1.499633979797363281e+01 -3.665593624114990234e+00 3.125943541526794434e-01
-8.432167053222656250e+00 -2.386956930160522461e+00 9.330424666404724121e-02
-5.695118904113769531e+00 -1.836798071861267090e+00 7.310833781957626343e-03
-8.672180175781250000e+00 -2.397522449493408203e+00 9.579547494649887085e-02
-5.751100540161132812e+00 -1.815970778465270996e+00 7.368254940956830978e-03
-8.205796241760253906e+00 -1.589472293853759766e+00 2.480691522359848022e-01
-7.925987720489501953e+00 -2.138966560363769531e+00 8.740618079900741577e-02
-5.770733833312988281e+00 -1.783305883407592773e+00 7.379250600934028625e-03
-8.200656890869140625e+00 -1.536331653594970703e+00 2.476241439580917358e-01
-8.534626960754394531e+00 -2.247129201889038086e+00 9.396430850028991699e-02
-5.816984176635742188e+00 -1.758570790290832520e+00 7.424454204738140106e-03
-8.556003570556640625e+00 -2.196708679199218750e+00 9.404948353767395020e-02
-5.831501007080078125e+00 -1.723979353904724121e+00 7.429341785609722137e-03
-8.769147872924804688e+00 -2.194168567657470703e+00 9.624261409044265747e-02
-5.850615501403808594e+00 -1.690663933753967285e+00 7.440336979925632477e-03
-8.586201667785644531e+00 -2.092494964599609375e+00 9.409206360578536987e-02
-5.851255416870117188e+00 -1.652016401290893555e+00 7.428119890391826630e-03
-8.173449516296386719e+00 -1.629461646080017090e+00 1.687576323747634888e-01
-8.558015823364257812e+00 -2.030078411102294922e+00 9.364492446184158325e-02
-5.882490634918212891e+00 -1.621930241584777832e+00 7.454997859895229340e-03
-8.190165519714355469e+00 -1.580605745315551758e+00 1.688993424177169800e-01
-8.720359802246093750e+00 -2.012151718139648438e+00 9.528446197509765625e-02
-5.906816005706787109e+00 -1.589703679084777832e+00 7.473323494195938110e-03
-8.217400550842285156e+00 -1.533623695373535156e+00 1.692637354135513306e-01
-8.744251251220703125e+00 -1.961232781410217285e+00 9.541221708059310913e-02
-5.935803413391113281e+00 -1.558509230613708496e+00 7.497758138924837112e-03
-8.756119728088378906e+00 -1.907542109489440918e+00 9.541221708059310913e-02
-5.891004562377929688e+00 -1.508169770240783691e+00 7.429341785609722137e-03
-8.750049591064453125e+00 -1.850056290626525879e+00 9.522057324647903442e-02
-5.910820484161376953e+00 -1.474657654762268066e+00 7.442780770361423492e-03
-8.986536979675292969e+00 -1.842525959014892578e+00 9.766922891139984131e-02
-5.904209613800048828e+00 -1.434584021568298340e+00 7.423232775181531906e-03
-8.150279045104980469e+00 -1.619019508361816406e+00 8.847081661224365234e-02
-5.902195930480957031e+00 -1.395797848701477051e+00 7.409793790429830551e-03
-8.163988113403320312e+00 -1.569735050201416016e+00 8.851339668035507202e-02
-5.907725811004638672e+00 -1.358883976936340332e+00 7.406128570437431335e-03
-8.188212394714355469e+00 -1.522354006767272949e+00 8.867309987545013428e-02
-5.915952682495117188e+00 -1.322609305381774902e+00 7.406128570437431335e-03
-8.428686141967773438e+00 -1.513617634773254395e+00 9.117497503757476807e-02
-5.933729171752929688e+00 -1.288406729698181152e+00 7.418346125632524490e-03
-9.057547569274902344e+00 -1.569241881370544434e+00 9.787151217460632324e-02
-5.994362831115722656e+00 -1.263107895851135254e+00 7.484319619834423065e-03
-9.047279357910156250e+00 -1.510343194007873535e+00 9.765858203172683716e-02
-5.968688488006591797e+00 -1.219497323036193848e+00 7.442780770361423492e-03
-9.233099937438964844e+00 -1.483190417289733887e+00 9.956426918506622314e-02
-5.984887123107910156e+00 -1.184598565101623535e+00 7.453775964677333832e-03
-8.197507858276367188e+00 -1.573305726051330566e+00 3.133692741394042969e-01
-9.132332801818847656e+00 -1.409577846527099609e+00 9.838252514600753784e-02
-6.032310962677001953e+00 -1.155567526817321777e+00 7.503867149353027344e-03
-8.204058647155761719e+00 -1.522430181503295898e+00 3.132567107677459717e-01
-9.220932006835937500e+00 -1.365380287170410156e+00 9.924488514661788940e-02
-6.041254043579101562e+00 -1.118896365165710449e+00 7.506310474127531052e-03
-9.199435234069824219e+00 -1.304564237594604492e+00 9.892549365758895874e-02
-6.047021389007568359e+00 -1.081630825996398926e+00 7.505088578909635544e-03
-9.008099555969238281e+00 -1.221094846725463867e+00 9.678558260202407837e-02
-6.069311618804931641e+00 -1.047227263450622559e+00 7.524636574089527130e-03
-9.106657028198242188e+00 -1.177596926689147949e+00 9.776504337787628174e-02
-5.986841201782226562e+00 -9.952084422111511230e-01 7.414680905640125275e-03
-9.439236640930175781e+00 -1.161762356758117676e+00 1.012570336461067200e-01
-6.036283016204833984e+00 -9.654039740562438965e-01 7.468436844646930695e-03
-9.349848747253417969e+00 -1.092564821243286133e+00 1.002243459224700928e-01
-6.088547706604003906e+00 -9.354854822158813477e-01 7.525858469307422638e-03
-9.368302345275878906e+00 -1.036494255065917969e+00 1.003521010279655457e-01
-6.088237285614013672e+00 -8.972344398498535156e-01 7.518528029322624207e-03
-9.363546371459960938e+00 -9.778494238853454590e-01 1.002349928021430969e-01
-6.106500625610351562e+00 -8.616772294044494629e-01 7.534410338848829269e-03
-9.363398551940917969e+00 -9.197908043861389160e-01 1.001711115241050720e-01
-6.084915161132812500e+00 -8.205838203430175781e-01 7.501423824578523636e-03
-9.478396415710449219e+00 -8.724020719528198242e-01 1.013422012329101562e-01
-6.211830615997314453e+00 -7.989221811294555664e-01 7.651696447283029556e-03
-9.125907897949218750e+00 -7.835195660591125488e-01 9.752018004655838013e-02
-6.088571071624755859e+00 -7.451218962669372559e-01 7.494093384593725204e-03
-9.497360229492187500e+00 -7.567367553710937500e-01 1.014380231499671936e-01
-6.230106830596923828e+00 -7.236717343330383301e-01 7.662692107260227203e-03
-9.442987442016601562e+00 -6.941227912902832031e-01 1.008098945021629333e-01
-6.251327991485595703e+00 -6.872887611389160156e-01 7.683461531996726990e-03
-9.551824569702148438e+00 -6.432229876518249512e-01 1.019277498126029968e-01
-6.238518238067626953e+00 -6.471642255783081055e-01 7.662692107260227203e-03
-9.401887893676757812e+00 -5.751984715461730957e-01 1.002882122993469238e-01
-6.236399650573730469e+00 -6.082907915115356445e-01 7.655361667275428772e-03
-9.570980072021484375e+00 -5.266181826591491699e-01 1.020555049180984497e-01
-6.235035419464111328e+00 -5.695586204528808594e-01 7.649252656847238541e-03
-9.594006538391113281e+00 -4.688580632209777832e-01 1.022684350609779358e-01
-6.278268337249755859e+00 -5.346847176551818848e-01 7.698121946305036545e-03
-9.669631958007812500e+00 -4.130971133708953857e-01 1.030456200242042542e-01
-6.195698261260986328e+00 -4.893801510334014893e-01 7.593053393065929413e-03
-9.689971923828125000e+00 -3.544154763221740723e-01 1.032372489571571350e-01
-6.090869903564453125e+00 -4.435115158557891846e-01 7.461106404662132263e-03
-9.333149909973144531e+00 -2.840325832366943359e-01 9.941522032022476196e-02
-6.381836414337158203e+00 -4.253495037555694580e-01 7.814186625182628632e-03
-9.726579666137695312e+00 -2.362792789936065674e-01 1.035885736346244812e-01
-6.394307613372802734e+00 -3.867870569229125977e-01 7.826403714716434479e-03
-9.828824043273925781e+00 -1.784267425537109375e-01 1.046638488769531250e-01
-6.409541606903076172e+00 -3.482503294944763184e-01 7.842286489903926849e-03
-9.800737380981445312e+00 -1.177664324641227722e-01 1.043551042675971985e-01
-6.421546459197998047e+00 -3.093968331813812256e-01 7.854503579437732697e-03
-9.266314506530761719e+00 -5.448264628648757935e-02 9.865932911634445190e-02
-6.437311649322509766e+00 -2.705770730972290039e-01 7.871608249843120575e-03
-9.832442283630371094e+00 2.520499750971794128e-03 1.046851426362991333e-01
-6.434853076934814453e+00 -2.309299111366271973e-01 7.866720668971538544e-03
-9.500267982482910156e+00 6.072909012436866760e-02 1.011505722999572754e-01
-6.444145679473876953e+00 -1.916799098253250122e-01 7.876494899392127991e-03
-9.734683990478515625e+00 1.219643726944923401e-01 1.036524474620819092e-01
-6.406211376190185547e+00 -1.512154489755630493e-01 7.828847505152225494e-03
-9.904713630676269531e+00 1.848841756582260132e-01 1.054729744791984558e-01
-6.430014610290527344e+00 -1.123064830899238586e-01 7.856947369873523712e-03
-1.001135349273681641e+01 2.483328580856323242e-01 1.066227704286575317e-01
-6.442582130432128906e+00 -7.298648357391357422e-02 7.871608249843120575e-03
-9.686814308166503906e+00 2.997665405273437500e-01 1.031840145587921143e-01
-6.466908454895019531e+00 -3.357878327369689941e-02 7.900930009782314301e-03
-1.003153419494628906e+01 3.720583319664001465e-01 1.068782880902290344e-01
-6.460992813110351562e+00 6.096391938626766205e-03 7.893599569797515869e-03
-1.003305816650390625e+01 4.337764382362365723e-01 1.069208681583404541e-01
-6.470833301544189453e+00 4.581097513437271118e-02 7.905815728008747101e-03
-1.013906955718994141e+01 5.007059574127197266e-01 1.080813184380531311e-01
-6.469430446624755859e+00 8.550118654966354370e-02 7.904594764113426208e-03
-1.018772315979003906e+01 5.657919645309448242e-01 1.086349263787269592e-01
-6.522773742675781250e+00 1.262401640415191650e-01 7.970567792654037476e-03
-1.122368335723876953e+01 1.511580109596252441e+00 3.361185789108276367e-01
-1.024993038177490234e+01 6.323558688163757324e-01 1.093375831842422485e-01
-6.572859764099121094e+00 1.675604879856109619e-01 8.032876066863536835e-03
-1.121419715881347656e+01 1.580418944358825684e+00 3.361185789108276367e-01
-1.038353347778320312e+01 7.045783996582031250e-01 1.108067780733108521e-01
-6.581703186035156250e+00 2.082038223743438721e-01 8.045094087719917297e-03
-1.007087612152099609e+01 7.454681396484375000e-01 1.075170710682868958e-01
-6.643256664276123047e+00 2.509627342224121094e-01 8.122062310576438904e-03
-1.000331687927246094e+01 8.022119998931884766e-01 1.068463400006294250e-01
-6.547682285308837891e+00 2.875954508781433105e-01 8.007219992578029633e-03
-1.011078071594238281e+01 8.732994794845581055e-01 1.080493777990341187e-01
-6.578752994537353516e+00 3.294161856174468994e-01 8.047536946833133698e-03
-1.025657653808593750e+01 9.493297934532165527e-01 1.096676215529441833e-01
-6.440822601318359375e+00 3.621417880058288574e-01 7.881381548941135406e-03
-1.126392173767089844e+01 1.524881362915039062e+00 2.301589995622634888e-01
-1.039285755157470703e+01 1.026297211647033691e+00 1.111900359392166138e-01
-6.587190151214599609e+00 4.109322428703308105e-01 8.063419722020626068e-03
-1.119297790527343750e+01 1.585274100303649902e+00 2.289038449525833130e-01
-1.038437557220458984e+01 1.089838504791259766e+00 1.111687421798706055e-01
-6.724216938018798828e+00 4.609166681766510010e-01 8.234461769461631775e-03
-1.026022243499755859e+01 1.140499830245971680e+00 1.099124774336814880e-01
-6.811011791229248047e+00 5.088725090026855469e-01 8.344417437911033630e-03
-1.024111366271972656e+01 1.202035069465637207e+00 1.097847223281860352e-01
-6.746960163116455078e+00 5.457365512847900391e-01 8.269892074167728424e-03
-1.009361839294433594e+01 1.247555971145629883e+00 1.082835942506790161e-01
-6.609989166259765625e+00 5.755019783973693848e-01 8.106179535388946533e-03
-1.005404186248779297e+01 1.305346012115478516e+00 1.079429164528846741e-01
-6.197109699249267578e+00 5.778886079788208008e-01 7.604049053043127060e-03
-9.917037963867187500e+00 1.349484324455261230e+00 1.065588966012001038e-01
-6.808413505554199219e+00 6.770573258399963379e-01 8.359078317880630493e-03
-1.055897808074951172e+01 1.502882599830627441e+00 1.135535165667533875e-01
-6.918494224548339844e+00 7.309020757675170898e-01 8.499576710164546967e-03
-1.064154243469238281e+01 1.581311821937561035e+00 1.145436316728591919e-01
-6.788660526275634766e+00 7.593332529067993164e-01 8.345639333128929138e-03
-1.066128444671630859e+01 1.651168465614318848e+00 1.148630157113075256e-01
-6.806714534759521484e+00 8.036702871322631836e-01 8.373738266527652740e-03
-1.073387718200683594e+01 1.729918360710144043e+00 1.157573014497756958e-01
-6.836388111114501953e+00 8.497375249862670898e-01 8.416499942541122437e-03
-1.070826816558837891e+01 1.793270349502563477e+00 1.155976131558418274e-01
-6.905414581298828125e+00 9.013763666152954102e-01 8.508129045367240906e-03
-1.071183967590332031e+01 1.861509323120117188e+00 1.157573014497756958e-01
-6.935421943664550781e+00 9.486088156700134277e-01 8.552111685276031494e-03
-1.114025497436523438e+01 1.589460611343383789e+00 4.224651455879211426e-01
-1.086259460449218750e+01 1.956446528434753418e+00 1.175139397382736206e-01
-6.919571399688720703e+00 9.897299408912658691e-01 8.539894595742225647e-03
-1.067934322357177734e+01 1.991170406341552734e+00 1.156614869832992554e-01
-6.828310966491699219e+00 1.019469857215881348e+00 8.434825576841831207e-03
-1.065808773040771484e+01 2.054956436157226562e+00 1.155656725168228149e-01
-6.969155788421630859e+00 1.084254145622253418e+00 8.616863749921321869e-03
-1.071588706970214844e+01 2.134378194808959961e+00 1.163322031497955322e-01
-6.956449031829833984e+00 1.126037001609802246e+00 8.609533309936523438e-03
-1.085244750976562500e+01 2.230895280838012695e+00 1.179610937833786011e-01
-7.006605625152587891e+00 1.178318619728088379e+00 8.680393919348716736e-03
-1.112614727020263672e+01 2.358403682708740234e+00 1.210911050438880920e-01
-7.008109569549560547e+00 1.222835183143615723e+00 8.691389113664627075e-03
-1.147292709350585938e+01 2.505567073822021484e+00 1.250302344560623169e-01
-7.066405296325683594e+00 1.277734637260437012e+00 8.773244917392730713e-03
-1.105734443664550781e+01 2.485987424850463867e+00 1.206652522087097168e-01
-7.001421928405761719e+00 1.310399055480957031e+00 8.702384307980537415e-03
-1.140526962280273438e+01 2.637831926345825195e+00 1.246363297104835510e-01
-7.011903762817382812e+00 1.356944203376770020e+00 8.725597523152828217e-03
-1.144432067871093750e+01 2.720947504043579102e+00 1.252431720495223999e-01
-7.022077083587646484e+00 1.403667211532592773e+00 8.748809807002544403e-03
-1.135649871826171875e+01 2.773797512054443359e+00 1.244659870862960815e-01
-7.093641281127929688e+00 1.463293910026550293e+00 8.848992176353931427e-03
-1.143140602111816406e+01 2.866532564163208008e+00 1.254773736000061035e-01
-7.079638481140136719e+00 1.505751848220825195e+00 8.842883631587028503e-03
-1.080931854248046875e+01 2.781143665313720703e+00 1.188340857625007629e-01
-7.051706314086914062e+00 1.545096755027770996e+00 8.819670416414737701e-03
-1.159744262695312500e+01 3.059913635253906250e+00 1.277024596929550171e-01
-7.057701110839843750e+00 1.591856479644775391e+00 8.839217945933341980e-03
-1.160451030731201172e+01 3.138064146041870117e+00 1.279899030923843384e-01
-6.974741458892822266e+00 1.618181586265563965e+00 8.747588843107223511e-03
-1.160623836517333984e+01 3.215081930160522461e+00 1.282241344451904297e-01
-7.135879993438720703e+00 1.701775074005126953e+00 8.962613530457019806e-03
-1.162284755706787109e+01 3.296604394912719727e+00 1.286286860704421997e-01
-7.173867702484130859e+00 1.757424950599670410e+00 9.023698978126049042e-03
-1.185592174530029297e+01 3.441448688507080078e+00 1.314393132925033569e-01
-7.181375503540039062e+00 1.806043863296508789e+00 9.046912193298339844e-03
-1.176460647583007812e+01 3.493351936340332031e+00 1.306621432304382324e-01
-7.156602382659912109e+00 1.846576213836669922e+00 9.029808454215526581e-03
-1.173816585540771484e+01 3.564019918441772461e+00 1.306089013814926147e-01
-7.116135597229003906e+00 1.882780313491821289e+00 8.993156254291534424e-03
-1.160052013397216797e+01 3.600114822387695312e+00 1.293206959962844849e-01
-6.977049827575683594e+00 1.891863584518432617e+00 8.831888437271118164e-03
-1.205765914916992188e+01 3.823250055313110352e+00 1.346758008003234863e-01
-7.159941673278808594e+00 1.988697886466979980e+00 9.078676812350749969e-03
-1.238880825042724609e+01 4.012074947357177734e+00 1.386468708515167236e-01
-7.178383827209472656e+00 2.041345834732055664e+00 9.117772802710533142e-03
-1.237155342102050781e+01 4.090527057647705078e+00 1.387320458889007568e-01
-7.174364566802978516e+00 2.087867975234985352e+00 9.128767997026443481e-03
-1.128033924102783203e+01 3.806667327880859375e+00 1.267549395561218262e-01
-7.172920227050781250e+00 2.135273456573486328e+00 9.143428876996040344e-03
-1.280834293365478516e+01 5.473545074462890625e+00 4.133991301059722900e-01
-1.214267539978027344e+01 4.180836200714111328e+00 1.367305219173431396e-01
-7.176903247833251953e+00 2.184487104415893555e+00 9.165420196950435638e-03
-1.239794349670410156e+01 4.354000091552734375e+00 1.399031281471252441e-01
-7.364840030670166016e+00 2.291160345077514648e+00 9.423205628991127014e-03
-1.292736434936523438e+01 4.629223346710205078e+00 1.461950987577438354e-01
-7.325864315032958984e+00 2.328431606292724609e+00 9.391440078616142273e-03
-1.312509250640869141e+01 4.791091918945312500e+00 1.487608551979064941e-01
-7.242006301879882812e+00 2.350799798965454102e+00 9.302253834903240204e-03
-1.307764148712158203e+01 4.864911556243896484e+00 1.485585719347000122e-01
-7.414444446563720703e+00 2.457163572311401367e+00 9.542934596538543701e-03
-1.418455314636230469e+01 5.375992774963378906e+00 1.615044921636581421e-01
-7.370809078216552734e+00 2.492999553680419922e+00 9.506282396614551544e-03
-1.281218624114990234e+01 5.485603809356689453e+00 2.822074592113494873e-01
-1.354681396484375000e+01 5.229572296142578125e+00 1.546056717634201050e-01
-7.379951477050781250e+00 2.546660184860229492e+00 9.538047946989536285e-03
-1.275628662109375000e+01 5.554534912109375000e+00 2.817215919494628906e-01
-1.310871982574462891e+01 5.153093338012695312e+00 1.499638855457305908e-01
-7.372676372528076172e+00 2.594882965087890625e+00 9.549043141305446625e-03
-1.319104290008544922e+01 5.279129028320312500e+00 1.512733846902847290e-01
-7.360380172729492188e+00 2.641422986984252930e+00 9.553929790854454041e-03
-6.318173408508300781e+00 3.123064517974853516e+00 2.091766893863677979e-01
-1.487068939208984375e+01 6.057454109191894531e+00 1.709584146738052368e-01
-7.354364871978759766e+00 2.690314769744873047e+00 9.567369706928730011e-03
-6.228318214416503906e+00 3.126348495483398438e+00 2.068330645561218262e-01
-1.399080085754394531e+01 5.799381732940673828e+00 1.612489819526672363e-01
-7.552294254302978516e+00 2.815379858016967773e+00 9.847145527601242065e-03
-1.259410095214843750e+01 5.311216354370117188e+00 1.455243825912475586e-01
-7.465698242187500000e+00 2.835393667221069336e+00 9.756737388670444489e-03
-1.277631187438964844e+01 5.480636596679687500e+00 1.480156183242797852e-01
-7.560077667236328125e+00 2.924441814422607422e+00 9.903344325721263885e-03
-1.274794197082519531e+01 5.561326026916503906e+00 1.480794996023178101e-01
-7.515009880065917969e+00 2.960146427154541016e+00 9.867914952337741852e-03
-7.498561382293701172e+00 3.006946325302124023e+00 9.870358742773532867e-03
-6.216267108917236328e+00 3.078009843826293945e+00 1.404559016227722168e-01
-7.400346755981445312e+00 3.020402193069458008e+00 9.765289723873138428e-03
-6.203516006469726562e+00 3.119238138198852539e+00 1.405976116657257080e-01
-7.382597923278808594e+00 3.066136598587036133e+00 9.766511619091033936e-03
-6.202960014343261719e+00 3.166790485382080078e+00 1.410227566957473755e-01
-7.870276451110839844e+00 3.325445413589477539e+00 1.043846365064382553e-02
-7.879123210906982422e+00 3.386309385299682617e+00 1.047755777835845947e-02
-7.937914848327636719e+00 3.469433307647705078e+00 1.058384869247674942e-02
-6.263520717620849609e+00 3.059026241302490234e+00 7.421541213989257812e-02
-7.912822246551513672e+00 3.516449928283691406e+00 1.057896204292774200e-02
-6.238362312316894531e+00 3.094290733337402344e+00 7.414088398218154907e-02
-7.913879394531250000e+00 3.575228214263916016e+00 1.060950476676225662e-02
-6.206756114959716797e+00 3.126212835311889648e+00 7.399184256792068481e-02
-7.909968852996826172e+00 3.632065534591674805e+00 1.063393987715244293e-02
-6.180335044860839844e+00 3.160595893859863281e+00 7.390666753053665161e-02
-7.881190776824951172e+00 3.677572011947631836e+00 1.062538754194974899e-02
-8.097928047180175781e+00 3.839388847351074219e+00 1.094914693385362625e-02
-8.164310455322265625e+00 3.932398796081542969e+00 1.107131876051425934e-02
-6.268054962158203125e+00 3.066577672958374023e+00 8.525233715772628784e-03
-6.226117610931396484e+00 3.090841054916381836e+00 2.609597444534301758e-01
-6.242852210998535156e+00 3.101865291595458984e+00 8.516681380569934845e-03
-6.237374782562255859e+00 3.144279479980468750e+00 2.622352540493011475e-01
-6.214774131774902344e+00 3.135607719421386719e+00 8.504464291036128998e-03
-6.171387195587158203e+00 3.161371946334838867e+00 8.471477776765823364e-03
-8.611202239990234375e+00 4.478112697601318359e+00 1.185811311006546021e-02
-8.592407226562500000e+00 4.535533905029296875e+00 1.187033113092184067e-02
-8.592622756958007812e+00 4.603281974792480469e+00 1.190942618995904922e-02
-8.555430412292480469e+00 4.651142597198486328e+00 1.189720910042524338e-02
-8.662450790405273438e+00 4.778416633605957031e+00 1.208657771348953247e-02
-8.847636222839355469e+00 4.951618194580078125e+00 1.238712295889854431e-02
-8.177271842956542969e+00 5.896617412567138672e+00 2.992137372493743896e-01
-8.900569915771484375e+00 5.053210258483886719e+00 1.250440906733274460e-02
-9.049644470214843750e+00 5.211529254913330078e+00 1.275852881371974945e-02
-9.013178825378417969e+00 5.264437198638916016e+00 1.275242026895284653e-02
-9.015982627868652344e+00 5.340536594390869141e+00 1.280251052230596542e-02
-9.361087799072265625e+00 5.622833251953125000e+00 1.334129367023706436e-02
-9.341784477233886719e+00 5.689528942108154297e+00 1.336328592151403427e-02
-8.144340515136718750e+00 5.881381988525390625e+00 2.034161090850830078e-01
-9.466659545898437500e+00 5.845515727996826172e+00 1.359297055751085281e-02
-9.512833595275878906e+00 5.954960346221923828e+00 1.371147856116294861e-02
-8.963596343994140625e+00 5.687990665435791016e+00 1.296988781541585922e-02
-9.425583839416503906e+00 6.062593936920166016e+00 1.369193103164434433e-02
-9.571665763854980469e+00 6.239913463592529297e+00 1.395948976278305054e-02
-2.954797983169555664e+00 2.449855566024780273e+00 1.139183789491653442e-01
-8.175035476684570312e+00 5.836041450500488281e+00 1.069421544671058655e-01
-9.588264465332031250e+00 6.334908485412597656e+00 1.404012367129325867e-02
-2.909088373184204102e+00 2.442232131958007812e+00 1.127317324280738831e-01
-8.165811538696289062e+00 5.905429840087890625e+00 1.072934865951538086e-01
-9.609041213989257812e+00 6.433679103851318359e+00 1.412808801978826523e-02
-8.080217361450195312e+00 5.919376373291015625e+00 1.066440641880035400e-01
-9.878046989440917969e+00 6.701935768127441406e+00 1.458379346877336502e-02
-9.531838417053222656e+00 6.552812099456787109e+00 1.413175370544195175e-02
-9.906657218933105469e+00 6.900382041931152344e+00 1.474994979798793793e-02
-2.952565431594848633e+00 2.420979499816894531e+00 7.731350511312484741e-02
-9.134512901306152344e+00 6.446152687072753906e+00 1.365894358605146408e-02
-2.932270526885986328e+00 2.434580087661743164e+00 7.717179507017135620e-02
-8.182055473327636719e+00 5.849545478820800781e+00 1.228816248476505280e-02
-2.915746450424194336e+00 2.451239585876464844e+00 7.713130861520767212e-02
-8.155728340148925781e+00 5.906678676605224609e+00 1.230282336473464966e-02
-8.114494323730468750e+00 5.953060626983642578e+00 1.229549292474985123e-02
-3.015305519104003906e+00 2.504355192184448242e+00 1.841616183519363403e-01
-2.955636024475097656e+00 2.457412958145141602e+00 4.092440754175186157e-02
-2.966244459152221680e+00 2.494521141052246094e+00 1.820966005325317383e-01
-2.935912370681762695e+00 2.471638202667236328e+00 4.086052998900413513e-02
-2.926545381546020508e+00 2.491951704025268555e+00 1.805947721004486084e-01
-2.859811782836914062e+00 2.437712192535400391e+00 4.000882431864738464e-02
-2.914981842041015625e+00 2.367041349411010742e+00 4.587596748024225235e-03
-2.987685680389404297e+00 2.456651687622070312e+00 4.725652746856212616e-03
-2.962110280990600586e+00 2.464490413665771484e+00 1.446608304977416992e-01
-2.964102029800415039e+00 2.467899084091186523e+00 4.712213296443223953e-03
-2.953810930252075195e+00 2.488413810729980469e+00 1.449984759092330933e-01
-2.935141563415527344e+00 2.474438190460205078e+00 4.690222442150115967e-03
-2.942287921905517578e+00 2.509733676910400391e+00 1.451860517263412476e-01
-2.914579391479492188e+00 2.487856626510620117e+00 4.681670106947422028e-03
-2.896989583969116211e+00 2.503731727600097656e+00 4.678004886955022812e-03
-1.380354315042495728e-01 7.686599493026733398e-01 8.314765989780426025e-03
-9.805292636156082153e-02 7.233431339263916016e-01 7.771804463118314743e-03
-5.459658056497573853e-02 7.358260750770568848e-01 1.494039501994848251e-02
-4.856506362557411194e-02 7.102088332176208496e-01 4.017347469925880432e-02
-2.268975414335727692e-02 7.133250236511230469e-01 2.118169888854026794e-02
-3.610175102949142456e-02 6.439626216888427734e-01 3.639840707182884216e-02
-3.965514898300170898e-02 7.094231843948364258e-01 5.929028242826461792e-02
-9.681800380349159241e-03 7.417564988136291504e-01 4.186380282044410706e-02
-3.204776346683502197e-02 7.038827538490295410e-01 1.574994325637817383e-01
