-6.424234867095947266e+00 -3.611657619476318359e+00 2.088239431381225586e+00
-8.508602142333984375e+00 -5.208845138549804688e+00 2.721747159957885742e+00
-8.358901977539062500e+00 -5.552458286285400391e+00 2.638247251510620117e+00
-7.348483562469482422e+00 -3.775695800781250000e+00 2.098210811614990234e+00
-6.443528175354003906e+00 -3.619544744491577148e+00 1.797521591186523438e+00
-9.150450706481933594e+00 -5.595191001892089844e+00 2.499855041503906250e+00
-8.421795845031738281e+00 -5.583650112152099609e+00 2.258655071258544922e+00
-7.286019802093505859e+00 -3.745208978652954102e+00 1.759253859519958496e+00
-6.434057712554931641e+00 -3.611270904541015625e+00 1.509167194366455078e+00
-9.254876136779785156e+00 -5.650170326232910156e+00 2.111652374267578125e+00
-8.478276252746582031e+00 -5.610451698303222656e+00 1.880584597587585449e+00
-7.235764026641845703e+00 -3.717779636383056641e+00 1.437347412109375000e+00
-6.303720474243164062e+00 -3.535222768783569336e+00 1.204258441925048828e+00
-9.305577278137207031e+00 -5.678894519805908203e+00 1.711034655570983887e+00
-8.523864746093750000e+00 -5.632066726684570312e+00 1.506816387176513672e+00
-7.295847892761230469e+00 -3.747041702270507812e+00 1.142472863197326660e+00
-6.274909019470214844e+00 -3.516186475753784180e+00 9.316437244415283203e-01
-9.328406333923339844e+00 -5.681660175323486328e+00 1.312094211578369141e+00
-7.483437538146972656e+00 -4.938986778259277344e+00 9.914782643318176270e-01
-7.279676437377929688e+00 -3.735525369644165039e+00 8.383286595344543457e-01
-6.284895896911621094e+00 -3.518900156021118164e+00 6.694660186767578125e-01
-7.068171024322509766e+00 -4.301634788513183594e+00 6.904448866844177246e-01
-7.208057880401611328e+00 -4.751822948455810547e+00 6.385436654090881348e-01
-7.244654655456542969e+00 -3.714359998703002930e+00 5.364660620689392090e-01
-7.001992702484130859e+00 -3.917191505432128906e+00 4.527826309204101562e-01
-7.350150108337402344e+00 -4.469729900360107422e+00 4.041793644428253174e-01
-6.886301517486572266e+00 -4.534538745880126953e+00 3.095426559448242188e-01
-8.977167129516601562e+00 -5.452705383300781250e+00 1.118288189172744751e-01
-6.284573554992675781e+00 -4.135164260864257812e+00 9.191076271235942841e-03
-7.570738315582275391e+00 -3.829698562622070312e+00 2.500272035598754883e+00
-6.633940219879150391e+00 -3.676165342330932617e+00 2.149032831192016602e+00
-8.588303565979003906e+00 -5.185461044311523438e+00 2.737012624740600586e+00
-8.496349334716796875e+00 -5.568926811218261719e+00 2.670793056488037109e+00
-7.463181018829345703e+00 -3.776926040649414062e+00 2.124302864074707031e+00
-6.544672012329101562e+00 -3.623712301254272461e+00 1.819500207901000977e+00
-9.264671325683593750e+00 -5.587222099304199219e+00 2.521646022796630859e+00
-8.535933494567871094e+00 -5.584228992462158203e+00 2.280033349990844727e+00
-7.365561008453369141e+00 -3.729138135910034180e+00 1.772901058197021484e+00
-6.535821437835693359e+00 -3.615831613540649414e+00 1.527804017066955566e+00
-9.365891456604003906e+00 -5.639351844787597656e+00 2.129046916961669922e+00
-8.589112281799316406e+00 -5.608321666717529297e+00 1.897500395774841309e+00
-7.364754199981689453e+00 -3.727114915847778320e+00 1.458400368690490723e+00
-6.507447242736816406e+00 -3.597167730331420898e+00 1.238938331604003906e+00
-9.473134040832519531e+00 -5.701671600341796875e+00 1.735378265380859375e+00
-8.612957954406738281e+00 -5.615319252014160156e+00 1.516446471214294434e+00
-7.381451606750488281e+00 -3.733946800231933594e+00 1.152268290519714355e+00
-6.381440162658691406e+00 -3.524606466293334961e+00 9.442318081855773926e-01
-9.472035408020019531e+00 -5.689755916595458984e+00 1.327360868453979492e+00
-7.507771492004394531e+00 -4.889179706573486328e+00 9.907088875770568848e-01
-7.344188213348388672e+00 -3.711878061294555664e+00 8.431191444396972656e-01
-7.087596416473388672e+00 -4.254081249237060547e+00 6.897795796394348145e-01
-7.197787761688232422e+00 -4.681948184967041016e+00 6.350769400596618652e-01
-7.268200397491455078e+00 -3.670287847518920898e+00 5.365318059921264648e-01
-7.085348606109619141e+00 -3.906937122344970703e+00 4.566140472888946533e-01
-7.035635471343994141e+00 -4.219553947448730469e+00 3.854534327983856201e-01
-6.917346954345703125e+00 -4.494377136230468750e+00 3.096927106380462646e-01
-8.752253532409667969e+00 -5.242849826812744141e+00 1.086242720484733582e-01
-6.158855438232421875e+00 -3.998509168624877930e+00 8.971164934337139130e-03
-7.667932033538818359e+00 -3.819957256317138672e+00 2.524582147598266602e+00
-6.784720420837402344e+00 -3.705488681793212891e+00 2.190470695495605469e+00
-8.639853477478027344e+00 -5.144512176513671875e+00 2.743329524993896484e+00
-8.577461242675781250e+00 -5.547150611877441406e+00 2.685540437698364258e+00
-7.617202281951904297e+00 -3.796344518661499023e+00 2.161472082138061523e+00
-6.697283267974853516e+00 -3.654700279235839844e+00 1.855658650398254395e+00
-9.378299713134765625e+00 -5.577562808990478516e+00 2.543210268020629883e+00
-8.638911247253417969e+00 -5.576205253601074219e+00 2.298357248306274414e+00
-7.508175849914550781e+00 -3.743643045425415039e+00 1.801665663719177246e+00
-6.692070007324218750e+00 -3.648824453353881836e+00 1.559065341949462891e+00
-9.538731575012207031e+00 -5.663966178894042969e+00 2.160396099090576172e+00
-8.713464736938476562e+00 -5.613561630249023438e+00 1.917326688766479492e+00
-7.472095012664794922e+00 -3.724024534225463867e+00 1.475103735923767090e+00
-6.667121887207031250e+00 -3.632202863693237305e+00 1.265071392059326172e+00
-9.610733985900878906e+00 -5.704451560974121094e+00 1.754140019416809082e+00
-8.744597434997558594e+00 -5.624983787536621094e+00 1.533517956733703613e+00
-7.478692054748535156e+00 -3.725682973861694336e+00 1.163857340812683105e+00
-6.557119369506835938e+00 -3.569306612014770508e+00 9.669673442840576172e-01
-9.600733757019042969e+00 -5.687191486358642578e+00 1.340480566024780273e+00
-7.530102729797363281e+00 -4.838184833526611328e+00 9.897196292877197266e-01
-7.511989116668701172e+00 -3.738998413085937500e+00 8.597328066825866699e-01
-6.587391853332519531e+00 -3.582804918289184570e+00 6.969516873359680176e-01
-7.133290290832519531e+00 -4.222187995910644531e+00 6.916922330856323242e-01
-7.199522018432617188e+00 -4.620458602905273438e+00 6.327165365219116211e-01
-7.538963794708251953e+00 -3.749141693115234375e+00 5.548107028007507324e-01
-7.092519760131835938e+00 -3.854330778121948242e+00 4.555435180664062500e-01
-7.064832687377929688e+00 -4.178338527679443359e+00 3.856411576271057129e-01
-7.206432819366455078e+00 -4.619567871093750000e+00 3.213601112365722656e-01
-9.144995689392089844e+00 -5.402143955230712891e+00 1.130850836634635925e-01
-6.342423915863037109e+00 -4.062586307525634766e+00 9.202072396874427795e-03
-7.890160083770751953e+00 -3.870420217514038086e+00 2.589880466461181641e+00
-7.045394420623779297e+00 -3.791918277740478516e+00 2.267075538635253906e+00
-8.652122497558593750e+00 -5.080167293548583984e+00 2.737276077270507812e+00
-8.645579338073730469e+00 -5.516264438629150391e+00 2.696219444274902344e+00
-7.691688537597656250e+00 -3.774728298187255859e+00 2.175995111465454102e+00
-7.043066978454589844e+00 -3.787495851516723633e+00 1.944991230964660645e+00
-9.587084770202636719e+00 -5.622389793395996094e+00 2.590424537658691406e+00
-8.728939056396484375e+00 -5.558739185333251953e+00 2.313190937042236328e+00
-7.637199401855468750e+00 -3.749641418457031250e+00 1.827070832252502441e+00
-7.007761478424072266e+00 -3.765356779098510742e+00 1.627199411392211914e+00
-6.196135997772216797e+00 -3.627941370010375977e+00 1.398274302482604980e+00
-8.795878410339355469e+00 -5.590584278106689453e+00 1.927876591682434082e+00
-7.611496448516845703e+00 -3.735373497009277344e+00 1.498070597648620605e+00
-6.765761852264404297e+00 -3.632284402847290039e+00 1.279534935951232910e+00
-9.735078811645507812e+00 -5.697770118713378906e+00 1.770420789718627930e+00
-8.867487907409667969e+00 -5.627411365509033203e+00 1.548984527587890625e+00
-7.632125377655029297e+00 -3.743844509124755859e+00 1.184137821197509766e+00
-6.793881893157958984e+00 -3.644326448440551758e+00 9.985659122467041016e-01
-9.740900039672851562e+00 -5.689770698547363281e+00 1.355150938034057617e+00
-7.521031379699707031e+00 -4.767411708831787109e+00 9.846639633178710938e-01
-7.606252193450927734e+00 -3.727859258651733398e+00 8.678867816925048828e-01
-6.625926017761230469e+00 -3.551254987716674805e+00 6.987100243568420410e-01
-7.097094058990478516e+00 -4.142171382904052734e+00 6.857049465179443359e-01
-7.177182197570800781e+00 -4.544187545776367188e+00 6.282909512519836426e-01
-7.564514160156250000e+00 -3.704129219055175781e+00 5.550079345703125000e-01
-7.072908878326416016e+00 -3.787644147872924805e+00 4.527826309204101562e-01
-7.228399753570556641e+00 -4.215425491333007812e+00 3.931503295898437500e-01
-7.239710330963134766e+00 -4.578468322753906250e+00 3.215852379798889160e-01
-9.219445228576660156e+00 -5.370087146759033203e+00 1.135960966348648071e-01
-6.226902484893798828e+00 -3.934915781021118164e+00 8.999264799058437347e-03
-8.045914649963378906e+00 -3.885758161544799805e+00 2.633129835128784180e+00
-7.243627071380615234e+00 -3.841476440429687500e+00 2.323234558105468750e+00
-6.311133861541748047e+00 -3.653746843338012695e+00 1.989525914192199707e+00
-8.728373527526855469e+00 -5.494024276733398438e+00 2.711475372314453125e+00
-7.862192630767822266e+00 -3.798722267150878906e+00 2.217595100402832031e+00
-7.196679115295410156e+00 -3.813360691070556641e+00 1.980913162231445312e+00
-6.330801963806152344e+00 -3.660708904266357422e+00 1.704477548599243164e+00
-7.776257991790771484e+00 -3.758876085281372070e+00 1.854785561561584473e+00
-7.162343025207519531e+00 -3.791965246200561523e+00 1.657659173011779785e+00
-6.312637805938720703e+00 -3.644327640533447266e+00 1.419492125511169434e+00
-8.984138488769531250e+00 -5.633145332336425781e+00 1.961526513099670410e+00
-7.739787101745605469e+00 -3.739580392837524414e+00 1.518775582313537598e+00
-7.149770259857177734e+00 -3.782114028930664062e+00 1.347743988037109375e+00
-6.285633563995361328e+00 -3.627275466918945312e+00 1.139035820960998535e+00
-9.031823158264160156e+00 -5.654263496398925781e+00 1.571600675582885742e+00
-7.728086948394775391e+00 -3.732263803482055664e+00 1.195450782775878906e+00
-7.226449966430664062e+00 -3.819448947906494141e+00 1.058680295944213867e+00
-6.258398056030273438e+00 -3.604281902313232422e+00 8.675732612609863281e-01
-7.533286571502685547e+00 -4.710634231567382812e+00 9.824657440185546875e-01
-7.747247219085693359e+00 -3.738182783126831055e+00 8.813408017158508301e-01
-7.179554462432861328e+00 -4.484214782714843750e+00 6.260781884193420410e-01
-7.598785400390625000e+00 -3.663277864456176758e+00 5.558627247810363770e-01
-7.088069438934326172e+00 -3.739980936050415039e+00 4.522755444049835205e-01
-7.254994392395019531e+00 -4.171491146087646484e+00 3.931972384452819824e-01
-7.215949058532714844e+00 -4.501695632934570312e+00 3.192967772483825684e-01
-8.857899665832519531e+00 -4.268375873565673828e+00 2.918268740177154541e-01
-9.658036231994628906e+00 -5.546469688415527344e+00 1.185785755515098572e-01
-6.371433734893798828e+00 -3.971752643585205078e+00 9.172750636935234070e-03
-8.151905059814453125e+00 -3.875441312789916992e+00 2.659984350204467773e+00
-7.302023887634277344e+00 -3.815225601196289062e+00 2.334411859512329102e+00
-6.352704524993896484e+00 -3.625952959060668945e+00 1.995579361915588379e+00
-8.763563156127929688e+00 -5.441384792327880859e+00 2.711983919143676758e+00
-7.987760066986083984e+00 -3.799115896224975586e+00 2.246395111083984375e+00
-7.239753723144531250e+00 -3.779473543167114258e+00 1.986348867416381836e+00
-6.325223922729492188e+00 -3.605878353118896484e+00 1.696986794471740723e+00
-7.926307201385498047e+00 -3.771584272384643555e+00 1.885019779205322266e+00
-7.206322669982910156e+00 -3.758820772171020508e+00 1.662468671798706055e+00
-6.307582378387451172e+00 -3.589988708496093750e+00 1.413375258445739746e+00
-9.103836059570312500e+00 -5.630671977996826172e+00 1.980079650878906250e+00
-7.867522716522216797e+00 -3.741928815841674805e+00 1.539306640625000000e+00
-7.199958324432373047e+00 -3.752304553985595703e+00 1.352838993072509766e+00
-6.273425102233886719e+00 -3.569098711013793945e+00 1.132833600044250488e+00
-9.207758903503417969e+00 -5.686064243316650391e+00 1.596113562583923340e+00
-7.892173290252685547e+00 -3.751964092254638672e+00 1.217248916625976562e+00
-7.240073204040527344e+00 -3.769997596740722656e+00 1.057267308235168457e+00
-6.268308162689208984e+00 -3.558950424194335938e+00 8.659034967422485352e-01
-7.562048912048339844e+00 -4.664322376251220703e+00 9.824657440185546875e-01
-7.898535728454589844e+00 -3.751609086990356445e+00 8.959159851074218750e-01
-7.116845607757568359e+00 -3.702674150466918945e+00 7.456300258636474609e-01
-6.258083820343017578e+00 -3.550257205963134766e+00 6.003868579864501953e-01
-7.182310581207275391e+00 -4.424907207489013672e+00 6.239390969276428223e-01
-7.879844188690185547e+00 -3.739360809326171875e+00 5.747333765029907227e-01
-7.225161075592041016e+00 -3.755823135375976562e+00 4.595439434051513672e-01
-7.256991386413574219e+00 -4.113596916198730469e+00 3.919301033020019531e-01
-7.022157192230224609e+00 -4.321168899536132812e+00 3.095426559448242188e-01
-8.883923530578613281e+00 -4.213944435119628906e+00 2.918268740177154541e-01
-9.335989952087402344e+00 -5.285612106323242188e+00 1.142242327332496643e-01
-6.522609710693359375e+00 -4.010627746582031250e+00 9.354788810014724731e-03
-7.408276081085205078e+00 -3.813059329986572266e+00 2.360855817794799805e+00
-6.437892436981201172e+00 -3.622386455535888672e+00 2.015319347381591797e+00
-8.781115531921386719e+00 -5.377912998199462891e+00 2.707152843475341797e+00
-8.112747192382812500e+00 -3.797698736190795898e+00 2.274948835372924805e+00
-7.302556514739990234e+00 -3.755421161651611328e+00 1.997219920158386230e+00
-6.360814571380615234e+00 -3.574633598327636719e+00 1.700618743896484375e+00
-9.161187171936035156e+00 -5.599697113037109375e+00 2.400012016296386719e+00
-8.031643867492675781e+00 -3.761442184448242188e+00 1.904545903205871582e+00
-7.272821903228759766e+00 -3.736920356750488281e+00 1.672488451004028320e+00
-6.400541782379150391e+00 -3.591082096099853516e+00 1.429240822792053223e+00
-9.284276962280273438e+00 -5.663811206817626953e+00 2.011728763580322266e+00
-8.058006286621093750e+00 -3.772073745727539062e+00 1.572017192840576172e+00
-7.320250988006591797e+00 -3.758061170578002930e+00 1.371082901954650879e+00
-6.383094787597656250e+00 -3.579828739166259766e+00 1.148649334907531738e+00
-9.323586463928222656e+00 -5.678864002227783203e+00 1.610121011734008789e+00
-7.992196559906005859e+00 -3.739566802978515625e+00 1.229113817214965820e+00
-7.250715732574462891e+00 -3.719165802001953125e+00 1.055468916893005371e+00
-6.283096313476562500e+00 -3.516542434692382812e+00 8.649493455886840820e-01
-7.584582328796386719e+00 -4.614218235015869141e+00 9.816963672637939453e-01
-8.048474311828613281e+00 -3.762475252151489258e+00 9.102873802185058594e-01
-7.174875259399414062e+00 -3.677101612091064453e+00 7.493317723274230957e-01
-6.295405864715576172e+00 -3.520546674728393555e+00 6.018836498260498047e-01
-7.197394371032714844e+00 -4.373504161834716797e+00 6.229064464569091797e-01
-7.895408153533935547e+00 -3.687562704086303711e+00 5.742074251174926758e-01
-7.223187446594238281e+00 -3.698678255081176758e+00 4.579663276672363281e-01
-7.255934715270996094e+00 -4.054373741149902344e+00 3.905220925807952881e-01
-7.160447597503662109e+00 -4.345921039581298828e+00 3.144572079181671143e-01
-8.376139640808105469e+00 -3.910308599472045898e+00 2.743534147739410400e-01
-9.443338394165039062e+00 -5.270135879516601562e+00 1.151398196816444397e-01
-5.827146053314208984e+00 -3.533911943435668945e+00 8.326091803610324860e-03
-7.548240661621093750e+00 -3.826697826385498047e+00 2.397931337356567383e+00
-6.584861278533935547e+00 -3.652067184448242188e+00 2.054272890090942383e+00
-8.799047470092773438e+00 -5.314931392669677734e+00 2.702576160430908203e+00
-8.329566955566406250e+00 -3.837063789367675781e+00 2.329102754592895508e+00
-7.417344093322753906e+00 -3.757083892822265625e+00 2.022270917892456055e+00
-6.499341964721679688e+00 -3.600188493728637695e+00 1.731716513633728027e+00
-9.278952598571777344e+00 -5.593764305114746094e+00 2.421826362609863281e+00
-8.229498863220214844e+00 -3.792707920074462891e+00 1.945908069610595703e+00
-7.339321613311767578e+00 -3.714344739913940430e+00 1.682508230209350586e+00
-6.546145915985107422e+00 -3.620144605636596680e+00 1.456766724586486816e+00
-9.405639648437500000e+00 -5.658951759338378906e+00 2.030463695526123047e+00
-8.157024383544921875e+00 -3.757580995559692383e+00 1.586806535720825195e+00
-7.377502918243408203e+00 -3.730433464050292969e+00 1.377492904663085938e+00
-6.480160236358642578e+00 -3.582176446914672852e+00 1.162139058113098145e+00
-9.493095397949218750e+00 -5.702547550201416016e+00 1.633320689201354980e+00
-8.122050285339355469e+00 -3.739751815795898438e+00 1.245531439781188965e+00
-7.370768547058105469e+00 -3.723798036575317383e+00 1.069598436355590820e+00
-6.413224220275878906e+00 -3.537871599197387695e+00 8.798581361770629883e-01
-7.524112224578857422e+00 -4.514410495758056641e+00 9.702659845352172852e-01
-8.216008186340332031e+00 -3.779538869857788086e+00 9.265952706336975098e-01
-6.448672771453857422e+00 -3.554491281509399414e+00 6.144402027130126953e-01
-7.210407733917236328e+00 -4.321057319641113281e+00 6.217262744903564453e-01
-8.248817443847656250e+00 -3.791143655776977539e+00 5.982066988945007324e-01
-7.416905879974365234e+00 -3.740609884262084961e+00 4.687844514846801758e-01
-7.052306652069091797e+00 -3.884003877639770508e+00 3.782728314399719238e-01
-7.121814727783203125e+00 -4.262898445129394531e+00 3.116060495376586914e-01
-8.439032554626464844e+00 -3.876782417297363281e+00 2.756290733814239502e-01
-9.323049545288085938e+00 -5.128237247467041016e+00 1.132873669266700745e-01
-5.833271980285644531e+00 -3.488851308822631836e+00 8.304100483655929565e-03
-7.651633262634277344e+00 -3.820279836654663086e+00 2.423284769058227539e+00
-6.756981372833251953e+00 -3.693497419357299805e+00 2.100859165191650391e+00
-8.828170776367187500e+00 -5.258861541748046875e+00 2.701559066772460938e+00
-8.513620376586914062e+00 -3.858702659606933594e+00 2.373902320861816406e+00
-7.563725948333740234e+00 -3.773092031478881836e+00 2.055829524993896484e+00
-6.700819015502929688e+00 -3.658242464065551758e+00 1.779384613037109375e+00
-9.437253952026367188e+00 -5.610534667968750000e+00 2.454111576080322266e+00
-8.385291099548339844e+00 -3.802303075790405273e+00 1.977192163467407227e+00
-7.490869522094726562e+00 -3.733483552932739258e+00 1.711966037750244141e+00
-6.700099945068359375e+00 -3.651780605316162109e+00 1.486012816429138184e+00
-9.567880630493164062e+00 -5.676898956298828125e+00 2.057929515838623047e+00
-8.340476036071777344e+00 -3.780226707458496094e+00 1.617951035499572754e+00
-7.479722023010253906e+00 -3.724668502807617188e+00 1.392285227775573730e+00
-6.621735095977783203e+00 -3.607570171356201172e+00 1.183536648750305176e+00
-9.604511260986328125e+00 -5.689570903778076172e+00 1.646452665328979492e+00
-8.285583496093750000e+00 -3.753604173660278320e+00 1.267053604125976562e+00
-7.468949317932128906e+00 -3.716051101684570312e+00 1.080516695976257324e+00
-6.517678260803222656e+00 -3.543506860733032227e+00 8.911888003349304199e-01
-7.110272884368896484e+00 -4.206993103027343750e+00 9.135535955429077148e-01
-8.356862068176269531e+00 -3.782380342483520508e+00 9.398455023765563965e-01
-7.480704307556152344e+00 -3.718642473220825195e+00 7.764472961425781250e-01
-6.510642528533935547e+00 -3.536737680435180664e+00 6.182653903961181641e-01
-7.211028099060058594e+00 -4.261511802673339844e+00 6.195134520530700684e-01
-8.325567245483398438e+00 -3.764715194702148438e+00 6.020860075950622559e-01
-7.496946811676025391e+00 -3.723453521728515625e+00 4.723904728889465332e-01
-7.066349029541015625e+00 -3.835417032241821289e+00 3.777565956115722656e-01
-7.250243663787841797e+00 -4.279566764831542969e+00 3.160704076290130615e-01
-8.509114265441894531e+00 -3.845924139022827148e+00 2.771420478820800781e-01
-1.045495319366455078e+01 -5.667572498321533203e+00 1.266165375709533691e-01
-6.255095481872558594e+00 -3.689221620559692383e+00 8.872205391526222229e-03
-7.755227088928222656e+00 -3.812735557556152344e+00 2.448637962341308594e+00
-6.991854667663574219e+00 -3.766349315643310547e+00 2.166659116744995117e+00
-8.843593597412109375e+00 -5.194797039031982422e+00 2.696473836898803711e+00
-8.646905899047851562e+00 -3.855333328247070312e+00 2.404425621032714844e+00
-7.711450099945068359e+00 -3.787871360778808594e+00 2.089624643325805664e+00
-7.013884067535400391e+00 -3.773479223251342773e+00 1.856334805488586426e+00
-9.592737197875976562e+00 -5.623595237731933594e+00 2.485524415969848633e+00
-8.554899215698242188e+00 -3.816101074218750000e+00 2.011625528335571289e+00
-7.627093791961669922e+00 -3.743131160736083984e+00 1.737816929817199707e+00
-7.025899410247802734e+00 -3.773621320724487305e+00 1.553107023239135742e+00
-9.675524711608886719e+00 -5.660789012908935547e+00 2.073572158813476562e+00
-8.466944694519042969e+00 -3.775095224380493164e+00 1.637960076332092285e+00
-7.588344573974609375e+00 -3.720828056335449219e+00 1.408228158950805664e+00
-6.725563049316406250e+00 -3.610797882080078125e+00 1.198111891746520996e+00
-9.773357391357421875e+00 -5.708872318267822266e+00 1.669360637664794922e+00
-8.448682785034179688e+00 -3.765185356140136719e+00 1.288437962532043457e+00
-7.596699237823486328e+00 -3.721635818481445312e+00 1.095673680305480957e+00
-6.656571388244628906e+00 -3.566277980804443359e+00 9.071710705757141113e-01
-6.982278823852539062e+00 -4.073628902435302734e+00 8.938800692558288574e-01
-8.513504028320312500e+00 -3.790511846542358398e+00 9.548283219337463379e-01
-7.592813014984130859e+00 -3.716446161270141602e+00 7.857018113136291504e-01
-7.031252384185791016e+00 -3.763856172561645508e+00 6.654980182647705078e-01
-7.139673709869384766e+00 -4.160447597503662109e+00 6.111785173416137695e-01
-8.503500938415527344e+00 -3.782501935958862305e+00 6.132637858390808105e-01
-7.560909271240234375e+00 -3.697559356689453125e+00 4.749822914600372314e-01
-7.096795558929443359e+00 -3.795755147933959961e+00 3.781320154666900635e-01
-7.450827121734619141e+00 -4.336539268493652344e+00 3.236486017704010010e-01
-8.563606262207031250e+00 -3.807447671890258789e+00 2.781507074832916260e-01
-1.016760540008544922e+01 -5.431347846984863281e+00 1.227306425571441650e-01
-6.464334487915039062e+00 -3.759359359741210938e+00 9.136098437011241913e-03
-7.938687324523925781e+00 -3.842627048492431641e+00 2.499072074890136719e+00
-7.227868556976318359e+00 -3.836453437805175781e+00 2.232459068298339844e+00
-6.306025505065917969e+00 -3.652351140975952148e+00 1.915882110595703125e+00
-8.829284667968750000e+00 -3.871880292892456055e+00 2.448487043380737305e+00
-7.830770015716552734e+00 -3.787017583847045898e+00 2.115621089935302734e+00
-7.194370746612548828e+00 -3.813846588134765625e+00 1.897874116897583008e+00
-6.318339824676513672e+00 -3.652123689651489258e+00 1.631275177001953125e+00
-8.911215782165527344e+00 -3.909663677215576172e+00 2.089730501174926758e+00
-7.776063442230224609e+00 -3.757212400436401367e+00 1.766473174095153809e+00
-7.147823810577392578e+00 -3.782781124114990234e+00 1.574898362159729004e+00
-6.325177669525146484e+00 -3.648715734481811523e+00 1.350732207298278809e+00
-8.586445808410644531e+00 -3.765388727188110352e+00 1.656577348709106445e+00
-7.705192565917968750e+00 -3.719652414321899414e+00 1.425650119781494141e+00
-7.173737049102783203e+00 -3.794892549514770508e+00 1.273778796195983887e+00
-6.284759044647216797e+00 -3.619554758071899414e+00 1.069668889045715332e+00
-8.563245773315429688e+00 -3.753432989120483398e+00 1.302372217178344727e+00
-7.757844448089599609e+00 -3.741731405258178711e+00 1.115583300590515137e+00
-7.184954166412353516e+00 -3.792805433273315430e+00 9.759901762008666992e-01
-6.267054557800292969e+00 -3.604990005493164062e+00 7.994692921638488770e-01
-8.582164764404296875e+00 -3.758154630661010742e+00 9.599245190620422363e-01
-7.669292926788330078e+00 -3.695722341537475586e+00 7.912544012069702148e-01
-7.120323181152343750e+00 -3.755510330200195312e+00 6.717347502708435059e-01
-6.430920124053955078e+00 -3.694770097732543945e+00 5.485559701919555664e-01
-8.729497909545898438e+00 -3.819041252136230469e+00 6.278606057167053223e-01
-7.801153659820556641e+00 -3.755909204483032227e+00 4.886176288127899170e-01
-7.153532981872558594e+00 -3.769835233688354492e+00 3.799154460430145264e-01
-7.608171463012695312e+00 -4.365841865539550781e+00 3.293134868144989014e-01
-8.625271797180175781e+00 -3.771650552749633789e+00 2.793966829776763916e-01
-1.035647678375244141e+01 -5.450825214385986328e+00 1.246043890714645386e-01
-6.502027511596679688e+00 -3.728080272674560547e+00 9.156867861747741699e-03
-8.099349021911621094e+00 -3.859233617782592773e+00 2.542145490646362305e+00
-7.264096260070800781e+00 -3.798738002777099609e+00 2.236407279968261719e+00
-6.339235305786132812e+00 -3.619823694229125977e+00 1.919187545776367188e+00
-8.817276000976562500e+00 -3.802279949188232422e+00 2.438640832901000977e+00
-7.926677703857421875e+00 -3.773563623428344727e+00 2.135236501693725586e+00
-7.234901905059814453e+00 -3.778648376464843750e+00 1.902413964271545410e+00
-6.308410167694091797e+00 -3.594925403594970703e+00 1.622985839843750000e+00
-8.888355255126953125e+00 -3.834771633148193359e+00 2.078812599182128906e+00
-7.891868114471435547e+00 -3.753613471984863281e+00 1.787514448165893555e+00
-7.202233314514160156e+00 -3.755188703536987305e+00 1.581779956817626953e+00
-6.339754104614257812e+00 -3.605461835861206055e+00 1.349095225334167480e+00
-8.764015197753906250e+00 -3.779312133789062500e+00 1.686329841613769531e+00
-7.901600837707519531e+00 -3.754861116409301758e+00 1.457700133323669434e+00
-7.201267719268798828e+00 -3.753086805343627930e+00 1.274554133415222168e+00
-6.286202430725097656e+00 -3.569200992584228516e+00 1.066167116165161133e+00
-8.664335250854492188e+00 -3.734534025192260742e+00 1.314236998558044434e+00
-7.878307819366455078e+00 -3.740421533584594727e+00 1.129584312438964844e+00
-7.159643650054931641e+00 -3.723452091217041016e+00 9.694302678108215332e-01
-6.286462783813476562e+00 -3.564997434616088867e+00 7.991395592689514160e-01
-8.737546920776367188e+00 -3.762473821640014648e+00 9.747036695480346680e-01
-7.169761657714843750e+00 -3.725535154342651367e+00 6.742295026779174805e-01
-6.297274589538574219e+00 -3.566772222518920898e+00 5.352790951728820801e-01
-8.748183250427246094e+00 -3.763434648513793945e+00 6.275318264961242676e-01
-7.847509384155273438e+00 -3.719088077545166016e+00 4.900825321674346924e-01
-7.324581623077392578e+00 -3.802735805511474609e+00 3.877530992031097412e-01
-7.740057945251464844e+00 -4.378612518310546875e+00 3.338528573513031006e-01
-8.711612701416015625e+00 -3.745900392532348633e+00 2.814436852931976318e-01
-1.020863533020019531e+01 -5.293278694152832031e+00 1.224325448274612427e-01
-6.587460041046142578e+00 -3.723543882369995117e+00 9.244833141565322876e-03
-8.225664138793945312e+00 -3.857669830322265625e+00 2.574314117431640625e+00
-7.314711570739746094e+00 -3.768232822418212891e+00 2.244829416275024414e+00
-6.418635845184326172e+00 -3.613118648529052734e+00 1.936477541923522949e+00
-9.143836975097656250e+00 -3.876738548278808594e+00 2.522332906723022461e+00
-8.089582443237304688e+00 -3.790405988693237305e+00 2.172812700271606445e+00
-7.309910774230957031e+00 -3.760917663574218750e+00 1.916033387184143066e+00
-6.350769519805908203e+00 -3.567621231079101562e+00 1.628221154212951660e+00
-8.584088325500488281e+00 -3.641187906265258789e+00 2.002387285232543945e+00
-8.063817977905273438e+00 -3.774901866912841797e+00 1.821180701255798340e+00
-7.266176223754882812e+00 -3.732002973556518555e+00 1.590764045715332031e+00
-6.357468605041503906e+00 -3.564089536666870117e+00 1.348185658454895020e+00
-8.604806900024414062e+00 -3.648204565048217773e+00 1.651357412338256836e+00
-8.019203186035156250e+00 -3.750603914260864258e+00 1.475122213363647461e+00
-7.295347690582275391e+00 -3.745377063751220703e+00 1.287113666534423828e+00
-6.302804946899414062e+00 -3.527663230895996094e+00 1.065291643142700195e+00
-8.606837272644042969e+00 -3.647293329238891602e+00 1.302096366882324219e+00
-8.028692245483398438e+00 -3.751627206802368164e+00 1.147824168205261230e+00
-7.231840133666992188e+00 -3.704801797866821289e+00 9.761093854904174805e-01
-6.342054843902587891e+00 -3.545271873474121094e+00 8.034259676933288574e-01
-8.732985496520996094e+00 -3.697155237197875977e+00 9.716458320617675781e-01
-8.095711708068847656e+00 -3.779501199722290039e+00 8.304007053375244141e-01
-7.264339447021484375e+00 -3.718250274658203125e+00 6.809650659561157227e-01
-6.317299365997314453e+00 -3.527093172073364258e+00 5.351315736770629883e-01
-8.589144706726074219e+00 -3.632724761962890625e+00 6.145130395889282227e-01
-7.924471855163574219e+00 -3.696188926696777344e+00 4.934632182121276855e-01
-7.386018753051757812e+00 -3.777278661727905273e+00 3.897711932659149170e-01
-8.817594528198242188e+00 -4.917010784149169922e+00 3.790218830108642578e-01
-8.973808288574218750e+00 -3.793569326400756836e+00 2.891569137573242188e-01
-1.227667236328125000e+01 -5.720956802368164062e+00 2.742514014244079590e-01
-1.036559391021728516e+01 -5.294215679168701172e+00 1.239230185747146606e-01
-6.447702407836914062e+00 -3.592523097991943359e+00 9.017591364681720734e-03
-8.453596115112304688e+00 -3.901466608047485352e+00 2.638106107711791992e+00
-7.483089923858642578e+00 -3.797055244445800781e+00 2.289309978485107422e+00
-6.504110813140869141e+00 -3.608859062194824219e+00 1.955547332763671875e+00
-9.405427932739257812e+00 -3.919737100601196289e+00 2.587809801101684570e+00
-8.265341758728027344e+00 -3.811085224151611328e+00 2.213697671890258789e+00
-7.439702033996582031e+00 -3.770142555236816406e+00 1.943953275680541992e+00
-6.533049583435058594e+00 -3.617463111877441406e+00 1.669232130050659180e+00
-8.206956863403320312e+00 -3.780691385269165039e+00 1.848233938217163086e+00
-7.354628086090087891e+00 -3.720579624176025391e+00 1.605100393295288086e+00
-6.461841583251953125e+00 -3.570669651031494141e+00 1.365647435188293457e+00
-8.593399047851562500e+00 -3.581321716308593750e+00 1.644919753074645996e+00
-8.136151313781738281e+00 -3.744631052017211914e+00 1.492379903793334961e+00
-7.369324207305908203e+00 -3.726398944854736328e+00 1.296106815338134766e+00
-6.461195945739746094e+00 -3.564427137374877930e+00 1.088345527648925781e+00
-8.609854698181152344e+00 -3.586416244506835938e+00 1.299199104309082031e+00
-8.191219329833984375e+00 -3.766511678695678711e+00 1.167733788490295410e+00
-7.343078136444091797e+00 -3.705084323883056641e+00 9.880364537239074707e-01
-6.415921688079833984e+00 -3.535070419311523438e+00 8.100204467773437500e-01
-8.615903854370117188e+00 -3.585407018661499023e+00 9.561533927917480469e-01
-8.163084983825683594e+00 -3.750123262405395508e+00 8.349353671073913574e-01
-7.319052219390869141e+00 -3.689756870269775391e+00 6.839587092399597168e-01
-6.415709972381591797e+00 -3.530575990676879883e+00 5.416225194931030273e-01
-8.577181816101074219e+00 -3.565781354904174805e+00 6.120802164077758789e-01
-7.413517475128173828e+00 -3.734134674072265625e+00 3.900058567523956299e-01
-8.729372978210449219e+00 -4.797835826873779297e+00 3.739572465419769287e-01
-9.040299415588378906e+00 -3.756462335586547852e+00 2.905512154102325439e-01
-8.540923118591308594e+00 -3.916483640670776367e+00 1.902572214603424072e-01
-1.057832813262939453e+01 -5.321284294128417969e+00 1.260735839605331421e-01
-6.139174461364746094e+00 -3.371421575546264648e+00 8.556998334825038910e-03
-8.541326522827148438e+00 -3.878562450408935547e+00 2.658007144927978516e+00
-7.639147281646728516e+00 -3.817481994628906250e+00 2.329842805862426758e+00
-6.732327461242675781e+00 -3.681643009185791016e+00 2.017333745956420898e+00
-9.601511001586914062e+00 -3.932484149932861328e+00 2.635071277618408203e+00
-8.376172065734863281e+00 -3.800040960311889648e+00 2.237094402313232422e+00
-7.526307582855224609e+00 -3.756169557571411133e+00 1.960523605346679688e+00
-6.679337501525878906e+00 -3.645096540451049805e+00 1.700862884521484375e+00
-8.331727027893066406e+00 -3.776371002197265625e+00 1.871078968048095703e+00
-7.520524978637695312e+00 -3.746727943420410156e+00 1.636258125305175781e+00
-6.727153778076171875e+00 -3.663575887680053711e+00 1.416941046714782715e+00
-8.775595664978027344e+00 -3.594214677810668945e+00 1.675542354583740234e+00
-8.328803062438964844e+00 -3.771541595458984375e+00 1.523443698883056641e+00
-7.498168945312500000e+00 -3.733956813812255859e+00 1.314713358879089355e+00
-6.631568908691406250e+00 -3.605520248413085938e+00 1.113296151161193848e+00
-8.690361976623535156e+00 -3.557534456253051758e+00 1.308028817176818848e+00
-8.345191001892089844e+00 -3.775452613830566406e+00 1.186358928680419922e+00
-7.518606662750244141e+00 -3.735949516296386719e+00 1.008551001548767090e+00
-6.571132659912109375e+00 -3.568205118179321289e+00 8.268363475799560547e-01
-8.669967651367187500e+00 -3.545652866363525391e+00 9.597207307815551758e-01
-8.333836555480957031e+00 -3.766811847686767578e+00 8.500201106071472168e-01
-7.301387786865234375e+00 -3.624837398529052734e+00 6.802166700363159180e-01
-6.631869316101074219e+00 -3.596690654754638672e+00 5.579972863197326660e-01
-8.241304397583007812e+00 -3.721524477005004883e+00 5.103101730346679688e-01
-7.478348255157470703e+00 -3.709437847137451172e+00 3.922116756439208984e-01
-8.768313407897949219e+00 -4.749418258666992188e+00 3.743698894977569580e-01
-8.589399337768554688e+00 -3.875104665756225586e+00 1.908038109540939331e-01
-1.058389854431152344e+01 -5.242960453033447266e+00 1.257541775703430176e-01
-6.768332958221435547e+00 -3.663059711456298828e+00 9.402436204254627228e-03
-7.786210536956787109e+00 -3.831448793411254883e+00 2.367480516433715820e+00
-7.017864704132080078e+00 -3.782039403915405273e+00 2.095901250839233398e+00
-8.546626091003417969e+00 -3.814311027526855469e+00 2.276325225830078125e+00
-7.668085575103759766e+00 -3.768335819244384766e+00 1.991394639015197754e+00
-7.005843162536621094e+00 -3.767675161361694336e+00 1.778085589408874512e+00
-9.222853660583496094e+00 -3.713349580764770508e+00 2.135082006454467773e+00
-8.582914352416992188e+00 -3.826914072036743164e+00 1.922179222106933594e+00
-7.648240089416503906e+00 -3.751956462860107422e+00 1.659005165100097656e+00
-6.986042499542236328e+00 -3.749170780181884766e+00 1.466597676277160645e+00
-8.974713325500488281e+00 -3.611621618270874023e+00 1.709296822547912598e+00
-8.443694114685058594e+00 -3.761306524276733398e+00 1.540208339691162109e+00
-7.593674182891845703e+00 -3.723544120788574219e+00 1.327427983283996582e+00
-6.746873855590820312e+00 -3.614752531051635742e+00 1.128908514976501465e+00
-8.868237495422363281e+00 -3.566975355148315430e+00 1.331482410430908203e+00
-8.444307327270507812e+00 -3.758047580718994141e+00 1.197148799896240234e+00
-7.624330043792724609e+00 -3.730326414108276367e+00 1.019643187522888184e+00
-6.750649452209472656e+00 -3.612227201461791992e+00 8.466197252273559570e-01
-8.874326705932617188e+00 -3.565826177597045898e+00 9.799017310142517090e-01
-8.478709220886230469e+00 -3.769812583923339844e+00 8.624210357666015625e-01
-7.727269172668457031e+00 -3.777348518371582031e+00 7.177200913429260254e-01
-7.070720672607421875e+00 -3.778734445571899414e+00 5.929597020149230957e-01
-8.822165489196777344e+00 -3.541290760040283203e+00 6.264140605926513672e-01
-8.502131462097167969e+00 -3.776672601699829102e+00 5.250160694122314453e-01
-7.594315528869628906e+00 -3.709072589874267578e+00 3.970926105976104736e-01
-8.773488044738769531e+00 -4.682823181152343750e+00 3.733569979667663574e-01
-8.653224945068359375e+00 -3.840172767639160156e+00 1.916945874691009521e-01
-1.017189407348632812e+01 -4.961370468139648438e+00 1.204949170351028442e-01
-6.790681838989257812e+00 -3.621460914611816406e+00 9.402436204254627228e-03
-7.881634235382080078e+00 -3.818513631820678711e+00 2.389325857162475586e+00
-7.212627410888671875e+00 -3.830078363418579102e+00 2.147008419036865234e+00
-8.762050628662109375e+00 -3.846157312393188477e+00 2.327372074127197266e+00
-7.805030822753906250e+00 -3.776355981826782227e+00 2.020903587341308594e+00
-7.186635494232177734e+00 -3.808239698410034180e+00 1.818005919456481934e+00
-9.466396331787109375e+00 -3.744070053100585938e+00 2.186102151870727539e+00
-8.694163322448730469e+00 -3.812738656997680664e+00 1.941817998886108398e+00
-7.746246814727783203e+00 -3.741242647171020508e+00 1.675253152847290039e+00
-7.181030750274658203e+00 -3.797247171401977539e+00 1.502612352371215820e+00
-8.614787101745605469e+00 -3.774344444274902344e+00 1.567163228988647461e+00
-7.745378971099853516e+00 -3.739156246185302734e+00 1.349910974502563477e+00
-7.215988636016845703e+00 -3.809288501739501953e+00 1.203468680381774902e+00
-9.100899696350097656e+00 -3.595838546752929688e+00 1.363075971603393555e+00
-8.605298995971679688e+00 -3.766607046127319336e+00 1.216673016548156738e+00
-7.746364593505859375e+00 -3.731300354003906250e+00 1.032882213592529297e+00
-7.192077636718750000e+00 -3.791851997375488281e+00 8.990457653999328613e-01
-9.108863830566406250e+00 -3.595309972763061523e+00 1.003344416618347168e+00
-8.570102691650390625e+00 -3.747637510299682617e+00 8.693618178367614746e-01
-7.686545372009277344e+00 -3.699181318283081055e+00 7.118160128593444824e-01
-7.107010364532470703e+00 -3.742248058319091797e+00 5.940661430358886719e-01
-8.739233016967773438e+00 -3.817963600158691406e+00 5.382005572319030762e-01
-7.854594230651855469e+00 -3.776679277420043945e+00 4.094826877117156982e-01
-8.773753166198730469e+00 -4.614017486572265625e+00 3.721564710140228271e-01
-8.586825370788574219e+00 -3.747811317443847656e+00 1.897106170654296875e-01
-1.169487762451171875e+01 -5.615643501281738281e+00 1.381251960992813110e-01
-6.782676219940185547e+00 -3.563910961151123047e+00 9.360896423459053040e-03
-8.018116950988769531e+00 -3.824069976806640625e+00 2.423542022705078125e+00
-7.244562149047851562e+00 -3.790233850479125977e+00 2.149551153182983398e+00
-8.684677124023437500e+00 -3.748807191848754883e+00 2.300667047500610352e+00
-7.948513031005859375e+00 -3.785766601562500000e+00 2.052001237869262695e+00
-7.232360363006591797e+00 -3.775814533233642578e+00 1.823677659034729004e+00
-9.702451705932617188e+00 -3.768752336502075195e+00 2.235232830047607422e+00
-8.819051742553710938e+00 -3.803159952163696289e+00 1.964462518692016602e+00
-7.885184764862060547e+00 -3.748852729797363281e+00 1.700293898582458496e+00
-7.205938816070556641e+00 -3.754022121429443359e+00 1.502976059913635254e+00
-9.514073371887207031e+00 -3.693669080734252930e+00 1.803252458572387695e+00
-8.806282043457031250e+00 -3.794007778167724609e+00 1.597733974456787109e+00
-7.867218971252441406e+00 -3.738627910614013672e+00 1.367122054100036621e+00
-7.226938247680664062e+00 -3.758549690246582031e+00 1.201426029205322266e+00
-9.415496826171875000e+00 -3.653507709503173828e+00 1.406810402870178223e+00
-8.759420394897460938e+00 -3.770194053649902344e+00 1.235169768333435059e+00
-7.891122817993164062e+00 -3.741549253463745117e+00 1.049102902412414551e+00
-7.159639358520507812e+00 -3.718787670135498047e+00 8.921215534210205078e-01
-9.361710548400878906e+00 -3.628877639770507812e+00 1.028723597526550293e+00
-8.652394294738769531e+00 -3.720548629760742188e+00 8.753772974014282227e-01
-7.663168430328369141e+00 -3.630189895629882812e+00 7.075750827789306641e-01
-7.116559505462646484e+00 -3.691681385040283203e+00 5.929597020149230957e-01
-8.779007911682128906e+00 -3.771362543106079102e+00 5.392147898674011230e-01
-7.919152259826660156e+00 -3.748070240020751953e+00 4.116415977478027344e-01
-8.745113372802734375e+00 -4.530676364898681641e+00 3.697555065155029297e-01
-8.821891784667968750e+00 -3.786137819290161133e+00 1.943870782852172852e-01
-1.091547107696533203e+01 -5.159209728240966797e+00 1.285435110330581665e-01
-6.745803356170654297e+00 -3.491885900497436523e+00 9.280262514948844910e-03
-8.196005821228027344e+00 -3.847360372543334961e+00 2.470128297805786133e+00
-7.327000141143798828e+00 -3.776282548904418945e+00 2.167095422744750977e+00
-8.638642311096191406e+00 -3.666218757629394531e+00 2.282469511032104492e+00
-8.124146461486816406e+00 -3.808438539505004883e+00 2.091270685195922852e+00
-7.291842460632324219e+00 -3.750112533569335938e+00 1.832839608192443848e+00
-1.042880821228027344e+01 -3.977421998977661133e+00 2.396901845932006836e+00
-8.603194236755371094e+00 -3.647631168365478516e+00 1.911357998847961426e+00
-8.029837608337402344e+00 -3.757392883300781250e+00 1.726481676101684570e+00
-7.268205642700195312e+00 -3.729939937591552734e+00 1.511161327362060547e+00
-9.892661094665527344e+00 -3.770964384078979492e+00 1.870587348937988281e+00
-8.631390571594238281e+00 -3.656032085418701172e+00 1.561903715133666992e+00
-7.984866142272949219e+00 -3.734650611877441406e+00 1.383557915687561035e+00
-7.319422721862792969e+00 -3.749770402908325195e+00 1.212952971458435059e+00
-9.794070243835449219e+00 -3.731425285339355469e+00 1.459926247596740723e+00
-8.638086318969726562e+00 -3.655312538146972656e+00 1.214874744415283203e+00
-8.074081420898437500e+00 -3.767794132232666016e+00 1.070333003997802734e+00
-7.275231361389160156e+00 -3.722323179244995117e+00 9.036618471145629883e-01
-9.655282974243164062e+00 -3.674689769744873047e+00 1.058485507965087891e+00
-8.617281913757324219e+00 -3.642962694168090820e+00 8.695470094680786133e-01
-7.238538742065429688e+00 -3.698768615722656250e+00 6.012208461761474609e-01
-8.766113281250000000e+00 -3.702275037765502930e+00 5.370173454284667969e-01
-8.105893135070800781e+00 -3.775750398635864258e+00 4.201362729072570801e-01
-8.772747993469238281e+00 -4.476932048797607422e+00 3.697555065155029297e-01
-3.520726919174194336e+00 -1.337838172912597656e+00 1.117824092507362366e-01
-8.956418037414550781e+00 -3.778964757919311523e+00 1.968366652727127075e-01
-1.136307621002197266e+01 -5.285717487335205078e+00 1.334301829338073730e-01
-6.926569461822509766e+00 -3.531738281250000000e+00 9.498952887952327728e-03
-8.292150497436523438e+00 -3.830578565597534180e+00 2.491973876953125000e+00
-7.431096076965332031e+00 -3.772405862808227539e+00 2.190996170043945312e+00
-9.083353042602539062e+00 -3.789349555969238281e+00 2.393780708312988281e+00
-8.276473999023437500e+00 -3.818079710006713867e+00 2.124411344528198242e+00
-7.349538803100585938e+00 -3.722940206527709961e+00 1.841565370559692383e+00
-1.061691761016845703e+01 -3.974717617034912109e+00 2.434484720230102539e+00
-8.644404411315917969e+00 -3.602689027786254883e+00 1.915566205978393555e+00
-8.164189338684082031e+00 -3.759370088577270508e+00 1.750375628471374512e+00
-7.336589813232421875e+00 -3.708338975906372070e+00 1.520619630813598633e+00
-1.129629135131835938e+01 -4.226810932159423828e+00 2.131053209304809570e+00
-8.602665901184082031e+00 -3.581770181655883789e+00 1.552699685096740723e+00
-8.157499313354492188e+00 -3.754564285278320312e+00 1.409452199935913086e+00
-7.356424331665039062e+00 -3.711919069290161133e+00 1.215287446975708008e+00
-9.968921661376953125e+00 -3.728156805038452148e+00 1.482552170753479004e+00
-8.609991073608398438e+00 -3.581294059753417969e+00 1.207810044288635254e+00
-8.201712608337402344e+00 -3.766243696212768555e+00 1.084168434143066406e+00
-7.341427803039550781e+00 -3.699530601501464844e+00 9.090474247932434082e-01
-9.896642684936523438e+00 -3.697188854217529297e+00 1.082437753677368164e+00
-8.626598358154296875e+00 -3.584670066833496094e+00 8.682513236999511719e-01
-7.212993621826171875e+00 -3.630074739456176758e+00 5.972378253936767578e-01
-9.688894271850585938e+00 -3.615724325180053711e+00 6.814479827880859375e-01
-8.596865653991699219e+00 -3.568796396255493164e+00 5.252977609634399414e-01
-8.188839912414550781e+00 -3.753412485122680664e+00 4.232338070869445801e-01
-8.834874153137207031e+00 -4.440520763397216797e+00 3.712185919284820557e-01
-3.525123357772827148e+00 -1.314813017845153809e+00 1.116637513041496277e-01
-1.160714340209960938e+01 -5.312863349914550781e+00 1.359107643365859985e-01
-6.863213062286376953e+00 -3.446538209915161133e+00 9.382887743413448334e-03
-8.496423721313476562e+00 -3.861862182617187500e+00 2.546193122863769531e+00
-7.606350898742675781e+00 -3.802855968475341797e+00 2.235746622085571289e+00
-9.518196105957031250e+00 -3.902362346649169922e+00 2.502019643783569336e+00
-8.403504371643066406e+00 -3.814320087432861328e+00 2.150969505310058594e+00
-7.496250152587890625e+00 -3.739636898040771484e+00 1.872541666030883789e+00
-1.086136245727539062e+01 -3.990419864654541016e+00 2.484875202178955078e+00
-8.860363006591796875e+00 -3.629045724868774414e+00 1.958450675010681152e+00
-8.360554695129394531e+00 -3.787788152694702148e+00 1.787459135055541992e+00
-7.485086441040039062e+00 -3.725913524627685547e+00 1.546630263328552246e+00
-1.134697246551513672e+01 -4.166583538055419922e+00 2.135751008987426758e+00
-8.780592918395996094e+00 -3.592794418334960938e+00 1.580804944038391113e+00
-8.318073272705078125e+00 -3.766792058944702148e+00 1.433175563812255859e+00
-7.493349075317382812e+00 -3.723501205444335938e+00 1.234109878540039062e+00
-1.126543331146240234e+01 -4.134411334991455078e+00 1.671561598777770996e+00
-8.739207267761230469e+00 -3.572299957275390625e+00 1.222838640213012695e+00
-8.333243370056152344e+00 -3.764902114868164062e+00 1.098480820655822754e+00
-7.509113788604736328e+00 -3.726433515548706055e+00 9.269623160362243652e-01
-1.136965274810791016e+01 -4.168157100677490234e+00 1.240726470947265625e+00
-8.675164222717285156e+00 -3.542587280273437500e+00 8.709351420402526855e-01
-7.311083793640136719e+00 -3.623390674591064453e+00 6.035074591636657715e-01
-1.130095863342285156e+01 -4.138499259948730469e+00 7.930282354354858398e-01
-8.836770057678222656e+00 -3.604982137680053711e+00 5.385949611663818359e-01
-8.323719024658203125e+00 -3.753604173660278320e+00 4.290064573287963867e-01
-8.818965911865234375e+00 -4.364950180053710938e+00 3.694178164005279541e-01
-3.524676561355590820e+00 -1.290066480636596680e+00 1.113967522978782654e-01
-6.964009761810302734e+00 -3.443813085556030273e+00 9.491622447967529297e-03
-8.618597984313964844e+00 -3.853762149810791016e+00 2.575671434402465820e+00
-7.705898284912109375e+00 -3.793703794479370117e+00 2.258121967315673828e+00
-9.752861976623535156e+00 -3.928845882415771484e+00 2.557320594787597656e+00
-8.523680686950683594e+00 -3.805966138839721680e+00 2.175711393356323242e+00
-7.666213035583496094e+00 -3.765858411788940430e+00 1.909189820289611816e+00
-8.986075401306152344e+00 -3.616308212280273438e+00 1.981295466423034668e+00
-8.543223381042480469e+00 -3.807541370391845703e+00 1.821483969688415527e+00
-7.625241279602050781e+00 -3.737475395202636719e+00 1.570822000503540039e+00
-1.133711910247802734e+01 -4.084198474884033203e+00 2.129139423370361328e+00
-9.013886451721191406e+00 -3.623844623565673828e+00 1.618772029876708984e+00
-8.510684013366699219e+00 -3.791258573532104492e+00 1.462326049804687500e+00
-7.612027168273925781e+00 -3.724409818649291992e+00 1.249868154525756836e+00
-1.128779411315917969e+01 -4.064203739166259766e+00 1.671147823333740234e+00
-8.899923324584960938e+00 -3.574419736862182617e+00 1.242234468460083008e+00
-8.476858139038085938e+00 -3.767328500747680664e+00 1.114343881607055664e+00
-7.630964279174804688e+00 -3.728724718093872070e+00 9.391620755195617676e-01
-1.134165668487548828e+01 -4.079125404357910156e+00 1.234916687011718750e+00
-8.942548751831054688e+00 -3.587914943695068359e+00 8.955519199371337891e-01
-8.491336822509765625e+00 -3.770214080810546875e+00 7.752640843391418457e-01
-7.627151489257812500e+00 -3.721915721893310547e+00 6.277008652687072754e-01
