-1.964018866419792175e-02 -6.761735081672668457e-01 6.930863112211227417e-02
-1.603363268077373505e-02 -6.950080990791320801e-01 9.004305303096771240e-02
-9.078852832317352295e-02 -7.068798542022705078e-01 2.115203440189361572e-02
-7.583554089069366455e-02 -6.887350082397460938e-01 3.910293057560920715e-02
-7.914521545171737671e-02 -7.164942622184753418e-01 1.459623873233795166e-02
-1.112614274024963379e-01 -7.183941006660461426e-01 7.739866152405738831e-03
-5.315058708190917969e+00 -6.628126621246337891e+00 1.037982013076543808e-02
-5.500613689422607422e+00 -6.773937225341796875e+00 1.066081877797842026e-02
-5.651949882507324219e+00 -6.873684883117675781e+00 1.087217684835195541e-02
-5.544443130493164062e+00 -6.576735496520996094e+00 1.050932332873344421e-02
-5.787253379821777344e+00 -6.779895782470703125e+00 1.089050341397523880e-02
-5.380178928375244141e+00 -6.225236415863037109e+00 1.005239691585302353e-02
-6.071523189544677734e+00 -6.938651561737060547e+00 1.126435212790966034e-02
-5.939582824707031250e+00 -6.704408645629882812e+00 1.094303838908672333e-02
-6.155546665191650391e+00 -6.862877845764160156e+00 1.126313116401433945e-02
-5.950821876525878906e+00 -6.553282737731933594e+00 1.081475615501403809e-02
-6.063336372375488281e+00 -6.595417022705078125e+00 1.094548124819993973e-02
-6.121404647827148438e+00 -6.577121257781982422e+00 1.097724679857492447e-02
-6.152730464935302734e+00 -6.529974937438964844e+00 1.096136309206485748e-02
-6.232024669647216797e+00 -6.533344745635986328e+00 1.103100180625915527e-02
-6.258796691894531250e+00 -6.481315135955810547e+00 1.100778952240943909e-02
-6.118093013763427734e+00 -6.258302211761474609e+00 1.069258339703083038e-02
-5.972783565521240234e+00 -6.035133361816406250e+00 1.037371065467596054e-02
-6.174612998962402344e+00 -6.162971496582031250e+00 1.065837405622005463e-02
-6.213736534118652344e+00 -6.126373291015625000e+00 1.066081877797842026e-02
-6.188883781433105469e+00 -6.027431011199951172e+00 1.055452693253755569e-02
-6.158730506896972656e+00 -5.924867630004882812e+00 1.044090650975704193e-02
-6.284131050109863281e+00 -5.971695899963378906e+00 1.059118006378412247e-02
-6.287844657897949219e+00 -5.902226924896240234e+00 1.053620129823684692e-02
-6.325407981872558594e+00 -5.864894390106201172e+00 1.053864508867263794e-02
-6.397410392761230469e+00 -5.859066009521484375e+00 1.059850957244634628e-02
-6.422858238220214844e+00 -5.810309886932373047e+00 1.058140490204095840e-02
-6.395751476287841797e+00 -5.714822292327880859e+00 1.047878060489892960e-02
-6.494426250457763672e+00 -5.731716156005859375e+00 1.058262772858142853e-02
-6.436000823974609375e+00 -5.610279083251953125e+00 1.043113227933645248e-02
-6.455904960632324219e+00 -5.558286190032958984e+00 1.040791906416416168e-02
-6.534073829650878906e+00 -5.556141376495361328e+00 1.047878060489892960e-02
-6.576466083526611328e+00 -5.523018360137939453e+00 1.049221865832805634e-02
-6.594067096710205078e+00 -5.469155788421630859e+00 1.046656258404254913e-02
-6.625180244445800781e+00 -5.426691055297851562e+00 1.046289689838886261e-02
-6.733768939971923828e+00 -5.446941375732421875e+00 1.058140490204095840e-02
-6.773314476013183594e+00 -5.410514354705810547e+00 1.059118006378412247e-02
-6.809525966644287109e+00 -5.371329307556152344e+00 1.059606578201055527e-02
-6.727961540222167969e+00 -5.240345478057861328e+00 1.041891612112522125e-02
-6.745720386505126953e+00 -5.187991142272949219e+00 1.039692386984825134e-02
-6.899276733398437500e+00 -5.239030838012695312e+00 1.058384869247674942e-02
-6.787274837493896484e+00 -5.088624477386474609e+00 1.036393828690052032e-02
-6.899550437927246094e+00 -5.106971263885498047e+00 1.048733294010162354e-02
-6.932371139526367188e+00 -5.065720558166503906e+00 1.048977579921483994e-02
-6.938181877136230469e+00 -5.004952907562255859e+00 1.045190170407295227e-02
-6.910925865173339844e+00 -4.921103477478027344e+00 1.036515925079584122e-02
-6.935264110565185547e+00 -4.874580860137939453e+00 1.035660691559314728e-02
-6.955183506011962891e+00 -4.825095176696777344e+00 1.034194603562355042e-02
-6.940927982330322266e+00 -4.752385616302490234e+00 1.027719490230083466e-02
-6.966642379760742188e+00 -4.707467555999755859e+00 1.027230732142925262e-02
-7.034500122070312500e+00 -4.690707683563232422e+00 1.032972987741231918e-02
-7.063984394073486328e+00 -4.648005962371826172e+00 1.033095084130764008e-02
-7.076435089111328125e+00 -4.594228744506835938e+00 1.030773762613534927e-02
-7.081756114959716797e+00 -4.536159038543701172e+00 1.027475204318761826e-02
-7.049435615539550781e+00 -4.454692363739013672e+00 1.018800865858793259e-02
-6.815261363983154297e+00 -4.248421192169189453e+00 9.811715222895145416e-03
-6.874423503875732422e+00 -4.226951122283935547e+00 9.859363548457622528e-03
-7.016516208648681641e+00 -4.255213737487792969e+00 1.002551801502704620e-02
-7.271636486053466797e+00 -4.349130153656005859e+00 1.035172026604413986e-02
-7.144004344940185547e+00 -4.213495254516601562e+00 1.013303082436323166e-02
-7.094516754150390625e+00 -4.125844478607177734e+00 1.002674084156751633e-02
-7.083262443542480469e+00 -4.061344146728515625e+00 9.975426830351352692e-03
-7.144612789154052734e+00 -4.038473129272460938e+00 1.002674084156751633e-02
-6.999788284301757812e+00 -3.900133609771728516e+00 9.789724834263324738e-03
-7.095462322235107422e+00 -3.896581649780273438e+00 9.889906272292137146e-03
-7.079661846160888672e+00 -3.831552505493164062e+00 9.834928438067436218e-03
-7.246863842010498047e+00 -3.864742517471313477e+00 1.003407035022974014e-02
-7.050017356872558594e+00 -3.704383611679077148e+00 9.729859419167041779e-03
-6.928746700286865234e+00 -3.586584329605102539e+00 9.531939402222633362e-03
-7.239267349243164062e+00 -3.691177606582641602e+00 9.927779436111450195e-03
-7.215310096740722656e+00 -3.623352766036987305e+00 9.864250198006629944e-03
-7.627334117889404297e+00 -3.771837711334228516e+00 1.039570290595293045e-02
-7.580205440521240234e+00 -3.690820217132568359e+00 1.030040811747312546e-02
-7.417849063873291016e+00 -3.555629730224609375e+00 1.004995312541723251e-02
-7.503737449645996094e+00 -3.540343284606933594e+00 1.013669557869434357e-02
-7.359340190887451172e+00 -3.417165279388427734e+00 9.913118556141853333e-03
-7.366525173187255859e+00 -3.365711212158203125e+00 9.894792921841144562e-03
-7.135300636291503906e+00 -3.207292795181274414e+00 9.557595476508140564e-03
-7.352397918701171875e+00 -3.250796556472778320e+00 9.821489453315734863e-03
-7.146610260009765625e+00 -3.107527256011962891e+00 9.520943276584148407e-03
-7.320016860961914062e+00 -3.129662990570068359e+00 9.726194664835929871e-03
-7.602739810943603516e+00 -3.195507287979125977e+00 1.007560919970273972e-02
-7.622203826904296875e+00 -3.148797512054443359e+00 1.007560919970273972e-02
-7.537605285644531250e+00 -3.059842109680175781e+00 9.938775561749935150e-03
-4.911571502685546875e+00 -1.365128993988037109e+00 1.512978523969650269e-01
-7.528372764587402344e+00 -3.002421617507934570e+00 9.902123361825942993e-03
-4.921784877777099609e+00 -1.335489869117736816e+00 1.513571888208389282e-01
-7.532686710357666016e+00 -2.950700759887695312e+00 9.883797727525234222e-03
-4.893168449401855469e+00 -1.295543551445007324e+00 1.502298712730407715e-01
-7.601049900054931641e+00 -2.923812150955200195e+00 9.949770756065845490e-03
-4.889411449432373047e+00 -1.262496352195739746e+00 1.498738676309585571e-01
-7.824660778045654297e+00 -2.954839944839477539e+00 1.021855138242244720e-02
-7.491956710815429688e+00 -2.776795387268066406e+00 9.761624038219451904e-03
-7.729702472686767578e+00 -2.811090230941772461e+00 1.004873123019933701e-02
-4.901139736175537109e+00 -1.358601808547973633e+00 1.029834523797035217e-01
-7.936120033264160156e+00 -2.831145048141479492e+00 1.029429957270622253e-02
-4.900697231292724609e+00 -1.326152920722961426e+00 1.028012484312057495e-01
-7.991098403930664062e+00 -2.795605182647705078e+00 1.034316793084144592e-02
-4.911642551422119141e+00 -1.296823501586914062e+00 1.028619855642318726e-01
-7.837836742401123047e+00 -2.688124895095825195e+00 1.012325659394264221e-02
-4.892397403717041016e+00 -1.259681701660156250e+00 1.022951453924179077e-01
-7.864609718322753906e+00 -2.643486738204956055e+00 1.013669557869434357e-02
-8.194124221801757812e+00 -2.698400020599365234e+00 1.053986698389053345e-02
-7.867905616760253906e+00 -2.537568330764770508e+00 1.010004337877035141e-02
-4.923038482666015625e+00 -1.361029624938964844e+00 5.438134074211120605e-02
-8.162729263305664062e+00 -2.577468156814575195e+00 1.045801118016242981e-02
-4.937980651855468750e+00 -1.335374832153320312e+00 2.403393536806106567e-01
-4.932262420654296875e+00 -1.331057429313659668e+00 5.439198762178421021e-02
-8.171703338623046875e+00 -2.525267362594604492e+00 1.044945884495973587e-02
-4.936422824859619141e+00 -1.302502393722534180e+00 2.398700267076492310e-01
-4.917128562927246094e+00 -1.294657945632934570e+00 5.413647368550300598e-02
-8.158328056335449219e+00 -2.466397762298583984e+00 1.041280757635831833e-02
-4.917232036590576172e+00 -1.262473344802856445e+00 5.405130237340927124e-02
-7.995897769927978516e+00 -2.363844633102416992e+00 1.018678676337003708e-02
-8.135141372680664062e+00 -2.350828170776367188e+00 1.034561172127723694e-02
-4.872517585754394531e+00 -1.375684022903442383e+00 6.185620091855525970e-03
-4.919348239898681641e+00 -1.358218908309936523e+00 1.915930658578872681e-01
-4.875082492828369141e+00 -1.344166040420532227e+00 6.178289651870727539e-03
-4.943027019500732422e+00 -1.332169413566589355e+00 1.921933144330978394e-01
-4.907379627227783203e+00 -1.320724964141845703e+00 6.208832841366529465e-03
-4.949175357818603516e+00 -1.301306247711181641e+00 1.921182870864868164e-01
-4.897013664245605469e+00 -1.285763859748840332e+00 6.185620091855525970e-03
-4.910623550415039062e+00 -1.257180213928222656e+00 6.192950531840324402e-03
-8.208394050598144531e+00 -2.047866582870483398e+00 1.033583749085664749e-02
-8.478313446044921875e+00 -2.060030460357666016e+00 1.065959595143795013e-02
-8.481061935424804688e+00 -2.005668401718139648e+00 1.064737886190414429e-02
-8.483464241027832031e+00 -1.951350331306457520e+00 1.063516177237033844e-02
-8.580181121826171875e+00 -1.918241739273071289e+00 1.074145268648862839e-02
-8.368004798889160156e+00 -1.816967487335205078e+00 1.046167593449354172e-02
-8.133388519287109375e+00 -1.713834881782531738e+00 1.015502121299505234e-02
-8.519978523254394531e+00 -1.740766167640686035e+00 1.062416564673185349e-02
-9.022946357727050781e+00 -1.785926699638366699e+00 1.123747508972883224e-02
-8.744984626770019531e+00 -1.675215482711791992e+00 1.087828539311885834e-02
-8.752148628234863281e+00 -1.620979309082031250e+00 1.087462063878774643e-02
-8.424289703369140625e+00 -1.506852865219116211e+00 1.045556738972663879e-02
-8.638348579406738281e+00 -1.490500688552856445e+00 1.070968806743621826e-02
-9.007390022277832031e+00 -1.497322201728820801e+00 1.115561928600072861e-02
-8.702398300170898438e+00 -1.391805171966552734e+00 1.076710876077413559e-02
-8.768101692199707031e+00 -1.347190141677856445e+00 1.083796843886375427e-02
-8.667378425598144531e+00 -1.277327179908752441e+00 1.070357859134674072e-02
-9.058256149291992188e+00 -1.278194189071655273e+00 1.117638871073722839e-02
-8.695283889770507812e+00 -1.172606229782104492e+00 1.071946043521165848e-02
-9.080203056335449219e+00 -1.167832136154174805e+00 1.118494011461734772e-02
-9.093152999877929688e+00 -1.112823843955993652e+00 1.119227055460214615e-02
-9.112723350524902344e+00 -1.058508396148681641e+00 1.120815332978963852e-02
-9.341704368591308594e+00 -1.027053475379943848e+00 1.148182060569524765e-02
-9.383637428283691406e+00 -9.734290838241577148e-01 1.152580231428146362e-02
-9.136408805847167969e+00 1.019093990325927734e-01 2.711791694164276123e-01
-9.591475486755371094e+00 -9.355406761169433594e-01 1.177381351590156555e-02
-9.144606590270996094e+00 1.581229567527770996e-01 2.714461386203765869e-01
-9.808156967163085938e+00 -8.959564566612243652e-01 1.203282177448272705e-02
-9.754682540893554688e+00 -8.307512998580932617e-01 1.196073926985263824e-02
-9.730686187744140625e+00 -7.685984969139099121e-01 1.192530896514654160e-02
-9.655429840087890625e+00 -7.030678391456604004e-01 1.182757038623094559e-02
-9.807234764099121094e+00 -6.536523103713989258e-01 1.200838666409254074e-02
-9.122489929199218750e+00 1.080241650342941284e-01 1.847304850816726685e-01
-1.028918647766113281e+01 -6.223854422569274902e-01 1.259359531104564667e-02
-9.140648841857910156e+00 1.643381565809249878e-01 1.851151287555694580e-01
-1.024388408660888672e+01 -5.565820932388305664e-01 1.253373082727193832e-02
-1.024111270904541016e+01 -4.934275448322296143e-01 1.252639945596456528e-02
-1.084741401672363281e+01 -4.559452533721923828e-01 1.326432451605796814e-02
-8.739368438720703125e+00 -3.136329054832458496e-01 1.068403106182813644e-02
-8.716138839721679688e+00 -2.592599391937255859e-01 1.065348740667104721e-02
-9.122767448425292969e+00 1.142977550625801086e-01 9.713691473007202148e-02
-9.833253860473632812e+00 -2.321091145277023315e-01 1.201693806797266006e-02
-9.153886795043945312e+00 1.708690375089645386e-01 9.747759252786636353e-02
-1.104630756378173828e+01 -1.929345428943634033e-01 1.349767576903104782e-02
-1.058531284332275391e+01 -1.199184954166412354e-01 1.293323654681444168e-02
-1.060984992980957031e+01 -5.509059503674507141e-02 1.296255830675363541e-02
-1.070698833465576172e+01 1.010278053581714630e-02 1.308106631040573120e-02
-9.063766479492187500e+00 6.416793167591094971e-02 1.107376255095005035e-02
-9.061202049255371094e+00 1.197545155882835388e-01 1.107131876051425934e-02
-9.073294639587402344e+00 1.756023168563842773e-01 1.108720246702432632e-02
-9.188008308410644531e+00 2.342278808355331421e-01 1.122892182320356369e-02
-1.371782493591308594e+01 1.430153131484985352e+00 2.792720198631286621e-01
-1.158019924163818359e+01 3.663249015808105469e-01 1.415496598929166794e-02
-1.164068794250488281e+01 4.397509992122650146e-01 1.423193514347076416e-02
-1.157083606719970703e+01 5.082286596298217773e-01 1.415007933974266052e-02
-1.130982208251953125e+01 5.663138031959533691e-01 1.383487321436405182e-02
-1.183629703521728516e+01 6.655077934265136719e-01 1.448361203074455261e-02
-1.371849250793457031e+01 1.354704499244689941e+00 1.467700004577636719e-01
-1.183698081970214844e+01 7.384327650070190430e-01 1.448972057551145554e-02
-1.368108272552490234e+01 1.435827374458312988e+00 1.464612632989883423e-01
-1.183422279357910156e+01 8.111859560012817383e-01 1.449216343462467194e-02
-1.226779937744140625e+01 9.165665507316589355e-01 1.502972561866044998e-02
-1.225297355651855469e+01 9.910974502563476562e-01 1.501872949302196503e-02
-1.182924079895019531e+01 1.029918789863586426e+00 1.450682431459426880e-02
-1.249478244781494141e+01 1.165154933929443359e+00 1.533149275928735733e-02
-1.250132942199707031e+01 1.243184924125671387e+00 1.534859742969274521e-02
-1.266650295257568359e+01 1.338148593902587891e+00 1.556117739528417587e-02
-1.267296123504638672e+01 1.417511105537414551e+00 1.557950396090745926e-02
-1.291130638122558594e+01 1.524440765380859375e+00 1.588371396064758301e-02
-1.290766429901123047e+01 1.604374527931213379e+00 1.589104533195495605e-02
-1.292930793762207031e+01 1.687686085700988770e+00 1.593014039099216461e-02
-1.361522293090820312e+01 1.862254500389099121e+00 1.678901724517345428e-02
-1.311550807952880859e+01 1.875955939292907715e+00 1.618670299649238586e-02
-1.352606868743896484e+01 2.019448280334472656e+00 1.670838333666324615e-02
-1.308359432220458984e+01 2.035532236099243164e+00 1.617692969739437103e-02
-1.370066070556640625e+01 2.217719078063964844e+00 1.695639453828334808e-02
-1.376765918731689453e+01 2.315342187881469727e+00 1.705657504498958588e-02
-1.353252696990966797e+01 2.361271619796752930e+00 1.678290776908397675e-02
-1.376084232330322266e+01 2.488210678100585938e+00 1.708467490971088409e-02
-1.414242076873779297e+01 2.646921634674072266e+00 1.757825352251529694e-02
-1.397373676300048828e+01 2.704198837280273438e+00 1.738888584077358246e-02
-1.396178436279296875e+01 2.790869235992431641e+00 1.739499531686306000e-02
-1.392285060882568359e+01 2.872039794921875000e+00 1.736811734735965729e-02
-1.416514587402343750e+01 3.012751817703247070e+00 1.769309677183628082e-02
-1.414834785461425781e+01 3.100039243698120117e+00 1.769554056227207184e-02
-1.412808322906494141e+01 3.186573266983032227e+00 1.769431866705417633e-02
-1.368841743469238281e+01 3.175794363021850586e+00 1.716775447130203247e-02
-1.415795135498046875e+01 3.376408815383911133e+00 1.778228394687175751e-02
-1.441378307342529297e+01 3.531029939651489258e+00 1.813047751784324646e-02
-1.449561309814453125e+01 3.645501375198364258e+00 1.826120167970657349e-02
-1.452041816711425781e+01 3.746618270874023438e+00 1.832106523215770721e-02
-1.406798648834228516e+01 3.814608335494995117e+00 1.780794002115726471e-02
-1.436831092834472656e+01 4.085974216461181641e+00 1.825020648539066315e-02
-1.456764793395996094e+01 4.239445209503173828e+00 1.853609085083007812e-02
-1.476563453674316406e+01 4.395514011383056641e+00 1.882197707891464233e-02
-1.476899909973144531e+01 4.495349407196044922e+00 1.886107213795185089e-02
-1.489869022369384766e+01 4.634899139404296875e+00 1.906265690922737122e-02
-1.125877094268798828e+01 5.403815746307373047e+00 2.528732419013977051e-01
-1.125041484832763672e+01 5.409321308135986328e+00 1.329085081815719604e-01
-1.120263671875000000e+01 5.471229553222656250e+00 1.327381581068038940e-01
-1.125092887878417969e+01 5.419090270996093750e+00 1.525696739554405212e-02
-1.116895961761474609e+01 5.464291572570800781e+00 1.519099436700344086e-02
-6.741878509521484375e+00 4.316794395446777344e+00 2.375969737768173218e-01
-1.211536693572998047e+01 6.965941429138183594e+00 1.487928032875061035e-01
-6.774495601654052734e+00 4.285813331604003906e+00 1.623198986053466797e-01
-6.759853363037109375e+00 4.334856033325195312e+00 1.626033186912536621e-01
-6.708817005157470703e+00 4.360451221466064453e+00 1.620162278413772583e-01
-1.215816974639892578e+01 6.902679920196533203e+00 1.708101108670234680e-02
-6.746936321258544922e+00 4.333119392395019531e+00 8.537273854017257690e-02
-6.772513389587402344e+00 4.297605037689208984e+00 9.799497202038764954e-03
-6.755268096923828125e+00 4.345030307769775391e+00 9.812937118113040924e-03
-6.718427658081054688e+00 4.379844665527343750e+00 9.798276238143444061e-03
-2.644042015075683594e+00 2.275615215301513672e+00 1.035351976752281189e-01
-2.615710973739624023e+00 2.279319047927856445e+00 1.029715389013290405e-01
-2.581438302993774414e+00 2.277471065521240234e+00 1.021705493330955505e-01
-2.655504226684570312e+00 2.260410785675048828e+00 7.061259448528289795e-02
-2.616592407226562500e+00 2.255122661590576172e+00 6.994453072547912598e-02
-2.569560289382934570e+00 2.242212057113647461e+00 6.905377656221389771e-02
-2.652460336685180664e+00 2.286792039871215820e+00 1.645439863204956055e-01
-2.633863687515258789e+00 2.299082756042480469e+00 1.642623990774154663e-01
-2.605485916137695312e+00 2.302632331848144531e+00 1.633706837892532349e-01
-2.614026784896850586e+00 2.203726053237915039e+00 4.177095834165811539e-03
-2.602737665176391602e+00 2.221671581268310547e+00 4.180761054158210754e-03
-2.646250486373901367e+00 2.285416603088378906e+00 1.312676966190338135e-01
-2.604944944381713867e+00 2.251331329345703125e+00 4.206417128443717957e-03
-2.622398138046264648e+00 2.293059349060058594e+00 1.307799816131591797e-01
-2.609143733978271484e+00 2.283077239990234375e+00 4.235738888382911682e-03
-2.591069936752319336e+00 2.293871879577636719e+00 1.299171298742294312e-01
-2.598079919815063477e+00 2.301696062088012695e+00 4.240625537931919098e-03
-2.597307682037353516e+00 2.329612731933593750e+00 4.262616857886314392e-03
-1.322029531002044678e-01 7.361813783645629883e-01 7.963438518345355988e-03
-9.583579748868942261e-02 7.033554911613464355e-01 1.437355019152164459e-02
-9.126047790050506592e-02 7.019473314285278320e-01 1.433306094259023666e-02
-8.916233479976654053e-02 7.203541398048400879e-01 1.469746138900518417e-02
