-1.239173393696546555e-02 -7.390267252922058105e-01 7.572987675666809082e-02
-4.088277369737625122e-02 -6.898513436317443848e-01 1.755073070526123047e-01
-4.303368926048278809e-02 -7.136224508285522461e-01 6.644686311483383179e-02
-4.660979844629764557e-03 -7.509343624114990234e-01 5.554156750440597534e-02
-6.607879698276519775e-02 -7.248572707176208496e-01 6.764993816614151001e-02
-1.382046751677989960e-02 -7.478293776512145996e-01 5.532028898596763611e-02
-4.458128288388252258e-02 -7.288323044776916504e-01 3.430737182497978210e-02
-7.200542837381362915e-02 -7.343269586563110352e-01 1.494039501994848251e-02
-9.643677622079849243e-02 -7.123546600341796875e-01 1.455575041472911835e-02
-5.169802904129028320e-02 -7.001763582229614258e-01 5.192731320858001709e-02
-1.095325574278831482e-01 -7.104588747024536133e-01 1.455575041472911835e-02
-1.102465838193893433e-01 -6.870685815811157227e-01 1.409012824296951294e-02
-1.220797151327133179e-01 -7.053669095039367676e-01 1.449501700699329376e-02
-1.199036836624145508e-01 -7.159883975982666016e-01 7.729219272732734680e-03
-1.303380966186523438e+00 -1.085574865341186523e+00 5.034361779689788818e-02
-1.316816687583923340e+00 -1.083535075187683105e+00 1.123692244291305542e-01
-1.316965103149414062e+00 -1.083271861076354980e+00 5.061061680316925049e-02
-1.323440313339233398e+00 -1.075434923171997070e+00 1.123692244291305542e-01
-1.313501119613647461e+00 -1.066977739334106445e+00 5.022495239973068237e-02
-1.326122999191284180e+00 -1.064171671867370605e+00 1.120404675602912903e-01
-1.323921799659729004e+00 -1.062025427818298340e+00 5.037328600883483887e-02
-1.336537957191467285e+00 -1.059113264083862305e+00 1.123692244291305542e-01
-1.326495766639709473e+00 -1.050778627395629883e+00 5.022495239973068237e-02
-1.332795381546020508e+00 -1.042898535728454590e+00 1.115144565701484680e-01
-1.338429331779479980e+00 -1.046930551528930664e+00 5.043261498212814331e-02
-1.267927408218383789e+00 -1.067800402641296387e+00 3.356527909636497498e-02
-1.335221290588378906e+00 -1.031650662422180176e+00 1.111856997013092041e-01
-1.306854367256164551e+00 -1.087719440460205078e+00 9.595431387424468994e-02
-1.340872645378112793e+00 -1.035643458366394043e+00 5.028428509831428528e-02
-1.287522792816162109e+00 -1.070868968963623047e+00 3.390943259000778198e-02
-1.313503861427307129e+00 -1.079680323600769043e+00 9.595431387424468994e-02
-1.364687800407409668e+00 -1.040731430053710938e+00 5.093694478273391724e-02
-1.293296694755554199e+00 -1.062314033508300781e+00 3.388918563723564148e-02
-1.313902616500854492e+00 -1.066566586494445801e+00 9.550355374813079834e-02
-1.379831552505493164e+00 -1.038951992988586426e+00 5.126327276229858398e-02
-1.307555317878723145e+00 -1.060657024383544922e+00 3.409163281321525574e-02
-1.335223436355590820e+00 -1.070349574089050293e+00 9.657409787178039551e-02
-1.324962973594665527e+00 -1.061365008354187012e+00 3.437505289912223816e-02
-1.336286067962646484e+00 -1.057798862457275391e+00 9.617969393730163574e-02
-1.322040915489196777e+00 -1.045771956443786621e+00 3.413212299346923828e-02
-1.363203406333923340e+00 -1.065566182136535645e+00 9.764464199542999268e-02
-1.352070331573486328e+00 -1.056103825569152832e+00 3.473945334553718567e-02
-1.278797864913940430e+00 -1.075453877449035645e+00 1.778998039662837982e-02
-1.354698896408081055e+00 -1.045591115951538086e+00 9.657409787178039551e-02
-1.305744886398315430e+00 -1.085663318634033203e+00 7.978458702564239502e-02
-1.350608229637145996e+00 -1.041681766510009766e+00 3.453700989484786987e-02
-1.273065090179443359e+00 -1.057364702224731445e+00 1.761963963508605957e-02
-1.321992874145507812e+00 -1.086295723915100098e+00 1.427789777517318726e-01
-1.313153862953186035e+00 -1.078264951705932617e+00 7.983152568340301514e-02
-1.367314815521240234e+00 -1.041249513626098633e+00 3.480018675327301025e-02
-1.296537756919860840e+00 -1.063484907150268555e+00 1.785385794937610626e-02
-1.327085733413696289e+00 -1.076907753944396973e+00 1.426126658916473389e-01
-1.323624491691589355e+00 -1.073333024978637695e+00 8.006618171930313110e-02
-1.303815841674804688e+00 -1.056138992309570312e+00 1.786450482904911041e-02
-1.328225016593933105e+00 -1.064382433891296387e+00 1.420305669307708740e-01
-1.330965161323547363e+00 -1.065815687179565430e+00 8.011312037706375122e-02
-1.326669573783874512e+00 -1.061236143112182617e+00 1.808807812631130219e-02
-1.340201020240783691e+00 -1.060541272163391113e+00 1.426126658916473389e-01
-1.349232792854309082e+00 -1.066922664642333984e+00 8.081710338592529297e-02
-1.341787576675415039e+00 -1.059893846511840820e+00 1.820518635213375092e-02
-1.283655643463134766e+00 -1.091535210609436035e+00 2.058615442365407944e-03
-1.335689902305603027e+00 -1.043707847595214844e+00 1.414484828710556030e-01
-1.358903050422668457e+00 -1.061082839965820312e+00 8.100482821464538574e-02
-1.310463786125183105e+00 -1.101328253746032715e+00 6.426452100276947021e-02
-1.346688747406005859e+00 -1.050410866737365723e+00 1.818389445543289185e-02
-1.291094779968261719e+00 -1.084281444549560547e+00 2.059837104752659798e-03
-1.359059572219848633e+00 -1.047845482826232910e+00 8.062937110662460327e-02
-1.313352108001708984e+00 -1.090075492858886719e+00 6.407694518566131592e-02
-1.354693055152893066e+00 -1.043348193168640137e+00 1.820518635213375092e-02
-1.313117623329162598e+00 -1.089107036590576172e+00 2.084271749481558800e-03
-1.334513902664184570e+00 -1.095048904418945312e+00 1.276792287826538086e-01
-1.326198697090148926e+00 -1.087064385414123535e+00 6.437706947326660156e-02
-1.364253163337707520e+00 -1.037437438964843750e+00 1.824777200818061829e-02
-1.325190782546997070e+00 -1.085464954376220703e+00 2.092823851853609085e-03
-1.337333798408508301e+00 -1.083700537681579590e+00 1.273104250431060791e-01
-1.332067131996154785e+00 -1.078277707099914551e+00 6.433955579996109009e-02
-1.333381056785583496e+00 -1.078571081161499023e+00 2.095267176628112793e-03
-1.340843439102172852e+00 -1.072981953620910645e+00 1.270153820514678955e-01
-1.335536003112792969e+00 -1.067588210105895996e+00 6.418949365615844727e-02
-1.329816699028015137e+00 -1.062255740165710449e+00 2.079384867101907730e-03
-1.335664987564086914e+00 -1.055459856986999512e+00 1.259089708328247070e-01
-1.342061400413513184e+00 -1.059373378753662109e+00 6.418949365615844727e-02
-1.344161033630371094e+00 -1.060269355773925781e+00 2.091602189466357231e-03
-1.343688488006591797e+00 -1.048471450805664062e+00 1.260564923286437988e-01
-1.355629801750183105e+00 -1.056647658348083496e+00 6.452713161706924438e-02
-1.357741713523864746e+00 -1.057532191276550293e+00 2.102597616612911224e-03
-1.362087726593017578e+00 -1.048309803009033203e+00 6.452713161706924438e-02
-1.364997744560241699e+00 -1.049790978431701660e+00 2.103819511830806732e-03
-1.349114060401916504e+00 -1.024462461471557617e+00 2.069611102342605591e-03
-1.250317859649658203e+01 -6.966506004333496094e+00 1.748662441968917847e-02
-1.216001892089843750e+01 -6.677860260009765625e+00 1.694906316697597504e-02
-1.243733882904052734e+01 -6.731157302856445312e+00 1.727770827710628510e-02
-1.249517154693603516e+01 -6.663657188415527344e+00 1.730092056095600128e-02
-1.239772701263427734e+01 -6.514301300048828125e+00 1.711033284664154053e-02
-1.235043334960937500e+01 -6.393056869506835938e+00 1.699060201644897461e-02
-1.236982822418212891e+01 -6.307161808013916016e+00 1.696372404694557190e-02
-1.268979454040527344e+01 -6.372505664825439453e+00 1.734856888651847839e-02
-1.241850852966308594e+01 -6.141149044036865234e+00 1.692585088312625885e-02
-1.248472595214843750e+01 -6.078843116760253906e+00 1.696494594216346741e-02
-1.268861579895019531e+01 -6.082088947296142578e+00 1.719096675515174866e-02
-1.273383522033691406e+01 -6.007958889007568359e+00 1.720196194946765900e-02
-1.208023738861083984e+01 -5.609221458435058594e+00 1.627222448587417603e-02
-1.212079429626464844e+01 -5.537901878356933594e+00 1.628077588975429535e-02
-1.264890098571777344e+01 -5.685636520385742188e+00 1.694295555353164673e-02
-1.305212974548339844e+01 -5.770881652832031250e+00 1.743531227111816406e-02
-1.282318115234375000e+01 -5.575844287872314453e+00 1.708345301449298859e-02
-1.286266899108886719e+01 -5.499416351318359375e+00 1.709078438580036163e-02
-1.296438980102539062e+01 -5.449062347412109375e+00 1.718119159340858459e-02
-1.289036941528320312e+01 -5.325121402740478516e+00 1.703947223722934723e-02
-1.305437278747558594e+01 -5.299338340759277344e+00 1.721295714378356934e-02
-1.297610950469970703e+01 -5.175055980682373047e+00 1.706757023930549622e-02
-1.286515903472900391e+01 -5.039534091949462891e+00 1.688064634799957275e-02
-1.287063884735107422e+01 -4.950807094573974609e+00 1.684766076505184174e-02
-1.315897655487060547e+01 -4.969246387481689453e+00 1.718485727906227112e-02
-1.248596954345703125e+01 -4.627760887145996094e+00 1.626856066286563873e-02
-1.323212337493896484e+01 -4.812176227569580078e+00 1.720196194946765900e-02
-1.325951766967773438e+01 -4.730223178863525391e+00 1.719951815903186798e-02
-1.327413368225097656e+01 -4.643821716308593750e+00 1.718119159340858459e-02
-1.255605125427246094e+01 -4.306320190429687500e+00 1.621724665164947510e-02
-1.282394886016845703e+01 -4.310441493988037109e+00 1.652878709137439728e-02
-1.303252220153808594e+01 -4.291728973388671875e+00 1.676336117088794708e-02
-1.324324512481689453e+01 -4.271230697631835938e+00 1.700037717819213867e-02
-1.328159999847412109e+01 -4.193805694580078125e+00 1.701625809073448181e-02
-1.331759262084960938e+01 -4.115480422973632812e+00 1.702969893813133240e-02
-1.318273925781250000e+01 -3.985360622406005859e+00 1.682566851377487183e-02
-1.299405288696289062e+01 -3.841460227966308594e+00 1.655444316565990448e-02
-1.328445243835449219e+01 -3.838834524154663086e+00 1.689408533275127411e-02
-1.331834316253662109e+01 -3.760239124298095703e+00 1.690752431750297546e-02
-1.311750984191894531e+01 -3.616782188415527344e+00 1.662408374249935150e-02
-1.341273117065429688e+01 -3.609773397445678711e+00 1.696983166038990021e-02
-1.337852954864501953e+01 -3.512677431106567383e+00 1.689897291362285614e-02
-1.339208126068115234e+01 -3.428537845611572266e+00 1.688919775187969208e-02
-1.329255390167236328e+01 -3.316285133361816406e+00 1.673770509660243988e-02
-1.354586601257324219e+01 -3.291326761245727539e+00 1.703091897070407867e-02
-1.344026947021484375e+01 -3.178460836410522461e+00 1.687331683933734894e-02
-1.358913421630859375e+01 -3.125746965408325195e+00 1.703580655157566071e-02
-1.349289989471435547e+01 -3.016561508178710938e+00 1.689164154231548309e-02
-1.361962795257568359e+01 -2.957266569137573242e+00 1.702725328505039215e-02
-1.328916645050048828e+01 -2.800239562988281250e+00 1.659231819212436676e-02
-1.362549972534179688e+01 -2.783904790878295898e+00 1.699060201644897461e-02
-1.371884059906005859e+01 -2.715392827987670898e+00 1.708589680492877960e-02
-1.375488758087158203e+01 -2.634927272796630859e+00 1.711033284664154053e-02
-1.375407981872558594e+01 -2.547383308410644531e+00 1.708956249058246613e-02
-1.374779510498046875e+01 -2.459068298339843750e+00 1.706268452107906342e-02
-1.360889625549316406e+01 -2.348142147064208984e+00 1.687209494411945343e-02
-1.387361049652099609e+01 -2.306246995925903320e+00 1.718241535127162933e-02
-1.378184223175048828e+01 -2.204178333282470703e+00 1.705168932676315308e-02
-1.375754833221435547e+01 -2.113802194595336914e+00 1.700526289641857147e-02
-1.365648841857910156e+01 -2.012581110000610352e+00 1.686476357281208038e-02
-1.389236259460449219e+01 -1.960326194763183594e+00 1.714087463915348053e-02
-1.390412998199462891e+01 -1.875047326087951660e+00 1.714087463915348053e-02
-1.385288810729980469e+01 -1.781661510467529297e+00 1.706390641629695892e-02
-1.382584095001220703e+01 -1.692012310028076172e+00 1.701747998595237732e-02
-1.379324913024902344e+01 -1.602185249328613281e+00 1.696494594216346741e-02
-1.386246109008789062e+01 -1.524078369140625000e+00 1.703825034201145172e-02
-1.350750541687011719e+01 -1.401226162910461426e+00 1.659109629690647125e-02
-1.392590236663818359e+01 -1.358315467834472656e+00 1.709445007145404816e-02
-1.392003345489501953e+01 -1.271568536758422852e+00 1.707734540104866028e-02
-1.363463401794433594e+01 -1.161184906959533691e+00 1.671815663576126099e-02
-1.317894268035888672e+01 -1.040966272354125977e+00 1.615127362310886383e-02
-1.361394691467285156e+01 -9.913103580474853516e-01 1.667661778628826141e-02
-1.390713500976562500e+01 -9.269107580184936523e-01 1.702847518026828766e-02
-1.299623584747314453e+01 -7.861329317092895508e-01 1.590692810714244843e-02
-1.323047637939453125e+01 -7.188529372215270996e-01 1.618792675435543060e-02
-1.369510364532470703e+01 -6.598443984985351562e-01 1.675114221870899200e-02
-1.381079578399658203e+01 -5.805039405822753906e-01 1.688797771930694580e-02
-1.333540630340576172e+01 -4.785725772380828857e-01 1.630276814103126526e-02
-1.332809543609619141e+01 -3.964417576789855957e-01 1.629055105149745941e-02
-1.397809600830078125e+01 -3.299460709095001221e-01 1.708223111927509308e-02
-1.391286849975585938e+01 -2.430018335580825806e-01 1.700037717819213867e-02
-1.355612087249755859e+01 -1.535740792751312256e-01 1.656299643218517303e-02
-1.369080638885498047e+01 -7.108815759420394897e-02 1.672670803964138031e-02
-1.395398426055908203e+01 1.316654495894908905e-02 1.704802364110946655e-02
-5.224661827087402344e+00 6.059579253196716309e-01 1.561037749052047729e-01
-1.390764236450195312e+01 9.846068173646926880e-02 1.699182391166687012e-02
-1.388777732849121094e+01 1.835434287786483765e-01 1.696861162781715393e-02
-1.488525962829589844e+01 1.367435693740844727e+00 3.026745915412902832e-01
-1.344547271728515625e+01 2.602203786373138428e-01 1.642982847988605499e-02
-1.353004074096679688e+01 1.810175180435180664e+00 4.022766590118408203e+00
-1.372927379608154297e+01 1.834391355514526367e+00 3.517776727676391602e+00
-1.399797916412353516e+01 1.867806911468505859e+00 3.032660245895385742e+00
-1.383949375152587891e+01 3.528071939945220947e-01 1.691363379359245300e-02
-1.370336151123046875e+01 1.916584372520446777e+00 3.514084577560424805e+00
-1.397366714477539062e+01 1.951903343200683594e+00 3.029930830001831055e+00
-1.424651908874511719e+01 1.992551684379577637e+00 2.541674137115478516e+00
-1.446973705291748047e+01 2.026346206665039062e+00 2.035232543945312500e+00
-1.478483963012695312e+01 2.075735569000244141e+00 1.529682278633117676e+00
-1.388204669952392578e+01 4.391409158706665039e-01 1.696861162781715393e-02
-5.155578613281250000e+00 5.694942474365234375e-01 1.050281375646591187e-01
-1.354932594299316406e+01 5.118537545204162598e-01 1.656544022262096405e-02
-5.197668075561523438e+00 6.064474582672119141e-01 1.059593856334686279e-01
-1.378869628906250000e+01 6.056442856788635254e-01 1.686232164502143860e-02
-5.175986766815185547e+00 6.361330747604370117e-01 1.055949777364730835e-01
-1.384364700317382812e+01 6.931893229484558105e-01 1.693440228700637817e-02
-1.386608982086181641e+01 7.796349525451660156e-01 1.696738973259925842e-02
-1.352687168121337891e+01 1.797586679458618164e+00 3.866514444351196289e+00
-1.378186416625976562e+01 1.836368680000305176e+00 3.381637811660766602e+00
-1.405745887756347656e+01 1.878084659576416016e+00 2.900903701782226562e+00
-1.394887447357177734e+01 8.701801300048828125e-01 1.707490161061286926e-02
-1.320111560821533203e+01 1.836796879768371582e+00 3.776551008224487305e+00
-1.378092288970947266e+01 1.922374606132507324e+00 3.384237289428710938e+00
-1.403984832763671875e+01 1.963490009307861328e+00 2.899701118469238281e+00
-1.430200099945068359e+01 2.005242586135864258e+00 2.406380414962768555e+00
-1.459638404846191406e+01 2.051712751388549805e+00 1.909144043922424316e+00
-1.480626678466796875e+01 2.086485147476196289e+00 1.389738917350769043e+00
-1.400811958312988281e+01 9.601974487304687500e-01 1.715431362390518188e-02
-1.318102836608886719e+01 1.916516900062561035e+00 3.774097681045532227e+00
-5.162907123565673828e+00 5.738954544067382812e-01 5.530756711959838867e-02
-1.393714523315429688e+01 1.041288733482360840e+00 1.707490161061286926e-02
-5.164254665374755859e+00 6.061465144157409668e-01 5.536080151796340942e-02
-1.368330097198486328e+01 1.106791377067565918e+00 1.677191257476806641e-02
-5.161430358886718750e+00 6.379449963569641113e-01 5.537144839763641357e-02
-1.367226791381835938e+01 1.190382719039916992e+00 1.676702685654163361e-02
-1.356553745269775391e+01 1.713124513626098633e+00 3.730328083038330078e+00
-1.436865139007568359e+01 1.339895606040954590e+00 1.763078942894935608e-02
-1.355190181732177734e+01 1.795948743820190430e+00 3.729538679122924805e+00
-1.382629680633544922e+01 1.839679598808288574e+00 3.250969171524047852e+00
-1.408070659637451172e+01 1.883535742759704590e+00 2.766537666320800781e+00
-1.422980308532714844e+01 1.415071606636047363e+00 1.747074350714683533e-02
-1.321859455108642578e+01 1.834378480911254883e+00 3.640840053558349609e+00
-1.384079265594482422e+01 1.928109645843505859e+00 3.257097959518432617e+00
-1.409513092041015625e+01 1.973572850227355957e+00 2.771698951721191406e+00
-1.439526653289794922e+01 2.018158912658691406e+00 2.281482934951782227e+00
-1.463382148742675781e+01 2.064626455307006836e+00 1.775340795516967773e+00
-1.489150905609130859e+01 2.106284379959106445e+00 1.254991531372070312e+00
-5.190114021301269531e+00 5.483078956604003906e-01 6.376210134476423264e-03
-1.312020778656005859e+01 1.902850985527038574e+00 3.616888999938964844e+00
-5.147893428802490234e+00 5.758082866668701172e-01 6.328562740236520767e-03
-1.307585239410400391e+01 1.978412151336669922e+00 3.607940196990966797e+00
-5.155187606811523438e+00 6.086741685867309570e-01 6.342001724988222122e-03
-5.156317234039306641e+00 6.409110426902770996e-01 6.348110269755125046e-03
-1.342411041259765625e+01 1.752273559570312500e+00 1.653978414833545685e-02
-1.365488624572753906e+01 1.807020068168640137e+00 3.621233224868774414e+00
-1.385757446289062500e+01 1.846148967742919922e+00 3.124902009963989258e+00
-1.413062572479248047e+01 1.895077347755432129e+00 2.637256383895874023e+00
-1.358847332000732422e+01 1.858595728874206543e+00 1.675602979958057404e-02
-1.366270160675048828e+01 1.893426060676574707e+00 3.626318693161010742e+00
-1.388948154449462891e+01 1.937209129333496094e+00 3.134718656539916992e+00
-1.415670871734619141e+01 1.987076163291931152e+00 2.644350290298461914e+00
-1.441282272338867188e+01 2.033286333084106445e+00 2.146779298782348633e+00
-1.465064620971679688e+01 2.074661493301391602e+00 1.636197328567504883e+00
-1.494553852081298828e+01 2.124403715133666992e+00 1.116510987281799316e+00
-1.354018497467041016e+01 1.936699032783508301e+00 1.671082526445388794e-02
-1.376343727111816406e+01 2.054887533187866211e+00 1.700159721076488495e-02
-1.310196495056152344e+01 1.979877829551696777e+00 3.483676195144653320e+00
-1.396993064880371094e+01 2.173427581787109375e+00 1.727282255887985229e-02
-1.395731925964355469e+01 2.259264469146728516e+00 1.727404445409774780e-02
-1.409604740142822266e+01 2.370568037033081055e+00 1.746341213583946228e-02
-1.390096092224121094e+01 2.425559282302856445e+00 1.723983511328697205e-02
-1.399701309204101562e+01 2.530914545059204102e+00 1.737789064645767212e-02
-1.383869457244873047e+01 2.590075731277465820e+00 1.720074005424976349e-02
-1.388930320739746094e+01 2.687859058380126953e+00 1.728381775319576263e-02
-1.393236637115478516e+01 2.784988880157470703e+00 1.735834404826164246e-02
-1.392480850219726562e+01 2.872443914413452148e+00 1.737055927515029907e-02
-1.389322757720947266e+01 2.954918384552001953e+00 1.735345646739006042e-02
-1.387190437316894531e+01 3.039467811584472656e+00 1.734979078173637390e-02
-1.382958221435546875e+01 3.119246721267700195e+00 1.732046902179718018e-02
-1.384525108337402344e+01 3.212180614471435547e+00 1.736445166170597076e-02
-1.384959888458251953e+01 3.302872657775878906e+00 1.739499531686306000e-02
-1.379701995849609375e+01 3.379937887191772461e+00 1.735467836260795593e-02
-1.353551101684570312e+01 3.404045104980468750e+00 1.705168932676315308e-02
-1.352405261993408203e+01 3.489531993865966797e+00 1.706390641629695892e-02
-1.364159584045410156e+01 3.609280347824096680e+00 1.723983511328697205e-02
-1.353136444091796875e+01 3.669100284576416016e+00 1.712865754961967468e-02
-1.349510765075683594e+01 3.748311519622802734e+00 1.711155287921428680e-02
-1.346127414703369141e+01 3.828036546707153320e+00 1.709811389446258545e-02
-1.349130153656005859e+01 3.926209211349487305e+00 1.716653071343898773e-02
-1.345449733734130859e+01 4.005207538604736328e+00 1.715064980089664459e-02
-1.343253803253173828e+01 4.088560581207275391e+00 1.715431362390518188e-02
-7.899136543273925781e+00 3.098918437957763672e+00 1.718145459890365601e-01
-1.334131336212158203e+01 4.150407791137695312e+00 1.707001589238643646e-02
-1.330034637451171875e+01 4.227343559265136719e+00 1.705046743154525757e-02
-1.355950069427490234e+01 4.401497840881347656e+00 1.741698570549488068e-02
-1.337466716766357422e+01 4.432394504547119141e+00 1.721417903900146484e-02
-1.472821331024169922e+01 6.199301719665527344e+00 3.235668540000915527e-01
-1.342110538482666016e+01 4.539367198944091797e+00 1.730947382748126984e-02
-1.333591747283935547e+01 6.289182662963867188e+00 4.376067817211151123e-01
-1.342246627807617188e+01 5.746898174285888672e+00 2.956497669219970703e-01
-7.965586662292480469e+00 3.075011730194091797e+00 9.090882539749145508e-02
-1.339961814880371094e+01 4.623915672302246094e+00 1.731802709400653839e-02
-1.332003498077392578e+01 5.800010681152343750e+00 2.941719293594360352e-01
-7.888869762420654297e+00 3.101148128509521484e+00 9.024874866008758545e-02
-1.338514232635498047e+01 4.711027145385742188e+00 1.733635179698467255e-02
-1.322751522064208984e+01 5.856536388397216797e+00 2.929167747497558594e-01
-1.498555946350097656e+01 5.997304439544677734e+00 1.718526929616928101e-01
-1.337480926513671875e+01 4.799823760986328125e+00 1.736078783869743347e-02
-1.320135974884033203e+01 5.942102432250976562e+00 2.931394577026367188e-01
-1.465491771697998047e+01 5.969561576843261719e+00 1.684778183698654175e-01
-1.339488029479980469e+01 4.900007724761962891e+00 1.742553897202014923e-02
-1.316828823089599609e+01 6.024656772613525391e+00 2.932204306125640869e-01
-1.445266532897949219e+01 5.990830898284912109e+00 1.665721386671066284e-01
-1.341141223907470703e+01 4.999569892883300781e+00 1.748662441968917847e-02
-1.313197994232177734e+01 6.105763912200927734e+00 2.932406663894653320e-01
-1.379739952087402344e+01 5.818674564361572266e+00 1.594284623861312866e-01
-1.344405269622802734e+01 5.105909824371337891e+00 1.756970211863517761e-02
-1.310782909393310547e+01 6.192631244659423828e+00 2.935443520545959473e-01
-1.353629207611083984e+01 5.806643962860107422e+00 1.568201184272766113e-01
-7.930341243743896484e+00 3.067669391632080078e+00 1.038837153464555740e-02
-1.306688022613525391e+01 6.271645069122314453e+00 2.934836149215698242e-01
-1.332535266876220703e+01 5.813223361968994141e+00 1.547866612672805786e-01
-7.902995109558105469e+00 3.112972974777221680e+00 1.037737634032964706e-02
-1.304702472686767578e+01 6.360904693603515625e+00 2.939087450504302979e-01
-1.325104236602783203e+01 5.877847671508789062e+00 1.543395221233367920e-01
-1.292733764648437500e+01 5.183902263641357422e+00 1.701625809073448181e-02
-1.302029323577880859e+01 6.447051048278808594e+00 2.941921651363372803e-01
-1.321108055114746094e+01 5.957399845123291016e+00 1.542969495058059692e-01
-1.322674179077148438e+01 5.398406505584716797e+00 1.745363697409629822e-02
-1.299031448364257812e+01 6.531761169433593750e+00 2.944148480892181396e-01
-1.322972774505615234e+01 6.063764095306396484e+00 1.549463719129562378e-01
-1.291908454895019531e+01 5.365547180175781250e+00 1.709078438580036163e-02
-1.297848701477050781e+01 6.625892639160156250e+00 2.950626611709594727e-01
-1.317051792144775391e+01 6.134693145751953125e+00 1.546908468008041382e-01
-1.313647079467773438e+01 5.550582408905029297e+00 1.742309518158435822e-02
-1.293847560882568359e+01 6.705862998962402344e+00 2.950829267501831055e-01
-1.313895416259765625e+01 6.218384742736816406e+00 1.547653824090957642e-01
-1.288718032836914062e+01 5.538684844970703125e+00 1.713720895349979401e-02
-1.291212654113769531e+01 6.793038845062255859e+00 2.954270541667938232e-01
-1.307712078094482422e+01 6.287621021270751953e+00 1.544885784387588501e-01
-1.311501502990722656e+01 5.732194423675537109e+00 1.748662441968917847e-02
-1.286843872070312500e+01 6.871196269989013672e+00 2.953865826129913330e-01
-1.306165599822998047e+01 6.379151821136474609e+00 1.547653824090957642e-01
-1.315909957885742188e+01 5.847889900207519531e+00 1.759291440248489380e-02
-1.283394622802734375e+01 6.954313278198242188e+00 2.955687642097473145e-01
-1.304018497467041016e+01 6.468063354492187500e+00 1.549783051013946533e-01
-1.311932468414306641e+01 5.926876068115234375e+00 1.758802868425846100e-02
-1.301722049713134766e+01 6.556500911712646484e+00 1.551805883646011353e-01
-1.305999088287353516e+01 5.996830463409423828e+00 1.755748502910137177e-02
-1.296250057220458984e+01 6.628964900970458984e+00 1.550102382898330688e-01
-1.299395179748535156e+01 6.063321113586425781e+00 1.751838997006416321e-02
-1.291093158721923828e+01 6.702847480773925781e+00 1.548824757337570190e-01
-1.296644210815429688e+01 6.147648811340332031e+00 1.753182895481586456e-02
-1.289963817596435547e+01 6.797791481018066406e+00 1.552444547414779663e-01
-1.294559478759765625e+01 6.235338687896728516e+00 1.755504123866558075e-02
-1.282682418823242188e+01 6.860308647155761719e+00 1.548718363046646118e-01
-1.291248130798339844e+01 6.317290782928466797e+00 1.756237260997295380e-02
-1.283282470703125000e+01 6.965117931365966797e+00 1.554573774337768555e-01
-1.287168502807617188e+01 6.395511627197265625e+00 1.755992881953716278e-02
-1.279916667938232422e+01 6.457703113555908203e+00 1.751472428441047668e-02
-1.281537437438964844e+01 6.564839363098144531e+00 1.759169436991214752e-02
-1.285469913482666016e+01 6.684872627258300781e+00 1.770164817571640015e-02
-1.279486846923828125e+01 6.753818988800048828e+00 1.767599210143089294e-02
-1.281400871276855469e+01 6.864783287048339844e+00 1.776029169559478760e-02
-1.263195419311523438e+01 6.867336273193359375e+00 1.756603643298149109e-02
-9.376278877258300781e+00 6.352097034454345703e+00 1.205800771713256836e-01
-9.336025238037109375e+00 6.334191322326660156e+00 1.378356013447046280e-02
-2.886651992797851562e+00 3.888696670532226562e+00 9.806405752897262573e-02
-2.900423765182495117e+00 3.863089561462402344e+00 5.143231526017189026e-02
-2.873688220977783203e+00 3.876796722412109375e+00 5.137908086180686951e-02
-2.849766254425048828e+00 3.850052118301391602e+00 5.852087866514921188e-03
-2.832578897476196289e+00 3.876346826553344727e+00 5.865526851266622543e-03
-4.411265850067138672e+00 6.794619083404541016e+00 9.897236712276935577e-03
-4.867825284600257874e-02 6.560617685317993164e-01 1.332083996385335922e-02
-1.062859743833541870e-01 7.212097644805908203e-01 8.906413568183779716e-04
-4.897374659776687622e-02 7.161853313446044922e-01 4.051154106855392456e-02
-4.689119383692741394e-02 6.892652511596679688e-01 1.398890651762485504e-02
-9.956595301628112793e-02 7.383162379264831543e-01 9.101890609599649906e-04
-1.014064066112041473e-02 7.566705942153930664e-01 7.033372670412063599e-02
-5.172090139240026474e-03 7.119128704071044922e-01 6.616923213005065918e-02
-8.532409556210041046e-04 7.557423710823059082e-01 7.024118304252624512e-02
-2.629779279232025146e-02 6.829001903533935547e-01 1.264151483774185181e-01
-6.431494839489459991e-04 6.662099361419677734e-01 8.003047108650207520e-02
