-9.184656143188476562e+00 -1.662408351898193359e+00 2.770234048366546631e-01
-8.728114128112792969e+00 -1.907724618911743164e+00 1.809042990207672119e-01
-6.417486667633056641e+00 -1.647655844688415527e+00 7.054243981838226318e-02
-5.190908432006835938e+00 -1.534599542617797852e+00 6.613225676119327545e-03
-9.170067787170410156e+00 -1.601721525192260742e+00 2.762817442417144775e-01
-8.379740715026855469e+00 -1.777777552604675293e+00 1.734543442726135254e-01
-6.753408432006835938e+00 -1.689801096916198730e+00 7.411959767341613770e-02
-5.333763122558593750e+00 -1.541308045387268066e+00 6.783045828342437744e-03
-1.273933315277099609e+01 -2.146979093551635742e+00 8.512839674949645996e-01
-9.179722785949707031e+00 -1.545424818992614746e+00 2.762817442417144775e-01
-8.363070487976074219e+00 -1.720685243606567383e+00 1.728874891996383667e-01
-6.798624038696289062e+00 -1.656854510307312012e+00 7.450286298990249634e-02
-5.371028900146484375e+00 -1.516431450843811035e+00 6.818476598709821701e-03
-9.191005706787109375e+00 -1.489389777183532715e+00 2.763410806655883789e-01
-8.405827522277832031e+00 -1.675788640975952148e+00 1.735555529594421387e-01
-6.736664772033691406e+00 -1.598028898239135742e+00 7.371503114700317383e-02
-5.392765045166015625e+00 -1.486902356147766113e+00 6.834358908236026764e-03
-9.217748641967773438e+00 -1.435735821723937988e+00 2.768750488758087158e-01
-8.421842575073242188e+00 -1.625316739082336426e+00 1.736770272254943848e-01
-6.732702255249023438e+00 -1.553515911102294922e+00 7.356598973274230957e-02
-5.410477638244628906e+00 -1.456123828887939453e+00 6.845354568213224411e-03
-9.224408149719238281e+00 -1.378854155540466309e+00 2.768157422542572021e-01
-8.407086372375488281e+00 -1.569025039672851562e+00 1.731709241867065430e-01
-6.719666957855224609e+00 -1.507142305374145508e+00 7.332112640142440796e-02
-5.442523479461669922e+00 -1.428993344306945801e+00 6.874675862491130829e-03
-1.269400978088378906e+01 -2.293163061141967773e+00 7.279681563377380371e-01
-9.205979347229003906e+00 -1.318402409553527832e+00 2.760147750377655029e-01
-8.462800025939941406e+00 -1.525748014450073242e+00 1.741224080324172974e-01
-6.613498687744140625e+00 -1.440766811370849609e+00 7.206486165523529053e-02
-5.439564228057861328e+00 -1.392595529556274414e+00 6.860015448182821274e-03
-1.022725486755371094e+01 -1.782815098762512207e+00 5.858678817749023438e-01
-9.220828056335449219e+00 -1.262840151786804199e+00 2.762224376201629639e-01
-8.947758674621582031e+00 -1.556555151939392090e+00 1.839004755020141602e-01
-6.675043582916259766e+00 -1.411329865455627441e+00 7.263975590467453003e-02
-5.468381881713867188e+00 -1.364276170730590820e+00 6.885671522468328476e-03
-1.021830940246582031e+01 -1.716719746589660645e+00 5.847409367561340332e-01
-9.253181457519531250e+00 -1.209477186203002930e+00 2.769640684127807617e-01
-8.995595932006835938e+00 -1.508070230484008789e+00 1.846899986267089844e-01
-6.865776538848876953e+00 -1.407702565193176270e+00 7.461997121572494507e-02
-5.456243991851806641e+00 -1.325738906860351562e+00 6.860015448182821274e-03
-1.036762142181396484e+01 -1.676460862159729004e+00 5.926854610443115234e-01
-9.242573738098144531e+00 -1.150455594062805176e+00 2.764301002025604248e-01
-8.742130279541015625e+00 -1.410485148429870605e+00 1.793049722909927368e-01
-6.859573364257812500e+00 -1.362626075744628906e+00 7.446027547121047974e-02
-5.475953578948974609e+00 -1.294996738433837891e+00 6.874675862491130829e-03
-1.207559680938720703e+01 -1.876685500144958496e+00 6.896540522575378418e-01
-9.681786537170410156e+00 -1.866827845573425293e+00 4.632668793201446533e-01
-9.256407737731933594e+00 -1.094544172286987305e+00 2.766377627849578857e-01
-9.052944183349609375e+00 -1.403694510459899902e+00 1.854997724294662476e-01
-6.590893268585205078e+00 -1.267267465591430664e+00 7.145801931619644165e-02
-5.502313137054443359e+00 -1.265631675720214844e+00 6.897889077663421631e-03
-1.188839912414550781e+01 -1.772954821586608887e+00 6.783288121223449707e-01
-9.152973175048828125e+00 -1.706681013107299805e+00 4.374542236328125000e-01
-9.286788940429687500e+00 -1.040398120880126953e+00 2.773497104644775391e-01
-9.040619850158691406e+00 -1.345030665397644043e+00 1.850746423006057739e-01
-6.659496784210205078e+00 -1.238134860992431641e+00 7.211808860301971436e-02
-5.497288227081298828e+00 -1.229009866714477539e+00 6.882006302475929260e-03
-1.274312686920166016e+01 -1.820565342903137207e+00 7.264468073844909668e-01
-9.130830764770507812e+00 -1.644643902778625488e+00 4.359054565429687500e-01
-9.274112701416015625e+00 -9.813973903656005859e-01 2.767860889434814453e-01
-8.711182594299316406e+00 -1.241433143615722656e+00 1.781712919473648071e-01
-6.865777015686035156e+00 -1.232951521873474121e+00 7.426864653825759888e-02
-5.512543678283691406e+00 -1.196953535079956055e+00 6.891780067235231400e-03
-1.094971370697021484e+01 -1.495848059654235840e+00 6.236748695373535156e-01
-9.128940582275390625e+00 -1.586534857749938965e+00 4.353422522544860840e-01
-1.134485149383544922e+01 -2.394677639007568359e+00 4.352955520153045654e-01
-9.256088256835937500e+00 -9.220959544181823730e-01 2.760740816593170166e-01
-8.893980026245117188e+00 -1.211850404739379883e+00 1.817545592784881592e-01
-6.896859645843505859e+00 -1.194897532463073730e+00 7.452415674924850464e-02
-5.570666790008544922e+00 -1.173828482627868652e+00 6.955310236662626266e-03
-1.054584217071533203e+01 -1.374813079833984375e+00 6.001793146133422852e-01
-9.122740745544433594e+00 -1.527850985527038574e+00 4.345913529396057129e-01
-1.133779335021972656e+01 -2.320613384246826172e+00 4.344701766967773438e-01
-9.304366111755371094e+00 -8.692824244499206543e-01 2.773497104644775391e-01
-8.684120178222656250e+00 -1.129026293754577637e+00 1.773210316896438599e-01
-6.932663917541503906e+00 -1.157331585884094238e+00 7.483289390802383423e-02
-5.571886062622070312e+00 -1.138424277305603027e+00 6.947979796677827835e-03
-1.064523315429687500e+01 -1.321394085884094238e+00 6.053629517555236816e-01
-9.138847351074218750e+00 -1.472958683967590332e+00 4.349198937416076660e-01
-1.127634334564208984e+01 -2.236035823822021484e+00 4.315814673900604248e-01
-9.308529853820800781e+00 -8.120887279510498047e-01 2.773200571537017822e-01
-8.848648071289062500e+00 -1.095247507095336914e+00 1.805398911237716675e-01
-7.122282505035400391e+00 -1.144111990928649902e+00 7.680246233940124512e-02
-5.567975521087646484e+00 -1.102078557014465332e+00 6.934540811926126480e-03
-1.040822982788085938e+01 -1.227175235748291016e+00 5.914459228515625000e-01
-9.169430732727050781e+00 -1.420219779014587402e+00 4.359523952007293701e-01
-9.393815040588378906e+00 -1.802906990051269531e+00 3.591009974479675293e-01
-9.316326141357421875e+00 -7.551996707916259766e-01 2.774090766906738281e-01
-9.003152847290039062e+00 -1.058324337005615234e+00 1.835563182830810547e-01
-7.062956333160400391e+00 -1.090169072151184082e+00 7.608915865421295166e-02
-5.622758388519287109e+00 -1.077112436294555664e+00 6.994405761361122131e-03
-1.042052555084228516e+01 -1.163842558860778809e+00 5.917276740074157715e-01
-9.164139747619628906e+00 -1.361874818801879883e+00 4.352953433990478516e-01
-9.193458557128906250e+00 -1.706033349037170410e+00 3.510350883007049561e-01
-9.320784568786621094e+00 -6.980215311050415039e-01 2.774090766906738281e-01
-9.012457847595214844e+00 -1.003394007682800293e+00 1.836170554161071777e-01
-7.054675579071044922e+00 -1.044614076614379883e+00 7.592947036027908325e-02
-5.581080436706542969e+00 -1.033667922019958496e+00 6.934540811926126480e-03
-1.076307106018066406e+01 -1.135280489921569824e+00 6.107720136642456055e-01
-9.201991081237792969e+00 -1.309842109680175781e+00 4.367032945156097412e-01
-9.121129989624023438e+00 -1.634782552719116211e+00 3.478837907314300537e-01
-9.321900367736816406e+00 -6.406115293502807617e-01 2.773200571537017822e-01
-8.974694252014160156e+00 -9.434763789176940918e-01 1.827262789011001587e-01
-7.007490158081054688e+00 -9.937263727188110352e-01 7.535456866025924683e-02
-5.462302207946777344e+00 -9.770421385765075684e-01 6.779381074011325836e-03
-1.125964355468750000e+01 -1.117845892906188965e+00 6.385497450828552246e-01
-9.170263290405273438e+00 -1.247967123985290527e+00 4.348260164260864258e-01
-9.146743774414062500e+00 -1.581509590148925781e+00 3.484840393066406250e-01
-9.367554664611816406e+00 -5.860225558280944824e-01 2.785660326480865479e-01
-8.975340843200683594e+00 -8.878988623619079590e-01 1.826250702142715454e-01
-7.019400596618652344e+00 -9.515163898468017578e-01 7.541844248771667480e-02
-5.521408081054687500e+00 -9.526893496513366699e-01 6.845354568213224411e-03
-1.085373306274414062e+01 -1.010333538055419922e+00 6.151668429374694824e-01
-9.167841911315917969e+00 -1.190389752388000488e+00 4.343566894531250000e-01
-9.159233093261718750e+00 -1.525849223136901855e+00 3.485966026782989502e-01
-9.345026969909667969e+00 -5.270698070526123047e-01 2.777947187423706055e-01
-8.937811851501464844e+00 -8.288407325744628906e-01 1.817545592784881592e-01
-6.922963619232177734e+00 -8.952198624610900879e-01 7.432187348604202271e-02
-5.514325618743896484e+00 -9.166609644889831543e-01 6.829471793025732040e-03
-1.084878730773925781e+01 -9.427664875984191895e-01 6.145470738410949707e-01
-9.188852310180664062e+00 -1.135830044746398926e+00 4.350137412548065186e-01
-9.182236671447753906e+00 -1.471834659576416016e+00 3.491218090057373047e-01
-9.355072975158691406e+00 -4.700710177421569824e-01 2.780023813247680664e-01
-8.909858703613281250e+00 -7.711388468742370605e-01 1.810864955186843872e-01
-6.926341533660888672e+00 -8.524802327156066895e-01 7.430058717727661133e-02
-5.542558193206787109e+00 -8.864407539367675781e-01 6.857572123408317566e-03
-1.151715373992919922e+01 -9.296829700469970703e-01 6.520724296569824219e-01
-9.225412368774414062e+00 -1.082920670509338379e+00 4.364217221736907959e-01
-9.180230140686035156e+00 -1.413792610168457031e+00 3.487091064453125000e-01
-9.385742187500000000e+00 -4.138935208320617676e-01 2.788330316543579102e-01
-9.078859329223632812e+00 -7.296702265739440918e-01 1.844268292188644409e-01
-6.937400341033935547e+00 -8.106612563133239746e-01 7.436446100473403931e-02
-5.484634876251220703e+00 -8.426962494850158691e-01 6.779381074011325836e-03
-1.104771709442138672e+01 -8.235925436019897461e-01 6.251961588859558105e-01
-9.209048271179199219e+00 -1.023755788803100586e+00 4.353422522544860840e-01
-9.156108856201171875e+00 -1.352617859840393066e+00 3.474710881710052490e-01
-9.403087615966796875e+00 -3.568645417690277100e-01 2.792780399322509766e-01
-9.109088897705078125e+00 -6.758731603622436523e-01 1.849531829357147217e-01
-7.037656784057617188e+00 -7.786352038383483887e-01 7.538650184869766235e-02
-5.517403125762939453e+00 -8.131095767021179199e-01 6.813589483499526978e-03
-1.105156612396240234e+01 -7.557213902473449707e-01 6.251397728919982910e-01
-9.223104476928710938e+00 -9.680650234222412109e-01 4.357177317142486572e-01
-9.186004638671875000e+00 -1.299490928649902344e+00 3.482964634895324707e-01
-9.397107124328613281e+00 -2.989073097705841064e-01 2.790406942367553711e-01
-9.105083465576171875e+00 -6.194251775741577148e-01 1.847912222146987915e-01
-6.871241569519042969e+00 -7.175742387771606445e-01 7.355534285306930542e-02
-5.559915542602539062e+00 -7.845496535301208496e-01 6.860015448182821274e-03
-1.109884452819824219e+01 -6.905620694160461426e-01 6.275626420974731445e-01
-9.237817764282226562e+00 -9.123384952545166016e-01 4.361401200294494629e-01
-9.183901786804199219e+00 -1.241763234138488770e+00 3.479212820529937744e-01
-9.424744606018066406e+00 -2.419089674949645996e-01 2.798120081424713135e-01
-9.000941276550292969e+00 -5.568780899047851562e-01 1.826048195362091064e-01
-6.933234214782714844e+00 -6.810694932937622070e-01 7.417282462120056152e-02
-5.541831493377685547e+00 -7.473460435867309570e-01 6.831915583461523056e-03
-9.413468360900878906e+00 -1.219046115875244141e+00 7.020513415336608887e-01
-1.321120166778564453e+01 -7.406447529792785645e-01 7.467307448387145996e-01
-9.245230674743652344e+00 -8.558232188224792480e-01 4.362339675426483154e-01
-9.203241348266601562e+00 -1.186922311782836914e+00 3.483714759349822998e-01
-9.412060737609863281e+00 -1.838020384311676025e-01 2.793966829776763916e-01
-9.144941329956054688e+00 -5.094804167747497559e-01 1.854592859745025635e-01
-6.943257331848144531e+00 -6.390650272369384766e-01 7.423670589923858643e-02
-5.633593559265136719e+00 -7.245534062385559082e-01 6.939427927136421204e-03
-1.282061862945556641e+01 -6.398604512214660645e-01 7.244184017181396484e-01
-9.248317718505859375e+00 -7.989075183868408203e-01 4.361401200294494629e-01
-9.237131118774414062e+00 -1.133716821670532227e+00 3.493844270706176758e-01
-9.408013343811035156e+00 -1.259803473949432373e-01 2.792483568191528320e-01
-9.209807395935058594e+00 -4.564267992973327637e-01 1.867144405841827393e-01
-6.847419738769531250e+00 -5.878962278366088867e-01 7.317207008600234985e-02
-5.657785415649414062e+00 -6.924021840095520020e-01 6.963862106204032898e-03
-1.224976730346679688e+01 -5.360413193702697754e-01 6.919640898704528809e-01
-9.249063491821289062e+00 -7.418264746665954590e-01 4.359523952007293701e-01
-9.252846717834472656e+00 -1.078058362007141113e+00 3.497220575809478760e-01
-9.429599761962890625e+00 -6.840375065803527832e-02 2.798713445663452148e-01
-9.107554435729980469e+00 -3.953550755977630615e-01 1.845887750387191772e-01
-6.872827529907226562e+00 -5.476174950599670410e-01 7.340629398822784424e-02
-5.714573383331298828e+00 -6.637887954711914062e-01 7.028614170849323273e-03
-1.156041908264160156e+01 -4.348244071006774902e-01 6.528612375259399414e-01
-9.278345108032226562e+00 -6.869050264358520508e-01 4.371256828308105469e-01
-9.251340866088867188e+00 -1.020387172698974609e+00 3.494219183921813965e-01
-9.442836761474609375e+00 -1.055805478245019913e-02 2.802570164203643799e-01
-9.038873672485351562e+00 -3.368214070796966553e-01 1.831514388322830200e-01
-6.949854850769042969e+00 -5.108608603477478027e-01 7.419411838054656982e-02
-5.730466842651367188e+00 -6.300237774848937988e-01 7.043275050818920135e-03
-1.143812942504882812e+01 -3.599572777748107910e-01 6.458181738853454590e-01
-9.268432617187500000e+00 -6.290143728256225586e-01 4.364686310291290283e-01
-9.258421897888183594e+00 -9.637063145637512207e-01 3.494594395160675049e-01
-9.440724372863769531e+00 4.737227037549018860e-02 2.801976799964904785e-01
-8.996799468994140625e+00 -2.799852192401885986e-01 1.822606623172760010e-01
-6.940886497497558594e+00 -4.674015343189239502e-01 7.406636327505111694e-02
-5.711347103118896484e+00 -5.924772024154663086e-01 7.015174720436334610e-03
-1.122154140472412109e+01 -2.842310070991516113e-01 6.334788203239440918e-01
-9.282087326049804688e+00 -5.727477073669433594e-01 4.369379580020904541e-01
-9.263166427612304688e+00 -9.067821502685546875e-01 3.494219183921813965e-01
-9.431261062622070312e+00 1.051982417702674866e-01 2.799307107925415039e-01
-9.012340545654296875e+00 -2.251261472702026367e-01 1.825440824031829834e-01
-6.895716190338134766e+00 -4.218733012676239014e-01 7.355534285306930542e-02
-5.529753684997558594e+00 -5.393654108047485352e-01 6.787932943552732468e-03
-1.181602096557617188e+01 -2.267502546310424805e-01 6.669473052024841309e-01
-9.298393249511718750e+00 -5.165033340454101562e-01 4.375481009483337402e-01
-9.267560958862304688e+00 -8.498361706733703613e-01 3.493844270706176758e-01
-9.444429397583007812e+00 1.633073240518569946e-01 2.803460359573364258e-01
-9.064533233642578125e+00 -1.707837581634521484e-01 1.835765689611434937e-01
-7.063914299011230469e+00 -3.886734545230865479e-01 7.532262802124023438e-02
-5.615615367889404297e+00 -5.129757523536682129e-01 6.889336742460727692e-03
-1.081087684631347656e+01 -1.411093026399612427e-01 6.101522445678710938e-01
-9.298394203186035156e+00 -4.592918753623962402e-01 4.374073147773742676e-01
-9.279570579528808594e+00 -7.935515046119689941e-01 3.496470451354980469e-01
-9.445248603820800781e+00 2.213010042905807495e-01 2.804053425788879395e-01
-9.092402458190917969e+00 -1.155044957995414734e-01 1.841231584548950195e-01
-6.997252941131591797e+00 -3.419549763202667236e-01 7.458803802728652954e-02
-5.448274135589599609e+00 -4.639987647533416748e-01 6.680421065539121628e-03
-1.355510807037353516e+01 -9.374681860208511353e-02 7.649863362312316895e-01
-9.308023452758789062e+00 -4.025314748287200928e-01 4.377358257770538330e-01
-9.295223236083984375e+00 -7.374675273895263672e-01 3.500596880912780762e-01
-9.452704429626464844e+00 2.795176804065704346e-01 2.806723415851593018e-01
-9.088941574096679688e+00 -5.968613177537918091e-02 1.840421855449676514e-01
-6.993225097656250000e+00 -2.987581193447113037e-01 7.452415674924850464e-02
-5.281546115875244141e+00 -4.171739518642425537e-01 6.472726818174123764e-03
-9.308321952819824219e+00 -3.453368544578552246e-01 4.376419782638549805e-01
-9.313525199890136719e+00 -6.814401149749755859e-01 3.505849242210388184e-01
-9.464796066284179688e+00 3.380125761032104492e-01 2.810876667499542236e-01
-9.098134994506835938e+00 -3.920187707990407944e-03 1.842243820428848267e-01
-7.078865051269531250e+00 -2.589129805564880371e-01 7.541844248771667480e-02
-5.830559253692626953e+00 -4.245567917823791504e-01 7.142234593629837036e-03
-1.258479595184326172e+01 6.740454584360122681e-02 7.102196812629699707e-01
-9.324243545532226562e+00 -2.886482775211334229e-01 4.382990300655364990e-01
-9.330493927001953125e+00 -6.251490712165832520e-01 3.510726392269134521e-01
-9.479521751403808594e+00 3.967917561531066895e-01 2.815920114517211914e-01
-9.131979942321777344e+00 5.209892243146896362e-02 1.849126964807510376e-01
-7.053334712982177734e+00 -2.146517336368560791e-01 7.513099163770675659e-02
-5.850017070770263672e+00 -3.899037241935729980e-01 7.163004484027624130e-03
-9.360789299011230469e+00 -2.322977036237716675e-01 4.399416446685791016e-01
-9.318194389343261719e+00 -5.669154524803161621e-01 3.504723608493804932e-01
-9.481901168823242188e+00 4.551891982555389404e-01 2.817403376102447510e-01
-9.188471794128417969e+00 1.088054925203323364e-01 1.860666126012802124e-01
-7.049520969390869141e+00 -1.712478399276733398e-01 7.507776468992233276e-02
-5.842317104339599609e+00 -3.533975481986999512e-01 7.150786928832530975e-03
-1.106167793273925781e+01 1.950135380029678345e-01 6.243509650230407715e-01
-9.378017425537109375e+00 -1.751550585031509399e-01 4.406925439834594727e-01
-9.327484130859375000e+00 -5.100568532943725586e-01 3.506974577903747559e-01
-9.479927062988281250e+00 5.134145021438598633e-01 2.817699909210205078e-01
-9.310586929321289062e+00 1.673934310674667358e-01 1.885566860437393188e-01
-7.048439502716064453e+00 -1.279532611370086670e-01 7.505647093057632446e-02
-5.681615829467773438e+00 -3.086998462677001953e-01 6.951644551008939743e-03
-1.225802898406982422e+01 2.913515567779541016e-01 6.919640898704528809e-01
-9.382910728454589844e+00 -1.176594272255897522e-01 4.408802390098571777e-01
-9.354393959045410156e+00 -4.539774060249328613e-01 3.515978455543518066e-01
-9.485578536987304688e+00 5.721142292022705078e-01 2.820370197296142578e-01
-9.297389984130859375e+00 2.242297083139419556e-01 1.883137524127960205e-01
-7.100085258483886719e+00 -8.531519025564193726e-02 7.559943199157714844e-02
-5.800267219543457031e+00 -2.794629633426666260e-01 7.094587199389934540e-03
-9.374466896057128906e+00 -6.002718582749366760e-02 4.404578804969787598e-01
-9.369981765747070312e+00 -3.971214592456817627e-01 3.520855307579040527e-01
-9.506823539733886719e+00 6.319633126258850098e-01 2.827786505222320557e-01
-9.282848358154296875e+00 2.808801233768463135e-01 1.880505830049514771e-01
-7.133472919464111328e+00 -4.194229096174240112e-02 7.595075666904449463e-02
-6.024675846099853516e+00 -2.532329261302947998e-01 7.367033045738935471e-03
-9.380652427673339844e+00 -2.507012570276856422e-03 4.407394826412200928e-01
-9.332296371459960938e+00 -3.381733596324920654e-01 3.505849242210388184e-01
-9.519715309143066406e+00 6.915153264999389648e-01 2.832829952239990234e-01
-9.295937538146972656e+00 3.383788764476776123e-01 1.883542537689208984e-01
-7.245589256286621094e+00 1.857372350059449673e-03 7.714314758777618408e-02
-5.661351680755615234e+00 -2.031709998846054077e-01 6.921101827174425125e-03
-9.411456108093261719e+00 5.523336306214332581e-02 4.421944022178649902e-01
-9.371152877807617188e+00 -2.820172905921936035e-01 3.519729971885681152e-01
-9.534225463867187500e+00 7.514063119888305664e-01 2.838466465473175049e-01
-9.314662933349609375e+00 3.963037729263305664e-01 1.887793838977813721e-01
-7.278439044952392578e+00 4.652636870741844177e-02 7.749447226524353027e-02
-5.783438205718994141e+00 -1.720272898674011230e-01 7.068931125104427338e-03
-9.401949882507324219e+00 1.128720045089721680e-01 4.417719542980194092e-01
-9.384695053100585938e+00 -2.247988283634185791e-01 3.524231612682342529e-01
-9.536407470703125000e+00 8.104856014251708984e-01 2.840543091297149658e-01
-9.295079231262207031e+00 4.526233375072479248e-01 1.884352266788482666e-01
-7.356006145477294922e+00 9.216227382421493530e-02 7.832488417625427246e-02
-5.769389152526855469e+00 -1.361835747957229614e-01 7.050605490803718567e-03
-9.390094757080078125e+00 1.703598499298095703e-01 4.412557184696197510e-01
-9.393891334533691406e+00 -1.673535853624343872e-01 3.527233302593231201e-01
-9.538223266601562500e+00 8.696199059486389160e-01 2.842619717121124268e-01
-9.295122146606445312e+00 5.098126530647277832e-01 1.884959638118743896e-01
-7.442281723022460938e+00 1.389197409152984619e-01 7.925111055374145508e-02
-5.791112899780273438e+00 -1.011474356055259705e-01 7.076261565089225769e-03
-9.396862030029296875e+00 2.281671762466430664e-01 4.416311979293823242e-01
-9.395740509033203125e+00 -1.097222790122032166e-01 3.527608513832092285e-01
-9.544645309448242188e+00 9.292913079261779785e-01 2.846179604530334473e-01
-9.334730148315429688e+00 5.694545507431030273e-01 1.893664598464965820e-01
-7.409300804138183594e+00 1.837886273860931396e-01 7.891043275594711304e-02
-5.827621936798095703e+00 -6.601974368095397949e-02 7.120243739336729050e-03
-1.020102310180664062e+01 3.103328943252563477e-01 4.795054197311401367e-01
-9.396237373352050781e+00 -5.206903442740440369e-02 3.527608513832092285e-01
-9.559642791748046875e+00 9.900009036064147949e-01 2.852409482002258301e-01
-9.252254486083984375e+00 6.214276552200317383e-01 1.877671629190444946e-01
-7.398039340972900391e+00 2.289385050535202026e-01 7.880397140979766846e-02
-5.869916915893554688e+00 -3.047896362841129303e-02 7.171556353569030762e-03
-1.014202785491943359e+01 3.708388507366180420e-01 4.768302738666534424e-01
-9.419363021850585938e+00 5.599838215857744217e-03 3.536236882209777832e-01
-9.557362556457519531e+00 1.049075365066528320e+00 2.853596210479736328e-01
-9.242283821105957031e+00 6.777479648590087891e-01 1.876456737518310547e-01
-7.586354255676269531e+00 2.813693583011627197e-01 8.082676678895950317e-02
-6.000993251800537109e+00 5.662350449711084366e-03 7.331603206694126129e-03
-1.320363044738769531e+01 1.045090198516845703e+00 7.474632859230041504e-01
-9.471906661987304688e+00 4.045465588569641113e-01 4.454326629638671875e-01
-9.412157058715820312e+00 6.334877759218215942e-02 3.533610999584197998e-01
-9.573582649230957031e+00 1.110347032546997070e+00 2.860419452190399170e-01
-9.243931770324707031e+00 7.349202632904052734e-01 1.877671629190444946e-01
-6.852210044860839844e+00 2.962533533573150635e-01 7.302302122116088867e-02
-5.824850082397460938e+00 4.123766720294952393e-02 7.116578519344329834e-03
-1.319398498535156250e+01 1.125831842422485352e+00 7.472941875457763672e-01
-9.465255737304687500e+00 4.624624848365783691e-01 4.452449679374694824e-01
-9.402598381042480469e+00 1.209837868809700012e-01 3.530234694480895996e-01
-9.586433410644531250e+00 1.171493530273437500e+00 2.866352796554565430e-01
-9.214344024658203125e+00 7.894923090934753418e-01 1.872610300779342651e-01
-7.058997154235839844e+00 3.486002385616302490e-01 7.524809986352920532e-02
-6.029469013214111328e+00 7.968657463788986206e-02 7.367033045738935471e-03
-9.482188224792480469e+00 5.216289162635803223e-01 4.461836218833923340e-01
-9.425657272338867188e+00 1.791304647922515869e-01 3.539237976074218750e-01
-6.025827884674072266e+00 7.739307880401611328e-01 1.803114265203475952e-01
-9.179458618164062500e+00 8.432717919349670410e-01 1.866537034511566162e-01
-7.324298381805419922e+00 4.067669510841369629e-01 7.810131460428237915e-02
-5.867897033691406250e+00 1.135658398270606995e-01 7.170334924012422562e-03
-9.476814270019531250e+00 5.796786546707153320e-01 4.460897147655487061e-01
-9.420384407043457031e+00 2.368613630533218384e-01 3.537737429141998291e-01
-6.026909828186035156e+00 8.116904497146606445e-01 1.804894357919692993e-01
-9.196996688842773438e+00 9.018240571022033691e-01 1.871193200349807739e-01
-7.561195373535156250e+00 4.664778709411621094e-01 8.065642416477203369e-02
-5.814107418060302734e+00 1.482177674770355225e-01 7.105583325028419495e-03
-9.955480575561523438e+00 1.034396767616271973e+00 5.648514628410339355e-01
-9.473078727722167969e+00 6.378163695335388184e-01 4.460897147655487061e-01
-9.439728736877441406e+00 2.953154742717742920e-01 3.545615673065185547e-01
-6.026764869689941406e+00 8.493530750274658203e-01 1.806377619504928589e-01
-9.282775878906250000e+00 9.677765965461730957e-01 1.889818161725997925e-01
-7.390585899353027344e+00 5.014908313751220703e-01 7.886785268783569336e-02
-5.887051105499267578e+00 1.862293779850006104e-01 7.195990998297929764e-03
-1.152092933654785156e+01 1.268551588058471680e+00 6.541007757186889648e-01
-9.481938362121582031e+00 6.968819499015808105e-01 4.466998577117919922e-01
-9.462704658508300781e+00 3.541654050350189209e-01 3.554995059967041016e-01
-9.651708602905273438e+00 1.420668482780456543e+00 2.895425558090209961e-01
-9.347218513488769531e+00 1.032510161399841309e+00 1.904191672801971436e-01
-7.174962520599365234e+00 5.311063528060913086e-01 7.660018652677536011e-02
-5.856818199157714844e+00 2.212533801794052124e-01 7.160560693591833115e-03
-9.504367828369140625e+00 7.571907639503479004e-01 4.479669928550720215e-01
-9.477324485778808594e+00 4.129602909088134766e-01 3.561372458934783936e-01
-9.663557052612304688e+00 1.483047604560852051e+00 2.901655435562133789e-01
-9.364541053771972656e+00 1.092625021934509277e+00 1.909050345420837402e-01
-7.650005340576171875e+00 6.134891510009765625e-01 8.171041309833526611e-02
-5.963246345520019531e+00 2.619251310825347900e-01 7.292507681995630264e-03
-9.493572235107421875e+00 8.149816393852233887e-01 4.476854205131530762e-01
-9.473614692687988281e+00 4.710547029972076416e-01 3.560997545719146729e-01
-9.644405364990234375e+00 1.540737390518188477e+00 2.898688912391662598e-01
-9.334836959838867188e+00 1.147259235382080078e+00 1.904394179582595825e-01
-7.466774940490722656e+00 6.449285149574279785e-01 7.979407906532287598e-02
-6.107344150543212891e+00 3.058114647865295410e-01 7.470880169421434402e-03
-9.511270523071289062e+00 8.753231763839721680e-01 4.487648606300354004e-01
-9.477530479431152344e+00 5.295650959014892578e-01 3.563623428344726562e-01
-9.659421920776367188e+00 1.603978753089904785e+00 2.906105518341064453e-01
-6.035636901855468750e+00 7.794072031974792480e-01 1.232278943061828613e-01
-7.208776950836181641e+00 6.672311425209045410e-01 7.707926630973815918e-02
-6.108348369598388672e+00 3.434480726718902588e-01 7.474545855075120926e-03
-9.546480178833007812e+00 9.376701712608337402e-01 4.506890773773193359e-01
-9.507016181945800781e+00 5.897498726844787598e-01 3.576003611087799072e-01
-9.685843467712402344e+00 1.669499635696411133e+00 2.917081713676452637e-01
-6.041639328002929688e+00 8.179019093513488770e-01 1.234505847096443176e-01
-7.247336864471435547e+00 7.156762480735778809e-01 7.753705978393554688e-02
-5.592124938964843750e+00 3.488565385341644287e-01 6.845354568213224411e-03
-1.345773983001708984e+01 1.901243209838867188e+00 7.670147418975830078e-01
-9.537566184997558594e+00 9.959173798561096191e-01 4.505482912063598633e-01
-9.510196685791015625e+00 6.485486626625061035e-01 3.578629791736602783e-01
-9.676402091979980469e+00 1.729075312614440918e+00 2.917378544807434082e-01
-6.012749195098876953e+00 8.515924215316772461e-01 1.229647099971771240e-01
-7.262698650360107422e+00 7.622190117835998535e-01 7.774998992681503296e-02
-5.571921348571777344e+00 3.819316625595092773e-01 6.823363248258829117e-03
-9.551133155822753906e+00 1.056616783142089844e+00 4.514869451522827148e-01
-9.505042076110839844e+00 7.068157792091369629e-01 3.578254580497741699e-01
-9.688216209411621094e+00 1.792598843574523926e+00 2.924201786518096924e-01
-9.377059936523437500e+00 1.386826395988464355e+00 1.919375211000442505e-01
-7.177385330200195312e+00 7.978196144104003906e-01 7.688762992620468140e-02
-6.223649501800537109e+00 4.649887681007385254e-01 7.624818012118339539e-03
-9.568280220031738281e+00 1.117983698844909668e+00 4.526132941246032715e-01
-9.533395767211914062e+00 7.677715420722961426e-01 3.590634763240814209e-01
-9.698633193969726562e+00 1.856144428253173828e+00 2.930728495121002197e-01
-9.452363014221191406e+00 1.457285642623901367e+00 1.936582773923873901e-01
-7.156465053558349609e+00 8.399791717529296875e-01 7.671729475259780884e-02
-6.170842170715332031e+00 4.991364777088165283e-01 7.563732098788022995e-03
-9.581068992614746094e+00 1.179112792015075684e+00 4.535519480705261230e-01
-9.533483505249023438e+00 8.266845345497131348e-01 3.592510521411895752e-01
-9.693925857543945312e+00 1.916976571083068848e+00 2.932805120944976807e-01
-9.535050392150878906e+00 1.529988050460815430e+00 1.955410242080688477e-01
-6.123057842254638672e+00 7.568007111549377441e-01 6.568771600723266602e-02
-6.152719497680664062e+00 5.356895923614501953e-01 7.545405533164739609e-03
-9.562757492065429688e+00 1.236469864845275879e+00 4.530357122421264648e-01
-9.527236938476562500e+00 8.850729465484619141e-01 3.592135608196258545e-01
-9.748577117919921875e+00 1.990015864372253418e+00 2.952978014945983887e-01
-9.512663841247558594e+00 1.586327433586120605e+00 1.952778548002243042e-01
-6.016162395477294922e+00 7.810961604118347168e-01 6.459114700555801392e-02
-6.188148498535156250e+00 5.770529508590698242e-01 7.593053393065929413e-03
-6.047963142395019531e+00 8.197657465934753418e-01 2.867552042007446289e-01
-9.568365097045898438e+00 9.481456279754638672e-01 3.609767854213714600e-01
-9.744009017944335938e+00 2.051442146301269531e+00 2.955351471900939941e-01
-9.567770957946777344e+00 1.655919313430786133e+00 1.966139823198318481e-01
-6.034044742584228516e+00 8.210968971252441406e-01 6.483601033687591553e-02
-6.191456794738769531e+00 6.157045364379882812e-01 7.601605262607336044e-03
-9.609170913696289062e+00 1.362561583518981934e+00 4.559924006462097168e-01
-9.583236694335937500e+00 1.009035587310791016e+00 3.617646098136901855e-01
-9.740029335021972656e+00 2.113098859786987305e+00 2.958021461963653564e-01
-9.674535751342773438e+00 1.735603570938110352e+00 1.990230530500411987e-01
-6.032853126525878906e+00 8.586692810058593750e-01 6.487859785556793213e-02
-6.144800662994384766e+00 6.491654515266418457e-01 7.549071218818426132e-03
-9.639165878295898438e+00 1.427202463150024414e+00 4.578227400779724121e-01
-9.582823753356933594e+00 1.068482637405395508e+00 3.619897067546844482e-01
-9.769802093505859375e+00 2.182410955429077148e+00 2.971074581146240234e-01
-9.677465438842773438e+00 1.797488808631896973e+00 1.993064731359481812e-01
-7.730671882629394531e+00 1.148762226104736328e+00 8.321154117584228516e-02
-6.119832038879394531e+00 6.845226883888244629e-01 7.523415144532918930e-03
-9.651946067810058594e+00 1.489672541618347168e+00 4.588552713394165039e-01
-9.585019111633300781e+00 1.128313064575195312e+00 3.623273372650146484e-01
-9.804935455322265625e+00 2.253510951995849609e+00 2.985907495021820068e-01
-9.680000305175781250e+00 1.859475255012512207e+00 1.995899081230163574e-01
-7.773873805999755859e+00 1.203980207443237305e+00 8.375450223684310913e-02
-6.172122955322265625e+00 7.287439107894897461e-01 7.593053393065929413e-03
-9.701799392700195312e+00 1.558372974395751953e+00 4.616712033748626709e-01
-9.591800689697265625e+00 1.188825249671936035e+00 3.628526031970977783e-01
-9.807461738586425781e+00 2.317538499832153320e+00 2.990950942039489746e-01
-9.642910957336425781e+00 1.913775324821472168e+00 1.990635395050048828e-01
-7.944036483764648438e+00 1.280295491218566895e+00 8.567083626985549927e-02
-6.009749412536621094e+00 7.469894886016845703e-01 7.398798130452632904e-03
-9.838858604431152344e+00 1.642378330230712891e+00 4.686640501022338867e-01
-6.047677040100097656e+00 7.872674465179443359e-01 2.289587706327438354e-01
-9.824138641357421875e+00 2.385218858718872070e+00 3.000443875789642334e-01
-9.645678520202636719e+00 1.975916743278503418e+00 1.993672251701354980e-01
-7.882776260375976562e+00 1.320096731185913086e+00 8.509594202041625977e-02
-5.979271888732910156e+00 7.804852724075317383e-01 7.367033045738935471e-03
-9.815801620483398438e+00 1.700500965118408203e+00 4.680539667606353760e-01
-6.028871059417724609e+00 8.224694132804870605e-01 2.284335494041442871e-01
-9.828716278076171875e+00 2.450289487838745117e+00 3.006377518177032471e-01
-9.752714157104492188e+00 2.060275316238403320e+00 2.018370330333709717e-01
-7.801624298095703125e+00 1.355770468711853027e+00 8.430811017751693726e-02
-5.721722602844238281e+00 7.826021909713745117e-01 7.055491674691438675e-03
-9.815997123718261719e+00 1.762639522552490234e+00 4.685702025890350342e-01
-9.628638267517089844e+00 1.373787522315979004e+00 3.651410341262817383e-01
-9.837705612182617188e+00 2.516744613647460938e+00 3.013793826103210449e-01
-9.743797302246093750e+00 2.120928764343261719e+00 2.019180208444595337e-01
-7.588464260101318359e+00 1.366747617721557617e+00 8.209367841482162476e-02
-5.914798259735107422e+00 8.460137844085693359e-01 7.299838121980428696e-03
-9.850172996520996094e+00 1.831234812736511230e+00 4.707291126251220703e-01
-9.637818336486816406e+00 1.435491681098937988e+00 3.658163249492645264e-01
-9.856884956359863281e+00 2.586192607879638672e+00 3.024473786354064941e-01
-9.730600357055664062e+00 2.180675506591796875e+00 2.019180208444595337e-01
-8.025235176086425781e+00 1.496310353279113770e+00 8.691646158695220947e-02
-6.123127937316894531e+00 9.141857624053955078e-01 7.563732098788022995e-03
-1.004082298278808594e+01 1.930490970611572266e+00 4.803970754146575928e-01
-9.637716293334960938e+00 1.495980620384216309e+00 3.661539554595947266e-01
-9.882336616516113281e+00 2.657787322998046875e+00 3.037230372428894043e-01
-9.643967628479003906e+00 2.223493814468383789e+00 2.003996819257736206e-01
-7.989392757415771484e+00 1.540412664413452148e+00 8.662900328636169434e-02
-5.967210292816162109e+00 9.283725023269653320e-01 7.378029171377420425e-03
-1.006014156341552734e+01 1.998291611671447754e+00 4.818989336490631104e-01
-9.618490219116210938e+00 1.553495049476623535e+00 3.657787740230560303e-01
-9.888006210327148438e+00 2.724481105804443359e+00 3.044053614139556885e-01
-9.781906127929687500e+00 2.318598508834838867e+00 2.035578191280364990e-01
-7.663031578063964844e+00 1.526313900947570801e+00 8.319025486707687378e-02
-5.860712051391601562e+00 9.486705660820007324e-01 7.253412157297134399e-03
-1.059958934783935547e+01 2.173132419586181641e+00 5.083686709403991699e-01
-9.611734390258789062e+00 1.612979888916015625e+00 3.658913373947143555e-01
-9.886495590209960938e+00 2.789444208145141602e+00 3.048799932003021240e-01
-9.737381935119628906e+00 2.371242284774780273e+00 2.029302269220352173e-01
-8.310741424560546875e+00 1.708406686782836914e+00 9.033392369747161865e-02
-6.144709110260009766e+00 1.033371329307556152e+00 7.612601388245820999e-03
-1.087728881835937500e+01 2.299702644348144531e+00 5.223544239997863770e-01
-9.688290596008300781e+00 1.687011718750000000e+00 3.691927492618560791e-01
-9.887439727783203125e+00 2.855323314666748047e+00 3.054436743259429932e-01
-9.684822082519531250e+00 2.421487331390380859e+00 2.021407037973403931e-01
-8.324557304382324219e+00 1.764551997184753418e+00 9.060008078813552856e-02
-6.297841072082519531e+00 1.098901510238647461e+00 7.810520939528942108e-03
-1.119188880920410156e+01 2.438052415847778320e+00 5.381705760955810547e-01
-9.614818572998046875e+00 1.735068440437316895e+00 3.667917251586914062e-01
-9.896574020385742188e+00 2.923867702484130859e+00 3.062743246555328369e-01
-9.769529342651367188e+00 2.506457805633544922e+00 2.042258828878402710e-01
-8.093767166137695312e+00 1.767593979835510254e+00 8.820466697216033936e-02
-6.314597129821777344e+00 1.141794085502624512e+00 7.839842699468135834e-03
-1.190535736083984375e+01 3.127962589263916016e+00 6.946686506271362305e-01
-1.106170558929443359e+01 2.480884075164794922e+00 5.326325893402099609e-01
-9.643283843994140625e+00 1.801370978355407715e+00 3.682923614978790283e-01
-9.928202629089355469e+00 2.999569416046142578e+00 3.078169524669647217e-01
-9.770403861999511719e+00 2.570680141448974609e+00 2.045700401067733765e-01
-8.458371162414550781e+00 1.901668429374694824e+00 9.230348467826843262e-02
-6.098108291625976562e+00 1.141333222389221191e+00 7.579614408314228058e-03
-1.090514278411865234e+01 2.516147136688232422e+00 5.258274078369140625e-01
-9.724278450012207031e+00 1.878321886062622070e+00 3.718188405036926270e-01
-9.950678825378417969e+00 3.073114156723022461e+00 3.090926110744476318e-01
-9.850977897644042969e+00 2.656614542007446289e+00 2.065944969654083252e-01
-8.283847808837890625e+00 1.915903687477111816e+00 9.052555263042449951e-02
-6.387489318847656250e+00 1.236107468605041504e+00 7.948577404022216797e-03
-1.312785243988037109e+01 3.113954782485961914e+00 6.339120864868164062e-01
-9.740989685058593750e+00 1.943624138832092285e+00 3.729068040847778320e-01
-9.954512596130371094e+00 3.141332149505615234e+00 3.098046183586120605e-01
-9.808471679687500000e+00 2.709820270538330078e+00 2.060478776693344116e-01
-8.371164321899414062e+00 1.990288376808166504e+00 9.161148220300674438e-02
-6.391551017761230469e+00 1.277629256248474121e+00 7.963237352669239044e-03
-1.122185325622558594e+01 2.734685182571411133e+00 5.426760315895080566e-01
-9.756285667419433594e+00 2.009000301361083984e+00 3.739572465419769287e-01
-9.949319839477539062e+00 3.206952333450317383e+00 3.102495968341827393e-01
-9.840723037719726562e+00 2.783832550048828125e+00 2.070803344249725342e-01
-8.105262756347656250e+00 1.979690909385681152e+00 8.883279561996459961e-02
-6.360086441040039062e+00 1.311974406242370605e+00 7.933916524052619934e-03
-1.262351799011230469e+01 3.158441543579101562e+00 6.113846302032470703e-01
-9.750617027282714844e+00 2.070278882980346680e+00 3.742198646068572998e-01
-9.977878570556640625e+00 3.283876419067382812e+00 3.117625713348388672e-01
-9.901246070861816406e+00 2.866683721542358398e+00 2.087201476097106934e-01
-8.199652671813964844e+00 2.056140184402465820e+00 9.000388532876968384e-02
-6.561234474182128906e+00 1.395493745803833008e+00 8.195365779101848602e-03
-1.258067989349365234e+01 3.229876995086669922e+00 6.102582216262817383e-01
-9.762135505676269531e+00 2.135406970977783203e+00 3.751577436923980713e-01
-9.982176780700683594e+00 3.353313684463500977e+00 3.125339150428771973e-01
-9.906476974487304688e+00 2.934197187423706055e+00 2.092060148715972900e-01
-8.195597648620605469e+00 2.108655929565429688e+00 9.009969979524612427e-02
-6.489054679870605469e+00 1.421814322471618652e+00 8.115953765809535980e-03
-1.243118381500244141e+01 3.272929906845092773e+00 6.039693355560302734e-01
-9.781021118164062500e+00 2.202510595321655273e+00 3.763957917690277100e-01
-1.000774478912353516e+01 3.430381298065185547e+00 3.139875531196594238e-01
-9.921776771545410156e+00 3.005070209503173828e+00 2.099145650863647461e-01
-8.424219131469726562e+00 2.222678184509277344e+00 9.276127815246582031e-02
-6.411923885345458984e+00 1.446202158927917480e+00 8.030433207750320435e-03
-1.248609066009521484e+01 3.369444131851196289e+00 6.076300740242004395e-01
-9.787766456604003906e+00 2.267220020294189453e+00 3.771836161613464355e-01
-1.001858806610107422e+01 3.502939701080322266e+00 3.149961829185485840e-01
-9.915567398071289062e+00 3.069736480712890625e+00 2.101777493953704834e-01
-8.323548316955566406e+00 2.250833988189697266e+00 9.180311113595962524e-02
-6.099001884460449219e+00 1.415004849433898926e+00 7.649252656847238541e-03
-1.244496250152587891e+01 3.440404415130615234e+00 6.066445112228393555e-01
-9.797000885009765625e+00 2.332789182662963867e+00 3.780839741230010986e-01
-1.004304027557373047e+01 3.580795764923095703e+00 3.164498507976531982e-01
-9.946114540100097656e+00 3.146199226379394531e+00 2.112304717302322388e-01
-8.484965324401855469e+00 2.350447893142700195e+00 9.374073892831802368e-02
-6.366457462310791016e+00 1.518282055854797363e+00 7.996223866939544678e-03
-1.241785144805908203e+01 3.515068292617797852e+00 6.063629388809204102e-01
-9.811624526977539062e+00 2.399981737136840820e+00 3.792094588279724121e-01
-1.004436588287353516e+01 3.650887727737426758e+00 3.171914815902709961e-01
-9.951356887817382812e+00 3.215159893035888672e+00 2.117568105459213257e-01
-8.129836082458496094e+00 2.305876731872558594e+00 8.997194468975067139e-02
-6.279319286346435547e+00 1.538282155990600586e+00 7.898485288023948669e-03
-1.275776100158691406e+01 3.695986270904541016e+00 6.240563392639160156e-01
-9.817066192626953125e+00 2.465250492095947266e+00 3.799972832202911377e-01
-1.005458068847656250e+01 3.724602460861206055e+00 3.182297945022583008e-01
-9.949481964111328125e+00 3.282110691070556641e+00 2.121414542198181152e-01
-8.539990425109863281e+00 2.478924751281738281e+00 9.467761963605880737e-02
-6.620830535888671875e+00 1.665072441101074219e+00 8.340751752257347107e-03
-1.272430706024169922e+01 3.771074295043945312e+00 6.235400438308715820e-01
-9.839494705200195312e+00 2.535164117813110352e+00 3.814603984355926514e-01
-1.006239891052246094e+01 3.797873973846435547e+00 3.192088007926940918e-01
-9.953791618347167969e+00 3.351392507553100586e+00 2.126678079366683960e-01
-7.674361705780029297e+00 2.278805255889892578e+00 8.523434400558471680e-02
-6.447817325592041016e+00 1.663692474365234375e+00 8.135501295328140259e-03
-1.382036209106445312e+01 4.188328266143798828e+00 6.784975528717041016e-01
-9.852739334106445312e+00 2.603148460388183594e+00 3.825858831405639648e-01
-1.004823589324951172e+01 3.863131046295166016e+00 3.195054531097412109e-01
-9.976536750793457031e+00 3.427347421646118164e+00 2.135990560054779053e-01
-8.364448547363281250e+00 2.539669275283813477e+00 9.307002276182174683e-02
-6.435554504394531250e+00 1.702712655067443848e+00 8.133058436214923859e-03
-1.384115695953369141e+01 4.287532329559326172e+00 6.807972192764282227e-01
-9.872269630432128906e+00 2.673218488693237305e+00 3.839739561080932617e-01
-1.009228897094726562e+01 3.951315402984619141e+00 3.216710984706878662e-01
-1.001098823547363281e+01 3.508004903793334961e+00 2.147934883832931519e-01
-8.331517219543457031e+00 2.585609674453735352e+00 9.287838637828826904e-02
-6.527291297912597656e+00 1.769909143447875977e+00 8.262561634182929993e-03
-1.368888092041015625e+01 4.332592010498046875e+00 6.746022105216979980e-01
-9.869162559509277344e+00 2.737482547760009766e+00 3.844991922378540039e-01
-1.010128021240234375e+01 4.026490211486816406e+00 3.227390944957733154e-01
-1.000810432434082031e+01 3.576093435287475586e+00 2.151983529329299927e-01
-8.567133903503417969e+00 2.716472148895263672e+00 9.568902105093002319e-02
-6.564484119415283203e+00 1.823307514190673828e+00 8.323648013174533844e-03
-1.410685825347900391e+01 4.560299873352050781e+00 6.965664625167846680e-01
-9.871404647827148438e+00 2.803447008132934570e+00 3.852494657039642334e-01
-1.009953975677490234e+01 4.097789764404296875e+00 3.234807252883911133e-01
-1.002355003356933594e+01 3.651122093200683594e+00 2.160081416368484497e-01
-8.585502624511718750e+00 2.780386686325073242e+00 9.608293324708938599e-02
-6.647435665130615234e+00 1.890357971191406250e+00 8.443377912044525146e-03
-1.390217781066894531e+01 4.588538646697998047e+00 6.878370642662048340e-01
-9.878007888793945312e+00 2.870936632156372070e+00 3.861874043941497803e-01
-1.017583560943603516e+01 4.201645374298095703e+00 3.267440497875213623e-01
-1.005813407897949219e+01 3.733781337738037109e+00 2.172430604696273804e-01
-8.673663139343261719e+00 2.867857694625854492e+00 9.726466983556747437e-02
-6.655874729156494141e+00 1.936978220939636230e+00 8.469033986330032349e-03
-1.395611858367919922e+01 4.701498508453369141e+00 6.919201612472534180e-01
-9.900435447692871094e+00 2.943453311920166016e+00 3.877630531787872314e-01
-1.019041061401367188e+01 4.281038284301757812e+00 3.280493319034576416e-01
-1.005654239654541016e+01 3.803561449050903320e+00 2.177086770534515381e-01
-8.530839920043945312e+00 2.878820419311523438e+00 9.585935622453689575e-02
-6.477097034454345703e+00 1.928137302398681641e+00 8.256453089416027069e-03
-1.363322067260742188e+01 4.686061859130859375e+00 6.773242950439453125e-01
-9.921388626098632812e+00 3.016062498092651367e+00 3.893012106418609619e-01
-1.019244480133056641e+01 4.355661392211914062e+00 3.289690017700195312e-01
-1.006380271911621094e+01 3.877056360244750977e+00 2.183767408132553101e-01
-8.497887611389160156e+00 2.925901889801025391e+00 9.568902105093002319e-02
-5.929411888122558594e+00 1.804778814315795898e+00 7.572283968329429626e-03
-1.281239128112792969e+01 4.492013931274414062e+00 6.379013061523437500e-01
-9.943729400634765625e+00 3.089632034301757812e+00 3.909143507480621338e-01
-1.020311164855957031e+01 4.434454441070556641e+00 3.301852941513061523e-01
-1.009566783905029297e+01 3.960641860961914062e+00 2.195914089679718018e-01
-8.655257225036621094e+00 3.039616107940673828e+00 9.766922891139984131e-02
-5.852340698242187500e+00 1.820630431175231934e+00 7.487984374165534973e-03
-1.334800529479980469e+01 4.771968841552734375e+00 6.660136580467224121e-01
-9.928395271301269531e+00 3.151797056198120117e+00 3.910644352436065674e-01
-1.020039558410644531e+01 4.507885456085205078e+00 3.309862911701202393e-01
-1.013802623748779297e+01 4.049213886260986328e+00 2.210490107536315918e-01
-8.415213584899902344e+00 3.013445138931274414e+00 9.516733884811401367e-02
-6.703542709350585938e+00 2.130634546279907227e+00 8.593650534749031067e-03
-1.400734424591064453e+01 5.104832649230957031e+00 7.004618048667907715e-01
-9.933584213256835938e+00 3.220670461654663086e+00 3.920398652553558350e-01
-1.023545646667480469e+01 4.598654270172119141e+00 3.330332934856414795e-01
-1.013521862030029297e+01 4.120380401611328125e+00 2.215348780155181885e-01
-8.389989852905273438e+00 3.062623023986816406e+00 9.509281814098358154e-02
-6.493456363677978516e+00 2.107815980911254883e+00 8.340751752257347107e-03
-1.288297939300537109e+01 4.784819602966308594e+00 6.456919908523559570e-01
-9.952530860900878906e+00 3.294435977935791016e+00 3.935779929161071777e-01
-1.024614334106445312e+01 4.679226398468017578e+00 3.343089222908020020e-01
-1.013746070861816406e+01 4.193957328796386719e+00 2.221422046422958374e-01
-8.494750022888183594e+00 3.160065650939941406e+00 9.649813175201416016e-02
-6.432939529418945312e+00 2.131890535354614258e+00 8.279666304588317871e-03
-1.339897918701171875e+01 5.070235729217529297e+00 6.731003522872924805e-01
-9.954851150512695312e+00 3.363117694854736328e+00 3.944783806800842285e-01
-1.026710605621337891e+01 4.765151023864746094e+00 3.359405696392059326e-01
-1.022395801544189453e+01 4.303400516510009766e+00 2.246120274066925049e-01
-8.576185226440429688e+00 3.250402688980102539e+00 9.764794260263442993e-02
-6.703921794891357422e+00 2.267440795898437500e+00 8.646184578537940979e-03
-1.334617805480957031e+01 5.144092082977294922e+00 6.720209121704101562e-01
-9.971817970275878906e+00 3.437161922454833984e+00 3.959789872169494629e-01
-1.026841259002685547e+01 4.842555522918701172e+00 3.369492292404174805e-01
-1.023871994018554688e+01 4.383760929107666016e+00 2.255230247974395752e-01
-8.520630836486816406e+00 3.289279460906982422e+00 9.724337607622146606e-02
