-3.557063102722167969e+00 -1.348848819732666016e+00 7.703007757663726807e-02
-8.839615821838378906e+00 -3.722528696060180664e+00 1.021193787455558777e-01
-7.117173194885253906e+00 -3.304719924926757812e+00 9.586917236447334290e-03
-8.293574333190917969e+00 -3.833102464675903320e+00 2.402035713195800781e+00
-8.772696495056152344e+00 -3.661661624908447266e+00 2.215662002563476562e+00
-8.237547874450683594e+00 -3.798487663269042969e+00 2.027641534805297852e+00
-1.081093311309814453e+01 -4.045335769653320312e+00 2.361042261123657227e+00
-8.729231834411621094e+00 -3.636365890502929688e+00 1.841554999351501465e+00
-8.205096244812011719e+00 -3.774844408035278320e+00 1.670680761337280273e+00
-1.127233982086181641e+01 -4.213504314422607422e+00 2.005180120468139648e+00
-8.613018035888671875e+00 -3.586190462112426758e+00 1.464341759681701660e+00
-8.147057533264160156e+00 -3.741253852844238281e+00 1.322239756584167480e+00
-1.215197372436523438e+01 -4.041319370269775391e+00 1.783863663673400879e+00
-1.003759098052978516e+01 -3.747972726821899414e+00 1.387767791748046875e+00
-8.600686073303222656e+00 -3.572252273559570312e+00 1.118756771087646484e+00
-8.212566375732421875e+00 -3.766130447387695312e+00 9.990618228912353516e-01
-1.186034679412841797e+01 -3.939737319946289062e+00 1.280477046966552734e+00
-9.857277870178222656e+00 -3.676724910736083984e+00 9.778239130973815918e-01
-8.558293342590332031e+00 -3.551142215728759766e+00 7.731851339340209961e-01
-1.204007625579833984e+01 -3.994773149490356445e+00 8.358981013298034668e-01
-3.552391052246093750e+00 -1.323615193367004395e+00 2.139392346143722534e-01
-8.857567787170410156e+00 -3.671698093414306641e+00 4.505013823509216309e-01
-8.425255775451660156e+00 -3.852992773056030273e+00 3.478087782859802246e-01
-1.018113422393798828e+01 -3.376023054122924805e+00 3.183484971523284912e-01
-3.530603885650634766e+00 -1.314093947410583496e+00 7.628104090690612793e-02
-1.080530643463134766e+01 -4.472459793090820312e+00 1.245085746049880981e-01
-7.070008754730224609e+00 -3.230235099792480469e+00 9.496509097516536713e-03
-8.446352958679199219e+00 -3.840993881225585938e+00 2.439412593841552734e+00
-9.024763107299804688e+00 -3.702015161514282227e+00 2.273544788360595703e+00
-8.383343696594238281e+00 -3.803515195846557617e+00 2.057745218276977539e+00
-1.091280364990234375e+01 -4.007292747497558594e+00 2.377875328063964844e+00
-8.870377540588378906e+00 -3.631452560424804688e+00 1.866595745086669922e+00
-8.302456855773925781e+00 -3.758083581924438477e+00 1.685777902603149414e+00
-1.130816841125488281e+01 -4.147995471954345703e+00 2.006987810134887695e+00
-8.771094322204589844e+00 -3.589019775390625000e+00 1.487444996833801270e+00
-8.329435348510742188e+00 -3.763290882110595703e+00 1.348065972328186035e+00
-1.124857711791992188e+01 -4.121682643890380859e+00 1.551669239997863770e+00
-8.745621681213378906e+00 -3.569689750671386719e+00 1.134739160537719727e+00
-8.299845695495605469e+00 -3.744690656661987305e+00 1.006865262985229492e+00
-1.236485385894775391e+01 -4.023252010345458984e+00 1.332254648208618164e+00
-1.130278587341308594e+01 -4.137071132659912109e+00 1.118676424026489258e+00
-8.180537223815917969e+00 -3.685707330703735352e+00 6.636222004890441895e-01
-1.226174831390380859e+01 -3.984971046447753906e+00 8.495744466781616211e-01
-3.564196586608886719e+00 -1.303164601325988770e+00 2.141646146774291992e-01
-9.104725837707519531e+00 -3.708851575851440430e+00 4.619058370590209961e-01
-8.459673881530761719e+00 -3.806143760681152344e+00 3.482589125633239746e-01
-1.017884159088134766e+01 -3.306078672409057617e+00 3.176364898681640625e-01
-3.512305259704589844e+00 -1.282801985740661621e+00 7.571419328451156616e-02
-1.093535995483398438e+01 -4.447894573211669922e+00 1.256903111934661865e-01
-6.878090858459472656e+00 -3.091677665710449219e+00 9.213067591190338135e-03
-8.617192268371582031e+00 -3.855051517486572266e+00 2.481874704360961914e+00
-9.505273818969726562e+00 -3.831156253814697266e+00 2.388629436492919922e+00
-8.543766021728515625e+00 -3.813258409500122070e+00 2.091339349746704102e+00
-1.104410648345947266e+01 -3.978776931762695312e+00 2.401120901107788086e+00
-8.941668510437011719e+00 -3.596737146377563477e+00 1.876917958259582520e+00
-8.501424789428710938e+00 -3.785467386245727539e+00 1.721428751945495605e+00
-1.134825706481933594e+01 -4.083876132965087891e+00 2.009617567062377930e+00
-8.976271629333496094e+00 -3.608835935592651367e+00 1.518455982208251953e+00
-8.424692153930664062e+00 -3.744254350662231445e+00 1.359738707542419434e+00
-1.127272129058837891e+01 -4.052249431610107422e+00 1.551540732383728027e+00
-9.013405799865722656e+00 -3.614631652832031250e+00 1.166584253311157227e+00
-8.441679000854492188e+00 -3.746512174606323242e+00 1.021263241767883301e+00
-1.234665393829345703e+01 -3.933717250823974609e+00 1.327668070793151855e+00
-1.132514667510986328e+01 -4.066631317138671875e+00 1.118398785591125488e+00
-9.040631294250488281e+00 -3.621887207031250000e+00 8.126842975616455078e-01
-1.316360664367675781e+01 -4.188942432403564453e+00 9.102630615234375000e-01
-1.135261249542236328e+01 -4.072020530700683594e+00 6.806389689445495605e-01
-9.131021499633789062e+00 -3.654401063919067383e+00 4.620935916900634766e-01
-8.510283470153808594e+00 -3.766297101974487305e+00 3.493844270706176758e-01
-1.021131801605224609e+01 -3.247498273849487305e+00 3.180221319198608398e-01
-3.517286539077758789e+00 -1.260215044021606445e+00 7.565346360206604004e-02
-1.098658752441406250e+01 -4.390359878540039062e+00 1.259671151638031006e-01
-6.955465316772460938e+00 -3.075296401977539062e+00 9.291258640587329865e-03
-8.807991981506347656e+00 -3.875724077224731445e+00 2.529930591583251953e+00
-9.844622611999511719e+00 -3.897886276245117188e+00 2.467849254608154297e+00
-8.724277496337890625e+00 -3.829803705215454102e+00 2.129732608795166016e+00
-9.411792755126953125e+00 -3.718912601470947266e+00 1.970773458480834961e+00
-8.641587257385253906e+00 -3.784512996673583984e+00 1.745074868202209473e+00
-1.137682247161865234e+01 -4.015480995178222656e+00 2.010275125503540039e+00
-9.260116577148437500e+00 -3.657111644744873047e+00 1.562646746635437012e+00
-8.568976402282714844e+00 -3.745586156845092773e+00 1.379290699958801270e+00
-1.132449722290039062e+01 -3.992567539215087891e+00 1.555265784263610840e+00
-9.123173713684082031e+00 -3.593828678131103516e+00 1.177914977073669434e+00
-8.628478050231933594e+00 -3.766215085983276367e+00 1.041046619415283203e+00
-1.138181686401367188e+01 -4.008309841156005859e+00 1.121545314788818359e+00
-9.243512153625488281e+00 -3.637505769729614258e+00 8.288997411727905273e-01
-8.651171684265136719e+00 -3.770729303359985352e+00 6.979944705963134766e-01
-1.312237358093261719e+01 -4.087321281433105469e+00 9.056604504585266113e-01
-1.136231422424316406e+01 -3.996984004974365234e+00 6.797373890876770020e-01
-9.378246307373046875e+00 -3.686746358871459961e+00 4.734511375427246094e-01
-8.636771202087402344e+00 -3.759072303771972656e+00 3.536236882209777832e-01
-1.022341823577880859e+01 -3.182404994964599609e+00 3.177848458290100098e-01
-1.027678966522216797e+01 -3.611092329025268555e+00 2.205631434917449951e-01
-1.119761943817138672e+01 -4.395205020904541016e+00 1.280750781297683716e-01
-7.203467845916748047e+00 -3.132250308990478516e+00 9.596691466867923737e-03
-9.055282592773437500e+00 -3.918394565582275391e+00 2.594005346298217773e+00
-1.019421386718750000e+01 -3.964120864868164062e+00 2.549339294433593750e+00
-8.895452499389648438e+00 -3.840020179748535156e+00 2.165726184844970703e+00
-9.701637268066406250e+00 -3.764782428741455078e+00 2.026589632034301758e+00
-8.816370964050292969e+00 -3.796758174896240234e+00 1.775632619857788086e+00
-1.145065116882324219e+01 -3.962695598602294922e+00 2.018986225128173828e+00
-9.503435134887695312e+00 -3.685960769653320312e+00 1.599860072135925293e+00
-8.679960250854492188e+00 -3.730831623077392578e+00 1.393444061279296875e+00
-1.136940193176269531e+01 -3.930134534835815430e+00 1.558091640472412109e+00
-9.391366004943847656e+00 -3.633068799972534180e+00 1.209640860557556152e+00
-8.802130699157714844e+00 -3.777884006500244141e+00 1.059181332588195801e+00
-1.141090297698974609e+01 -3.940021991729736328e+00 1.122008085250854492e+00
-9.459930419921875000e+00 -3.655797481536865234e+00 8.462793231010437012e-01
-9.160881042480468750e+00 -3.926181077957153320e+00 7.371612787246704102e-01
-1.139889526367187500e+01 -3.931422948837280273e+00 6.804699301719665527e-01
-9.592656135559082031e+00 -3.703241109848022461e+00 4.831191897392272949e-01
-8.777267456054687500e+00 -3.756332874298095703e+00 3.584257364273071289e-01
-1.022458457946777344e+01 -3.114082098007202148e+00 3.172211647033691406e-01
-1.028835582733154297e+01 -3.544385194778442383e+00 2.203404605388641357e-01
-3.533392906188964844e+00 -1.361939549446105957e+00 4.031756892800331116e-02
-7.258411407470703125e+00 -3.103323698043823242e+00 9.644338861107826233e-03
-9.301639556884765625e+00 -3.957415580749511719e+00 2.657571315765380859e+00
-1.043397521972656250e+01 -3.983826160430908203e+00 2.603136062622070312e+00
-8.601728439331054688e+00 -3.650774002075195312e+00 2.088721752166748047e+00
-9.831871986389160156e+00 -3.746072769165039062e+00 2.048954486846923828e+00
-8.585961341857910156e+00 -3.635243177413940430e+00 1.724702835083007812e+00
-9.821306228637695312e+00 -3.740084171295166016e+00 1.649477720260620117e+00
-8.591513633728027344e+00 -3.630522727966308594e+00 1.375643014907836914e+00
-9.666871070861816406e+00 -3.671617269515991211e+00 1.242201805114746094e+00
-8.649320602416992188e+00 -3.649614095687866211e+00 1.038079142570495605e+00
-1.105478096008300781e+01 -3.299250364303588867e+00 1.182017922401428223e+00
-1.166405200958251953e+01 -3.947496414184570312e+00 1.144496321678161621e+00
-9.639646530151367188e+00 -3.657427072525024414e+00 8.603327274322509766e-01
-8.707821846008300781e+00 -3.668928861618041992e+00 6.988795995712280273e-01
-1.105820465087890625e+01 -3.296068668365478516e+00 7.603496909141540527e-01
-1.156657028198242188e+01 -3.910006284713745117e+00 6.890342831611633301e-01
-3.519532203674316406e+00 -1.333958387374877930e+00 1.768402010202407837e-01
-8.895023345947265625e+00 -3.742320775985717773e+00 3.622898459434509277e-01
-1.027511215209960938e+01 -3.060703277587890625e+00 3.182001709938049316e-01
-1.028054428100585938e+01 -3.471275091171264648e+00 2.197128832340240479e-01
-3.529525279998779297e+00 -1.335632681846618652e+00 4.017916694283485413e-02
-7.365816593170166016e+00 -3.095926046371459961e+00 9.761624038219451904e-03
-1.072633552551269531e+01 -4.020217895507812500e+00 2.669871330261230469e+00
-8.670802116394042969e+00 -3.617465734481811523e+00 2.100065231323242188e+00
-1.154354476928710938e+01 -4.317318439483642578e+00 2.400099992752075195e+00
-8.567253112792968750e+00 -3.565490484237670898e+00 1.716517567634582520e+00
-1.121454048156738281e+01 -4.192038536071777344e+00 1.879114508628845215e+00
-8.634641647338867188e+00 -3.586465835571289062e+00 1.378998875617980957e+00
-9.875280380249023438e+00 -3.681599378585815430e+00 1.266055941581726074e+00
-8.644008636474609375e+00 -3.585050821304321289e+00 1.034781932830810547e+00
-1.128013610839843750e+01 -3.291264533996582031e+00 1.203931689262390137e+00
-1.191960334777832031e+01 -3.952636480331420898e+00 1.167169690132141113e+00
-9.959814071655273438e+00 -3.709154844284057617e+00 8.868595361709594727e-01
-8.507193565368652344e+00 -3.523088455200195312e+00 6.810296177864074707e-01
-1.122958374023437500e+01 -3.272261381149291992e+00 7.707384228706359863e-01
-3.541694402694702148e+00 -1.317562103271484375e+00 1.775441914796829224e-01
-9.321369171142578125e+00 -3.854546785354614258e+00 3.786842525005340576e-01
-1.047412204742431641e+01 -3.050139188766479492e+00 3.237774074077606201e-01
-1.033677005767822266e+01 -3.419748306274414062e+00 2.204619199037551880e-01
-3.553589344024658203e+00 -1.319869518280029297e+00 4.036015272140502930e-02
-7.370810508728027344e+00 -3.044944763183593750e+00 9.743298403918743134e-03
-8.960112571716308594e+00 -3.673782348632812500e+00 2.164635419845581055e+00
-1.122427177429199219e+01 -4.119583129882812500e+00 2.328418254852294922e+00
-1.129755496978759766e+01 -4.144242286682128906e+00 1.888728022575378418e+00
-8.744415283203125000e+00 -3.569308519363403320e+00 1.393006443977355957e+00
-1.118443012237548828e+01 -4.091675281524658203e+00 1.430649161338806152e+00
-8.693455696105957031e+00 -3.543198823928833008e+00 1.038079142570495605e+00
-1.227792453765869141e+01 -3.988006830215454102e+00 1.199837803840637207e+00
-1.224142169952392578e+01 -3.971426963806152344e+00 7.262777686119079590e-01
-3.534698724746704102e+00 -1.290325284004211426e+00 1.767932772636413574e-01
-9.591102600097656250e+00 -3.897346258163452148e+00 3.886634409427642822e-01
-1.066857433319091797e+01 -3.035878181457519531e+00 3.292063176631927490e-01
-1.025388813018798828e+01 -3.322665214538574219e+00 2.182552665472030640e-01
-3.535315275192260742e+00 -1.288453102111816406e+00 4.006205871701240540e-02
-7.380089282989501953e+00 -2.995899438858032227e+00 9.731081314384937286e-03
-9.132752418518066406e+00 -3.679272174835205078e+00 2.200847387313842773e+00
-1.141279983520507812e+01 -4.109493732452392578e+00 2.362251996994018555e+00
-8.988097190856933594e+00 -3.611882448196411133e+00 1.791821122169494629e+00
-1.133113670349121094e+01 -4.077854633331298828e+00 1.890123486518859863e+00
-8.937855720520019531e+00 -3.584447383880615234e+00 1.420291543006896973e+00
-1.129062747955322266e+01 -4.052150726318359375e+00 1.441025614738464355e+00
-8.894039154052734375e+00 -3.561470270156860352e+00 1.059401273727416992e+00
-1.270258903503417969e+01 -4.039947986602783203e+00 1.238891601562500000e+00
-1.134040069580078125e+01 -4.065546035766601562e+00 1.005273818969726562e+00
-1.271374320983886719e+01 -4.038609027862548828e+00 7.528159618377685547e-01
-1.136681652069091797e+01 -4.070538997650146484e+00 5.672684907913208008e-01
-9.701146125793457031e+00 -3.872879743576049805e+00 3.921523690223693848e-01
-1.068314933776855469e+01 -2.969289302825927734e+00 3.290876448154449463e-01
-1.024549388885498047e+01 -3.250615596771240234e+00 2.176479399204254150e-01
-3.575168132781982422e+00 -1.278181910514831543e+00 4.042403027415275574e-02
-7.311020851135253906e+00 -2.915738344192504883e+00 9.616238996386528015e-03
-9.466406822204589844e+00 -3.746343612670898438e+00 2.275670289993286133e+00
-1.141558742523193359e+01 -4.031544208526611328e+00 2.357664346694946289e+00
-9.287224769592285156e+00 -3.666061162948608398e+00 1.846934437751770020e+00
-1.135780715942382812e+01 -4.008908748626708984e+00 1.890433549880981445e+00
-9.218328475952148438e+00 -3.631428480148315430e+00 1.461292386054992676e+00
-1.136116886138916016e+01 -3.998948812484741211e+00 1.446869850158691406e+00
-9.158989906311035156e+00 -3.602514028549194336e+00 1.088307023048400879e+00
-1.139615726470947266e+01 -4.006793975830078125e+00 1.008017897605895996e+00
-1.318542480468750000e+01 -4.099545478820800781e+00 7.792414426803588867e-01
-1.137461376190185547e+01 -3.994758844375610352e+00 5.664236545562744141e-01
-1.003266620635986328e+01 -3.934031486511230469e+00 4.045701026916503906e-01
-1.173626613616943359e+01 -3.184549093246459961e+00 3.609195351600646973e-01
-1.024996948242187500e+01 -3.182945251464843750e+00 2.173240333795547485e-01
-1.026852607727050781e+01 -3.600262641906738281e+00 1.158531233668327332e-01
-6.890220642089843750e+00 -2.699034214019775391e+00 9.040803648531436920e-03
-1.011594867706298828e+01 -3.931781291961669922e+00 2.425971031188964844e+00
-9.594680786132812500e+00 -3.719544649124145508e+00 1.903502821922302246e+00
-1.132244205474853516e+01 -3.918465137481689453e+00 1.880509972572326660e+00
-9.526461601257324219e+00 -3.685450553894042969e+00 1.506524682044982910e+00
-1.141364765167236328e+01 -3.938879489898681641e+00 1.450447916984558105e+00
-9.416424751281738281e+00 -3.637213945388793945e+00 1.116223454475402832e+00
-1.141487503051757812e+01 -3.934844493865966797e+00 1.007519006729125977e+00
-1.138946628570556641e+01 -3.921638488769531250e+00 5.659543871879577637e-01
-1.005754852294921875e+01 -3.872757196426391602e+00 4.046076536178588867e-01
-1.144444847106933594e+01 -3.030098438262939453e+00 3.513670265674591064e-01
-1.020521259307861328e+01 -3.100519895553588867e+00 2.159676551818847656e-01
-1.026299953460693359e+01 -3.527761936187744141e+00 1.155443787574768066e-01
-3.559725522994995117e+00 -1.369280457496643066e+00 4.659679252654314041e-03
-1.033409214019775391e+01 -3.943752050399780273e+00 2.472435712814331055e+00
-9.839720726013183594e+00 -3.745253324508666992e+00 1.947520971298217773e+00
-1.200208854675292969e+01 -4.071386337280273438e+00 1.989203691482543945e+00
-9.752358436584472656e+00 -3.704208374023437500e+00 1.538624763488769531e+00
-9.732242584228515625e+00 -3.690737962722778320e+00 1.150954365730285645e+00
-1.102180671691894531e+01 -3.283256053924560547e+00 1.068887472152709961e+00
-1.166350173950195312e+01 -3.940646886825561523e+00 1.027310132980346680e+00
-1.101650905609130859e+01 -3.277491569519042969e+00 6.486353278160095215e-01
-1.176539611816406250e+01 -3.970497846603393555e+00 5.834131240844726562e-01
-3.594057798385620117e+00 -1.358663797378540039e+00 1.442481577396392822e-01
-1.100601577758789062e+01 -2.841866493225097656e+00 3.373645544052124023e-01
-1.024704647064208984e+01 -3.044677734375000000e+00 2.164535224437713623e-01
-1.027213287353515625e+01 -3.460572719573974609e+00 1.154059693217277527e-01
-3.520349025726318359e+00 -1.329395294189453125e+00 4.597370978444814682e-03
-1.057103347778320312e+01 -3.960037946701049805e+00 2.523262977600097656e+00
-1.122025871276855469e+01 -4.192083835601806641e+00 2.215630054473876953e+00
-1.034591770172119141e+01 -3.857185840606689453e+00 1.628505587577819824e+00
-1.122865581512451172e+01 -3.274250268936157227e+00 1.514932632446289062e+00
-9.990375518798828125e+00 -3.718675136566162109e+00 1.178761124610900879e+00
-1.129795169830322266e+01 -3.290178060531616211e+00 1.093689441680908203e+00
-1.200154876708984375e+01 -3.972981929779052734e+00 1.054917931556701660e+00
-1.124444675445556641e+01 -3.270339012145996094e+00 6.608620882034301758e-01
-1.198585605621337891e+01 -3.963145017623901367e+00 5.931280255317687988e-01
-3.557356119155883789e+00 -1.319899797439575195e+00 1.424473971128463745e-01
-1.039131069183349609e+01 -3.018278837203979492e+00 2.191055566072463989e-01
-1.023904991149902344e+01 -3.379614114761352539e+00 1.147991418838500977e-01
-3.521876096725463867e+00 -1.305337190628051758e+00 4.588818643242120743e-03
-1.086809444427490234e+01 -3.995450019836425781e+00 2.588269710540771484e+00
-1.128731441497802734e+01 -4.138390541076660156e+00 2.223815441131591797e+00
-1.125479698181152344e+01 -4.117557525634765625e+00 1.767558217048645020e+00
-1.243423080444335938e+01 -4.036527633666992188e+00 1.570434093475341797e+00
-1.125377750396728516e+01 -4.110504627227783203e+00 1.324828624725341797e+00
-1.221244716644287109e+01 -3.959818363189697266e+00 1.071299672126770020e+00
-1.229218769073486328e+01 -3.980932712554931641e+00 6.070668697357177734e-01
-3.552242040634155273e+00 -1.293261408805847168e+00 1.419221758842468262e-01
-1.054621028900146484e+01 -2.993225097656250000e+00 2.219802439212799072e-01
-1.024532127380371094e+01 -3.312110900878906250e+00 1.146394461393356323e-01
-3.534518003463745117e+00 -1.285411596298217773e+00 4.594927188009023666e-03
-1.133562660217285156e+01 -4.077375411987304688e+00 2.228362560272216797e+00
-1.129754161834716797e+01 -4.054771423339843750e+00 1.770330548286437988e+00
-1.130030822753906250e+01 -4.049086570739746094e+00 1.327356457710266113e+00
-1.253570747375488281e+01 -3.979796648025512695e+00 1.097493886947631836e+00
-1.131498813629150391e+01 -4.047662258148193359e+00 8.888126015663146973e-01
-1.283150959014892578e+01 -4.068777084350585938e+00 6.324571371078491211e-01
-3.562933683395385742e+00 -1.272449254989624023e+00 1.420347243547439575e-01
-1.075610733032226562e+01 -2.981606006622314453e+00 2.260088920593261719e-01
-1.022731876373291016e+01 -3.237114667892456055e+00 1.142135933041572571e-01
-3.552699089050292969e+00 -1.267395973205566406e+00 4.608366172760725021e-03
-1.137155914306640625e+01 -4.011670112609863281e+00 2.230545282363891602e+00
-1.135393714904785156e+01 -3.996542930603027344e+00 1.775291562080383301e+00
-1.135119628906250000e+01 -3.988899469375610352e+00 1.330433845520019531e+00
-1.136596107482910156e+01 -3.987402915954589844e+00 8.908779621124267578e-01
-1.297834777832031250e+01 -4.027866363525390625e+00 6.384645104408264160e-01
-1.129298877716064453e+01 -3.955163240432739258e+00 4.492138922214508057e-01
-1.177209758758544922e+01 -3.185587644577026367e+00 2.469416558742523193e-01
-1.022883987426757812e+01 -3.168678283691406250e+00 1.140113100409507751e-01
-3.574567556381225586e+00 -1.250526428222656250e+00 4.626692272722721100e-03
-1.151026344299316406e+01 -3.981357336044311523e+00 2.252918004989624023e+00
-1.139975452423095703e+01 -3.934224128723144531e+00 1.778647422790527344e+00
-1.141116809844970703e+01 -3.931477785110473633e+00 1.334610342979431152e+00
-1.142699146270751953e+01 -3.930237293243408203e+00 8.937545418739318848e-01
-1.147435474395751953e+01 -3.029579877853393555e+00 2.403014749288558960e-01
-1.024234771728515625e+01 -3.104115247726440430e+00 1.139474287629127502e-01
-7.521901607513427734e+00 -2.579769372940063477e+00 9.715198539197444916e-03
-1.160458278656005859e+01 -3.918625116348266602e+00 1.354393720626831055e+00
-1.108328151702880859e+01 -3.295382976531982422e+00 9.648599028587341309e-01
-1.165501785278320312e+01 -3.928858518600463867e+00 9.096868038177490234e-01
-1.108101367950439453e+01 -3.290499210357666016e+00 5.430983901023864746e-01
-1.053373813629150391e+01 -3.544738531112670898e+00 4.172504544258117676e-01
-1.166410255432128906e+01 -3.003242492675781250e+00 2.438847422599792480e-01
-1.029475784301757812e+01 -3.051156282424926758e+00 1.143200546503067017e-01
-7.412467956542968750e+00 -2.491511106491088867e+00 9.553929790854454041e-03
-1.213926506042480469e+01 -4.023420810699462891e+00 1.886183500289916992e+00
-1.124521446228027344e+01 -3.272823810577392578e+00 1.406914234161376953e+00
-1.129276561737060547e+01 -3.282387733459472656e+00 9.813248515129089355e-01
-1.204822158813476562e+01 -3.979247331619262695e+00 9.384533762931823730e-01
-1.142427825927734375e+01 -3.316289424896240234e+00 5.589145421981811523e-01
-1.094819450378417969e+01 -3.609577178955078125e+00 4.327819645404815674e-01
-1.038820075988769531e+01 -3.009635686874389648e+00 1.151504665613174438e-01
-7.481756210327148438e+00 -2.463810920715332031e+00 9.623569436371326447e-03
-1.243564224243164062e+01 -4.029939651489257812e+00 1.445507287979125977e+00
-1.229254817962646484e+01 -3.976456880569458008e+00 9.555658102035522461e-01
-1.230621814727783203e+01 -3.973762512207031250e+00 4.854916632175445557e-01
-1.053924655914306641e+01 -2.983423709869384766e+00 1.166196539998054504e-01
-7.629974365234375000e+00 -2.460830450057983398e+00 9.794611483812332153e-03
-1.236539649963378906e+01 -3.923500061035156250e+00 1.434516549110412598e+00
-1.236425209045410156e+01 -3.916012287139892578e+00 9.592537879943847656e-01
-1.269243907928466797e+01 -4.012644290924072266e+00 4.997476637363433838e-01
-1.082143211364746094e+01 -2.991707324981689453e+00 1.195367425680160522e-01
-7.637301921844482422e+00 -2.411558866500854492e+00 9.784838184714317322e-03
-1.173794937133789062e+01 -3.174285888671875000e+00 5.713046193122863770e-01
-1.177313327789306641e+01 -3.177186250686645508e+00 1.298317313194274902e-01
-7.728388786315917969e+00 -2.388271808624267578e+00 9.882575832307338715e-03
-1.239644622802734375e+01 -3.766549825668334961e+00 1.432648062705993652e+00
-1.125883102416992188e+01 -2.970704317092895508e+00 5.470876693725585938e-01
-1.105930423736572266e+01 -3.347624778747558594e+00 4.337949156761169434e-01
-1.149747562408447266e+01 -3.027233839035034180e+00 1.265846043825149536e-01
-7.723752498626708984e+00 -2.335018634796142578e+00 9.858140721917152405e-03
-1.101970863342285156e+01 -3.274518489837646484e+00 1.271193623542785645e+00
-1.111384677886962891e+01 -3.296159982681274414e+00 8.573907017707824707e-01
-1.098179340362548828e+01 -2.825647354125976562e+00 5.327733159065246582e-01
-1.128085803985595703e+01 -3.339267015457153320e+00 4.416732192039489746e-01
-1.172116184234619141e+01 -3.009346723556518555e+00 1.288416087627410889e-01
-7.746565341949462891e+00 -2.290133953094482422e+00 9.869136847555637360e-03
-1.117990207672119141e+01 -3.247598886489868164e+00 1.287349939346313477e+00
-1.129190540313720703e+01 -3.273723840713500977e+00 8.695611357688903809e-01
-1.162654781341552734e+01 -3.364144325256347656e+00 4.543910622596740723e-01
-7.775843143463134766e+00 -2.247000932693481445e+00 9.888685308396816254e-03
-1.372354412078857422e+01 -3.344487905502319336e+00 1.503897458314895630e-01
-7.202433586120605469e+00 -2.033501625061035156e+00 9.143428876996040344e-03
-1.419914531707763672e+01 -3.368231296539306641e+00 1.553722172975540161e-01
-7.864528656005859375e+00 -2.168421268463134766e+00 9.966874495148658752e-03
-1.172992038726806641e+01 -3.161269426345825195e+00 4.560792744159698486e-01
-7.913415431976318359e+00 -2.129740476608276367e+00 1.001207996159791946e-02
-1.105615425109863281e+01 -2.907038450241088867e+00 4.291804730892181396e-01
-7.906989574432373047e+00 -2.076065301895141602e+00 9.987644851207733154e-03
-7.875016689300537109e+00 -2.016101360321044922e+00 9.931445121765136719e-03
-7.808647632598876953e+00 -1.948135972023010254e+00 9.832484647631645203e-03
-7.794217109680175781e+00 -1.893811345100402832e+00 9.799497202038764954e-03
-7.847536563873291016e+00 -1.855847358703613281e+00 9.852032177150249481e-03
-7.919198513031005859e+00 -1.821559071540832520e+00 9.927779436111450195e-03
-7.832635402679443359e+00 -1.751115441322326660e+00 9.805606678128242493e-03
-7.990793704986572266e+00 -1.735062718391418457e+00 9.990087710320949554e-03
-8.031623840332031250e+00 -1.692391276359558105e+00 1.002796180546283722e-02
-8.073209762573242188e+00 -1.649484157562255859e+00 1.006705779582262039e-02
-8.071407318115234375e+00 -1.597586870193481445e+00 1.005239691585302353e-02
-8.331503868103027344e+00 -1.596007823944091797e+00 1.036393828690052032e-02
-8.349988937377929688e+00 -1.546495556831359863e+00 1.037493348121643066e-02
-8.168352127075195312e+00 -1.461073279380798340e+00 1.013791747391223907e-02
-8.177163124084472656e+00 -1.410925626754760742e+00 1.013791747391223907e-02
-8.382958412170410156e+00 -1.393521428108215332e+00 1.038226298987865448e-02
-8.378515243530273438e+00 -1.340005278587341309e+00 1.036638114601373672e-02
-8.387567520141601562e+00 -1.288722276687622070e+00 1.036760210990905762e-02
-8.396306991577148438e+00 -1.237378716468811035e+00 1.036882493644952774e-02
-1.468903064727783203e+01 -9.993049502372741699e-01 2.981195747852325439e-01
-8.481965065002441406e+00 -1.196874737739562988e+00 1.046534068882465363e-02
-1.186486625671386719e+01 -3.045406043529510498e-01 3.522570133209228516e-01
-7.959940910339355469e+00 -1.073441267013549805e+00 9.812937118113040924e-03
-8.513867378234863281e+00 -1.094994068145751953e+00 1.048733294010162354e-02
-7.915936470031738281e+00 -9.687556624412536621e-01 9.743298403918743134e-03
-8.587256431579589844e+00 -9.974716305732727051e-01 1.056185830384492874e-02
-1.469053173065185547e+01 -1.079852461814880371e+00 1.568307578563690186e-01
-8.608125686645507812e+00 -9.464017748832702637e-01 1.058018393814563751e-02
-7.612552165985107422e+00 3.819875046610832214e-02 2.259381264448165894e-01
-1.186682224273681641e+01 -3.693018555641174316e-01 2.404026985168457031e-01
-1.471483898162841797e+01 -9.909020066261291504e-01 1.570223867893218994e-01
-8.681406974792480469e+00 -9.005818963050842285e-01 1.066326163709163666e-02
-7.629166126251220703e+00 8.509729802608489990e-02 2.264424562454223633e-01
-1.183688068389892578e+01 -2.956824898719787598e-01 2.397548705339431763e-01
-8.660892486572265625e+00 -8.447728157043457031e-01 1.063149701803922653e-02
-8.685829162597656250e+00 -7.934340238571166992e-01 1.065593026578426361e-02
-8.860918045043945312e+00 -7.546344399452209473e-01 1.086484733968973160e-02
-8.878340721130371094e+00 -7.012742757797241211e-01 1.088072918355464935e-02
-8.881480216979980469e+00 -6.467120051383972168e-01 1.087950821965932846e-02
-7.620314121246337891e+00 4.347470775246620178e-02 1.543031036853790283e-01
-1.183485031127929688e+01 -3.601659834384918213e-01 1.260629296302795410e-01
-8.959115982055664062e+00 -5.971252322196960449e-01 1.096991542726755142e-02
-7.618904113769531250e+00 9.021942317485809326e-02 1.542828530073165894e-01
-1.181684398651123047e+01 -2.870562374591827393e-01 1.258500069379806519e-01
-9.011523246765136719e+00 -5.451005101203918457e-01 1.102978084236383438e-02
-8.978750228881835938e+00 -4.878434538841247559e-01 1.098579820245504379e-02
-9.004548072814941406e+00 -4.338485598564147949e-01 1.101389806717634201e-02
-9.178888320922851562e+00 -3.858127593994140625e-01 1.122403517365455627e-02
-7.693563938140869141e+00 1.972208498045802116e-03 8.191268891096115112e-02
-9.074152946472167969e+00 -3.256474137306213379e-01 1.109331101179122925e-02
-7.665409088134765625e+00 4.900002107024192810e-02 8.161459863185882568e-02
-9.244904518127441406e+00 -2.749879956245422363e-01 1.129978336393833160e-02
-7.634968280792236328e+00 9.565734863281250000e-02 8.129520714282989502e-02
-9.225423812866210938e+00 -2.177615761756896973e-01 1.127412635833024979e-02
-7.562253952026367188e+00 1.411591619253158569e-01 8.052866905927658081e-02
-9.261581420898437500e+00 -1.617625504732131958e-01 1.131688710302114487e-02
-9.384390830993652344e+00 -1.063135340809822083e-01 1.146593783050775528e-02
-9.505865097045898438e+00 -4.935826733708381653e-02 1.161376759409904480e-02
-7.588991165161132812e+00 7.160736247897148132e-03 9.271710179746150970e-03
-7.590804576873779297e+00 5.373993888497352600e-02 9.274153970181941986e-03
-7.586332321166992188e+00 1.002623662352561951e-01 9.269267320632934570e-03
-7.585574150085449219e+00 1.468093395233154297e-01 9.269267320632934570e-03
-9.933765411376953125e+00 2.532393038272857666e-01 1.214033272117376328e-02
-9.914033889770507812e+00 3.136178851127624512e-01 1.211834233254194260e-02
-9.939903259277343750e+00 3.755003511905670166e-01 1.215255074203014374e-02
-9.950398445129394531e+00 4.370537996292114258e-01 1.216843258589506149e-02
-9.892599105834960938e+00 4.953495562076568604e-01 1.210123859345912933e-02
-9.481019020080566406e+00 5.330799221992492676e-01 1.160155050456523895e-02
-9.676183700561523438e+00 6.036345362663269043e-01 1.184467505663633347e-02
-9.681276321411132812e+00 6.636105775833129883e-01 1.185567025095224380e-02
-1.024543666839599609e+01 7.654693722724914551e-01 1.255205646157264709e-02
-1.019569396972656250e+01 8.246917724609375000e-01 1.249707769602537155e-02
-1.064771175384521484e+01 9.270483255386352539e-01 1.305785309523344040e-02
-9.518696784973144531e+00 8.876309394836425781e-01 1.167974062263965607e-02
-1.038078975677490234e+01 1.032309532165527344e+00 1.274508889764547348e-02
-1.053934192657470703e+01 1.113425374031066895e+00 1.294789742678403854e-02
-1.056510734558105469e+01 1.181740880012512207e+00 1.298821438103914261e-02
-1.032626533508300781e+01 1.219224333763122559e+00 1.270355097949504852e-02
-1.057263374328613281e+01 1.314139008522033691e+00 1.301631331443786621e-02
-1.100364494323730469e+01 1.436325788497924805e+00 1.355754025280475616e-02
-1.097778224945068359e+01 1.501512169837951660e+00 1.353677175939083099e-02
-1.074364948272705078e+01 1.536700844764709473e+00 1.325943879783153534e-02
-1.095358467102050781e+01 1.635375142097473145e+00 1.353066228330135345e-02
-1.117554950714111328e+01 1.738680601119995117e+00 1.381776854395866394e-02
-1.115479946136474609e+01 1.805621862411499023e+00 1.380555145442485809e-02
-1.089697265625000000e+01 1.832571506500244141e+00 1.350011862814426422e-02
-1.090916538238525391e+01 1.903524994850158691e+00 1.352944038808345795e-02
-1.115214729309082031e+01 2.016510963439941406e+00 1.384586840867996216e-02
-1.105994701385498047e+01 2.070000171661376953e+00 1.374690886586904526e-02
-1.125419330596923828e+01 2.177912712097167969e+00 1.400469336658716202e-02
-1.129553318023681641e+01 2.257903099060058594e+00 1.407311111688613892e-02
-1.114435291290283203e+01 2.298884630203247070e+00 1.390206813812255859e-02
-1.209661483764648438e+01 3.502303361892700195e+00 2.549989223480224609e-01
-1.128458023071289062e+01 2.400091171264648438e+00 1.409510150551795959e-02
-1.102348136901855469e+01 2.415350914001464844e+00 1.378722582012414932e-02
-1.102601146697998047e+01 2.486904382705688477e+00 1.380921714007854462e-02
-1.103392410278320312e+01 2.559936046600341797e+00 1.383853796869516373e-02
-1.053456687927246094e+01 2.512298822402954102e+00 1.323133893311023712e-02
-1.102013301849365234e+01 2.699667453765869141e+00 1.386175118386745453e-02
-1.209023571014404297e+01 3.509463548660278320e+00 1.340370178222656250e-01
-1.012181186676025391e+01 2.545534133911132812e+00 1.275119837373495102e-02
-1.209243965148925781e+01 3.590698003768920898e+00 1.343031674623489380e-01
-1.022800636291503906e+01 2.639072418212890625e+00 1.290513668209314346e-02
-1.096374034881591797e+01 2.900775671005249023e+00 1.385564263910055161e-02
-1.096889877319335938e+01 2.974274396896362305e+00 1.388496439903974533e-02
-1.099765491485595703e+01 3.054635763168334961e+00 1.394482888281345367e-02
-1.107296752929687500e+01 3.148864269256591797e+00 1.406455785036087036e-02
-1.076922893524169922e+01 3.134037494659423828e+00 1.370292622596025467e-02
-1.106224536895751953e+01 3.293069124221801758e+00 1.410121098160743713e-02
-1.072613239288330078e+01 3.264791965484619141e+00 1.369803957641124725e-02
-1.095607089996337891e+01 3.408372402191162109e+00 1.401813328266143799e-02
-1.097211933135986328e+01 3.487346649169921875e+00 1.406577974557876587e-02
-1.079642963409423828e+01 3.504587650299072266e+00 1.386785972863435745e-02
-1.060670852661132812e+01 3.515087127685546875e+00 1.365161407738924026e-02
-1.057357311248779297e+01 3.576257705688476562e+00 1.363695319741964340e-02
-7.512811183929443359e+00 3.543021440505981445e+00 2.465264946222305298e-01
-1.083596515655517578e+01 3.739255428314208984e+00 1.400469336658716202e-02
-7.417913436889648438e+00 3.554068803787231445e+00 2.441235184669494629e-01
-1.011573505401611328e+01 3.560328245162963867e+00 1.310183573514223099e-02
-1.063207912445068359e+01 3.815538883209228516e+00 1.380066480487585068e-02
-1.067702388763427734e+01 3.905783176422119141e+00 1.388985104858875275e-02
-1.076529788970947266e+01 4.013138771057128906e+00 1.403645798563957214e-02
-7.492073059082031250e+00 3.483467578887939453e+00 1.673000156879425049e-01
-1.079188823699951172e+01 4.098645687103271484e+00 1.410365384072065353e-02
-7.487733840942382812e+00 3.537487030029296875e+00 1.676846593618392944e-01
-1.073296070098876953e+01 4.151798248291015625e+00 1.405967120081186295e-02
-7.443353652954101562e+00 3.572549104690551758e+00 1.671785563230514526e-01
-1.075659656524658203e+01 4.237000465393066406e+00 1.412442326545715332e-02
-9.619394302368164062e+00 3.857406854629516602e+00 1.266201213002204895e-02
-1.079915428161621094e+01 4.407603263854980469e+00 1.425026170909404755e-02
-1.053363895416259766e+01 4.374825000762939453e+00 1.393505465239286423e-02
-7.493507385253906250e+00 3.490399599075317383e+00 8.801302313804626465e-02
-1.051120281219482422e+01 4.441322326660156250e+00 1.394116319715976715e-02
-7.473757266998291016e+00 3.537168741226196289e+00 8.803431689739227295e-02
-1.049110412597656250e+01 4.508893013000488281e+00 1.395093742758035660e-02
-7.472640991210937500e+00 3.592926502227783203e+00 8.827918767929077148e-02
-1.049256134033203125e+01 4.585995674133300781e+00 1.399003248661756516e-02
-1.071552753448486328e+01 4.761969566345214844e+00 1.432600896805524826e-02
-1.049564170837402344e+01 4.741582870483398438e+00 1.407066639512777328e-02
-1.070990180969238281e+01 4.917726516723632812e+00 1.439809147268533707e-02
-7.513275146484375000e+00 3.505892753601074219e+00 1.012936513870954514e-02
-7.481682777404785156e+00 3.547214984893798828e+00 1.011592708528041840e-02
-7.479596614837646484e+00 3.602601289749145508e+00 1.014280412346124649e-02
-1.056892204284667969e+01 5.170730113983154297e+00 1.437487825751304626e-02
-1.045371055603027344e+01 5.194100379943847656e+00 1.426125690340995789e-02
-1.044931983947753906e+01 5.272109508514404297e+00 1.429913006722927094e-02
-1.031620216369628906e+01 5.284606456756591797e+00 1.416107546538114548e-02
-1.045303821563720703e+01 5.435928821563720703e+00 1.439442578703165054e-02
-3.275124788284301758e+00 2.212219715118408203e+00 1.173003390431404114e-01
-1.016037082672119141e+01 5.363189697265625000e+00 1.403645798563957214e-02
-1.019338226318359375e+01 5.460848331451416016e+00 1.412808801978826523e-02
-1.035648059844970703e+01 5.630279541015625000e+00 1.440175529569387436e-02
-1.033837509155273438e+01 5.702897071838378906e+00 1.442496851086616516e-02
-1.020545387268066406e+01 5.711527347564697266e+00 1.428813487291336060e-02
-1.011108303070068359e+01 5.740466594696044922e+00 1.420505810528993607e-02
-3.243733644485473633e+00 2.194263935089111328e+00 7.929746061563491821e-02
-1.019265651702880859e+01 5.869769573211669922e+00 1.436999067664146423e-02
-3.247526884078979492e+00 2.225996255874633789e+00 7.972259074449539185e-02
-1.009168624877929688e+01 5.894373893737792969e+00 1.427836064249277115e-02
-1.026440238952636719e+01 6.080027103424072266e+00 1.457524113357067108e-02
-1.021404552459716797e+01 6.135170459747314453e+00 1.455691643059253693e-02
-9.981480598449707031e+00 6.079130172729492188e+00 1.427836064249277115e-02
-3.212066173553466797e+00 2.147425174713134766e+00 4.113733395934104919e-02
-9.940587997436523438e+00 6.138159275054931641e+00 1.427347399294376373e-02
-3.337256908416748047e+00 2.258325099945068359e+00 1.893241554498672485e-01
-3.289065599441528320e+00 2.228225469589233398e+00 4.229778051376342773e-02
-1.000106239318847656e+01 6.260588169097900391e+00 1.441519521176815033e-02
-3.292031526565551758e+00 2.257293701171875000e+00 1.875407248735427856e-01
-9.085182189941406250e+00 5.765145301818847656e+00 1.314581651240587234e-02
-1.006645965576171875e+01 6.474809169769287109e+00 1.462288945913314819e-02
-1.004580879211425781e+01 6.549014568328857422e+00 1.465098932385444641e-02
-3.325689315795898438e+00 2.197263002395629883e+00 4.869816824793815613e-03
-3.308927536010742188e+00 2.213801383972167969e+00 1.494628489017486572e-01
-3.332087278366088867e+00 2.230980157852172852e+00 4.899138119071722031e-03
-3.307688474655151367e+00 2.242474079132080078e+00 1.500255763530731201e-01
-3.311715364456176758e+00 2.246891975402832031e+00 4.889364354312419891e-03
-3.271627664566040039e+00 2.247450351715087891e+00 1.490126550197601318e-01
-3.281385183334350586e+00 2.255839586257934570e+00 4.864929709583520889e-03
-3.241224050521850586e+00 2.257641792297363281e+00 4.825834650546312332e-03
-9.911519050598144531e+00 6.994479656219482422e+00 1.482080947607755661e-02
-3.893102884292602539e+00 3.653070926666259766e+00 1.584474146366119385e-01
-3.863368034362792969e+00 3.670005559921264648e+00 1.581507623195648193e-01
-3.842217206954956055e+00 3.695027351379394531e+00 1.582100838422775269e-01
-3.918999671936035156e+00 3.637419939041137695e+00 1.082672476768493652e-01
-3.894421577453613281e+00 3.659344196319580078e+00 1.082065179944038391e-01
-3.863926410675048828e+00 3.675590991973876953e+00 1.079838275909423828e-01
-3.879725694656372070e+00 3.605934143066406250e+00 5.639349296689033508e-02
-3.881559371948242188e+00 3.652284383773803711e+00 5.674482136964797974e-02
-3.858352184295654297e+00 3.675342798233032227e+00 5.673417821526527405e-02
-3.910404205322265625e+00 3.639459609985351562e+00 6.526483222842216492e-03
-3.912734270095825195e+00 3.684113264083862305e+00 2.017598450183868408e-01
-3.901099681854248047e+00 3.675728321075439453e+00 6.548474077135324478e-03
-3.865462303161621094e+00 3.684609651565551758e+00 2.004843056201934814e-01
-3.861829996109008789e+00 3.683720827102661133e+00 6.520374212414026260e-03
-3.821170568466186523e+00 3.689980983734130859e+00 6.489831022918224335e-03
-1.774469017982482910e-01 2.013679504394531250e+00 2.815828323364257812e-01
-1.805653125047683716e-01 2.057279825210571289e+00 2.115951925516128540e-01
-1.679544746875762939e-01 2.045328617095947266e+00 3.625991940498352051e-01
-1.671908944845199585e-01 2.040395736694335938e+00 2.851698696613311768e-01
-1.666443645954132080e-01 2.042484998703002930e+00 2.099643945693969727e-01
-1.468936949968338013e-01 1.938772916793823242e+00 5.729849338531494141e-01
-1.489895731210708618e-01 1.961889863014221191e+00 4.996912479400634766e-01
-1.518256664276123047e-01 1.994624733924865723e+00 4.295778870582580566e-01
-1.531643569469451904e-01 2.016863107681274414e+00 3.573794364929199219e-01
-1.514505296945571899e-01 1.998916149139404297e+00 2.792374491691589355e-01
-1.504430770874023438e-01 1.994862318038940430e+00 2.049700915813446045e-01
-1.352612376213073730e-01 1.943465232849121094e+00 5.741156339645385742e-01
-1.405243426561355591e-01 2.014011621475219727e+00 5.127373337745666504e-01
-1.393111199140548706e-01 1.991617560386657715e+00 4.287380576133728027e-01
-1.389355808496475220e-01 1.991241455078125000e+00 3.526816666126251221e-01
-1.393888592720031738e-01 2.002772092819213867e+00 2.796513438224792480e-01
-1.342828422784805298e-01 1.939180135726928711e+00 1.991603970527648926e-01
-9.926031529903411865e-02 6.999569535255432129e-01 7.526939269155263901e-03
-1.219978407025337219e-01 1.923198103904724121e+00 5.678967237472534180e-01
-1.246568188071250916e-01 1.959701180458068848e+00 4.987065792083740234e-01
-1.265280246734619141e-01 1.983653187751770020e+00 4.268483817577362061e-01
-1.264023631811141968e-01 1.987142443656921387e+00 3.518117070198059082e-01
-1.272228658199310303e-01 2.005566358566284180e+00 2.799272537231445312e-01
-9.613917768001556396e-02 1.523976564407348633e+00 1.564540416002273560e-01
-1.104692816734313965e-01 1.928698897361755371e+00 5.693101286888122559e-01
-1.120184585452079773e-01 1.949785232543945312e+00 4.959989190101623535e-01
-1.136229410767555237e-01 1.971703052520751953e+00 4.241189062595367432e-01
-1.142071112990379333e-01 1.987880706787109375e+00 3.518117070198059082e-01
-1.150844469666481018e-01 2.009275674819946289e+00 2.803411483764648438e-01
-7.050336897373199463e-02 1.238500714302062988e+00 1.270998120307922363e-01
-9.770242869853973389e-02 1.911139011383056641e+00 5.639392733573913574e-01
-1.000526919960975647e-01 1.950435876846313477e+00 4.959989190101623535e-01
-1.009195670485496521e-01 1.960646271705627441e+00 4.215994179248809814e-01
-1.014526188373565674e-01 1.977726101875305176e+00 3.498978018760681152e-01
-1.025513336062431335e-01 2.005987405776977539e+00 2.797892987728118896e-01
-1.745651215314865112e-01 1.992659807205200195e+00 2.590825259685516357e-01
-6.320539861917495728e-02 1.244871020317077637e+00 1.277113407850265503e-01
-8.554311096668243408e-02 1.902119994163513184e+00 5.611125230789184570e-01
-8.777716755867004395e-02 1.944235324859619141e+00 4.942758381366729736e-01
-8.831190317869186401e-02 1.948531389236450195e+00 4.188699424266815186e-01
-8.913795650005340576e-02 1.974376440048217773e+00 3.492018282413482666e-01
-9.001839905977249146e-02 2.001631736755371094e+00 2.790994644165039062e-01
-1.654739528894424438e-01 2.032242536544799805e+00 2.640920281410217285e-01
-5.481193959712982178e-02 1.228340864181518555e+00 1.259786337614059448e-01
-7.364702969789505005e-02 1.896858096122741699e+00 5.594164133071899414e-01
-7.543042302131652832e-02 1.934083819389343262e+00 4.915681481361389160e-01
-1.511079519987106323e-01 1.980343103408813477e+00 4.830573499202728271e-01
-7.597154378890991211e-02 1.939266920089721680e+00 4.167703390121459961e-01
-1.525520086288452148e-01 2.008509874343872070e+00 4.120100736618041992e-01
-7.686822116374969482e-02 1.970950007438659668e+00 3.485058248043060303e-01
-1.501357108354568481e-01 1.985875606536865234e+00 3.318408429622650146e-01
-7.769650220870971680e-02 2.001156568527221680e+00 2.789615094661712646e-01
-1.517361402511596680e-01 2.016407966613769531e+00 2.619083821773529053e-01
-4.727394878864288330e-02 1.228654026985168457e+00 1.259786337614059448e-01
-7.600608468055725098e-02 1.014771819114685059e+00 9.458035230636596680e-02
-6.156808882951736450e-02 1.883852481842041016e+00 5.554589629173278809e-01
-1.398289203643798828e-01 1.983786225318908691e+00 5.634975433349609375e-01
-6.356168538331985474e-02 1.934510231018066406e+00 4.915681481361389160e-01
-1.387500017881393433e-01 1.978325009346008301e+00 4.823483526706695557e-01
-6.426466256380081177e-02 1.945559620857238770e+00 4.180300831794738770e-01
-1.403615623712539673e-01 2.011362791061401367e+00 4.124108552932739258e-01
-6.474091857671737671e-02 1.970400452613830566e+00 3.483318686485290527e-01
-1.395192444324493408e-01 2.009392261505126953e+00 3.356211185455322266e-01
-6.544852256774902344e-02 2.002585649490356445e+00 2.790994644165039062e-01
-1.395658850669860840e-01 2.020269155502319336e+00 2.622937560081481934e-01
-4.079504311084747314e-02 1.261731982231140137e+00 1.293421387672424316e-01
-4.990602657198905945e-02 1.880359292030334473e+00 5.543282628059387207e-01
-1.247513592243194580e-01 1.939480185508728027e+00 5.506845116615295410e-01
-5.145759508013725281e-02 1.926143884658813477e+00 4.893527626991271973e-01
-1.274150311946868896e-01 1.991745114326477051e+00 4.854206442832946777e-01
-5.237828567624092102e-02 1.947872042655944824e+00 4.184500277042388916e-01
-1.265867203474044800e-01 1.989698171615600586e+00 4.078018069267272949e-01
-5.238656327128410339e-02 1.960916638374328613e+00 3.465919494628906250e-01
-1.270626634359359741e-01 2.008241653442382812e+00 3.352923989295959473e-01
-5.284433066844940186e-02 1.991068601608276367e+00 2.774439156055450439e-01
-1.271048486232757568e-01 2.020097732543945312e+00 2.621653079986572266e-01
-5.159721896052360535e-02 1.970007658004760742e+00 2.019123584032058716e-01
-3.826959431171417236e-02 1.875834941864013672e+00 5.529148578643798828e-01
-1.126251220703125000e-01 1.936367273330688477e+00 5.495941042900085449e-01
-3.959815576672554016e-02 1.924485325813293457e+00 4.888604581356048584e-01
-1.140698865056037903e-01 1.973088383674621582e+00 4.806940555572509766e-01
-4.034424573183059692e-02 1.944246768951416016e+00 4.176101684570312500e-01
-1.145443990826606750e-01 1.993371725082397461e+00 4.084029793739318848e-01
-4.035361856222152710e-02 1.961201190948486328e+00 3.465919494628906250e-01
-1.137255281209945679e-01 1.991257190704345703e+00 3.323339223861694336e-01
-4.101020842790603638e-02 2.010169744491577148e+00 2.800652384757995605e-01
-1.143701523542404175e-01 2.014899015426635742e+00 2.613945901393890381e-01
-2.680000849068164825e-02 1.878911852836608887e+00 5.537629127502441406e-01
-9.964232146739959717e-02 1.915883779525756836e+00 5.435965657234191895e-01
-2.788693830370903015e-02 1.931475996971130371e+00 4.905835390090942383e-01
-1.017104536294937134e-01 1.968899250030517578e+00 4.795123934745788574e-01
-2.848524041473865509e-02 1.949345707893371582e+00 4.186599850654602051e-01
-1.015581116080284119e-01 1.979360580444335938e+00 4.053970575332641602e-01
-2.837602049112319946e-02 1.965350389480590820e+00 3.472878932952880859e-01
-1.015052571892738342e-01 1.991917490959167480e+00 3.323339223861694336e-01
-1.020048111677169800e-01 2.015562772750854492e+00 2.613945901393890381e-01
-1.764143109321594238e-01 2.025713920593261719e+00 2.442658841609954834e-01
-1.528630871325731277e-02 1.880959272384643555e+00 5.543282628059387207e-01
-8.748812973499298096e-02 1.907809138298034668e+00 5.411430001258850098e-01
-1.597877778112888336e-02 1.924826264381408691e+00 4.888604581356048584e-01
-8.883248269557952881e-02 1.952014327049255371e+00 4.752584695816040039e-01
-1.650716923177242279e-02 1.947528481483459473e+00 4.182400703430175781e-01
