-6.803291320800781250e+00 -6.154460906982421875e+00 1.120815332978963852e-02
-6.767103195190429688e+00 -6.046637535095214844e+00 1.108720246702432632e-02
-6.886550903320312500e+00 -6.077789306640625000e+00 1.122159231454133987e-02
-6.875470161437988281e+00 -5.993365764617919922e+00 1.114340126514434814e-02
-6.913630962371826172e+00 -5.952370643615722656e+00 1.114584412425756454e-02
-6.962213516235351562e+00 -5.920202732086181641e+00 1.116539351642131805e-02
-6.967010974884033203e+00 -5.851004123687744141e+00 1.111530140042304993e-02
-7.018944740295410156e+00 -5.821551322937011719e+00 1.114095840603113174e-02
-7.072325706481933594e+00 -5.792948722839355469e+00 1.116905733942985535e-02
-7.113179683685302734e+00 -5.753846645355224609e+00 1.117760967463254929e-02
-6.979584693908691406e+00 -5.575282573699951172e+00 1.091371662914752960e-02
-7.152632713317871094e+00 -5.641971111297607422e+00 1.112996228039264679e-02
-6.940971374511718750e+00 -5.406256675720214844e+00 1.074878219515085220e-02
-6.970842361450195312e+00 -5.361127853393554688e+00 1.074389554560184479e-02
-7.075283050537109375e+00 -5.372683048248291016e+00 1.085385214537382126e-02
-7.047307968139648438e+00 -5.283578872680664062e+00 1.076100021600723267e-02
-7.143092155456542969e+00 -5.287238121032714844e+00 1.085751596838235855e-02
-7.197199821472167969e+00 -5.259239673614501953e+00 1.089050341397523880e-02
-7.224467754364013672e+00 -5.211469173431396484e+00 1.088317204266786575e-02
-1.027330684661865234e+01 -6.769818305969238281e+00 1.309921741485595703e-01
-7.110498428344726562e+00 -5.063214302062988281e+00 1.066448260098695755e-02
-1.034231662750244141e+01 -6.724642753601074219e+00 1.313434988260269165e-01
-7.116069793701171875e+00 -5.001663684844970703e+00 1.062660943716764450e-02
-1.052225589752197266e+01 -6.750144481658935547e+00 1.331001371145248413e-01
-7.111295700073242188e+00 -4.933396339416503906e+00 1.057407539337873459e-02
-1.099777603149414062e+01 -6.960315704345703125e+00 1.385723501443862915e-01
-7.137306690216064453e+00 -4.886844635009765625e+00 1.056796684861183167e-02
-1.119210624694824219e+01 -6.987493991851806641e+00 1.404780298471450806e-01
-7.175443649291992188e+00 -4.848557949066162109e+00 1.058018393814563751e-02
-1.070432186126708984e+01 -6.592024326324462891e+00 1.338453739881515503e-01
-6.825669765472412109e+00 -4.551456451416015625e+00 1.002307515591382980e-02
-1.072491168975830078e+01 -6.514280319213867188e+00 1.336005181074142456e-01
-7.204328536987304688e+00 -4.740350723266601562e+00 1.053620129823684692e-02
-1.114726448059082031e+01 -6.677529811859130859e+00 1.383487731218338013e-01
-7.223214149475097656e+00 -4.689522266387939453e+00 1.052154041826725006e-02
-1.119491386413574219e+01 -6.613073825836181641e+00 1.384339332580566406e-01
-7.224906921386718750e+00 -4.627852916717529297e+00 1.048244629055261612e-02
-1.092854213714599609e+01 -6.365591526031494141e+00 1.346545070409774780e-01
-7.281908512115478516e+00 -4.601597309112548828e+00 1.052398420870304108e-02
-1.037601566314697266e+01 -5.958795070648193359e+00 1.273937225341796875e-01
-7.346497058868408203e+00 -4.579576969146728516e+00 1.057651918381452560e-02
-1.089532375335693359e+01 -6.168436050415039062e+00 1.333024203777313232e-01
-6.988571166992187500e+00 -4.297138690948486328e+00 1.002307515591382980e-02
-1.091637802124023438e+01 -6.092208862304687500e+00 1.331001371145248413e-01
-6.889113903045654297e+00 -4.177949905395507812e+00 9.843479841947555542e-03
-1.093602943420410156e+01 -6.015473842620849609e+00 1.328872144222259521e-01
-7.384061813354492188e+00 -4.416371345520019531e+00 1.051176618784666061e-02
-1.062110042572021484e+01 -5.757639884948730469e+00 1.286286860704421997e-01
-7.336084365844726562e+00 -4.326783180236816406e+00 1.040547620505094528e-02
-1.063153362274169922e+01 -5.679169654846191406e+00 1.283306032419204712e-01
-7.338290214538574219e+00 -4.267611980438232422e+00 1.037126779556274414e-02
-1.109799480438232422e+01 -5.841101646423339844e+00 1.335259974002838135e-01
-7.361734867095947266e+00 -4.221012592315673828e+00 1.036760210990905762e-02
-1.108302688598632812e+01 -5.746659278869628906e+00 1.329191476106643677e-01
-7.423189163208007812e+00 -4.195937633514404297e+00 1.041769329458475113e-02
-1.099340629577636719e+01 -5.614870548248291016e+00 1.314286738634109497e-01
-7.460150718688964844e+00 -4.156638145446777344e+00 1.043357606977224350e-02
-1.104283809661865234e+01 -5.554949760437011719e+00 1.316096633672714233e-01
-7.409257411956787109e+00 -4.068907260894775391e+00 1.032728515565395355e-02
-1.104535388946533203e+01 -5.471552371978759766e+00 1.312370300292968750e-01
-7.320634365081787109e+00 -3.961968183517456055e+00 1.016968209296464920e-02
-1.105085754394531250e+01 -5.390087127685546875e+00 1.309069991111755371e-01
-7.417160511016845703e+00 -3.955561161041259766e+00 1.026986446231603622e-02
-1.126580715179443359e+01 -5.409612178802490234e+00 1.330575495958328247e-01
-7.373128890991210938e+00 -3.874160289764404297e+00 1.017579156905412674e-02
-1.118849372863769531e+01 -5.288254261016845703e+00 1.317587047815322876e-01
-7.402977943420410156e+00 -3.832064628601074219e+00 1.018434297293424606e-02
-1.110649394989013672e+01 -5.166363716125488281e+00 1.304172724485397339e-01
-7.430806159973144531e+00 -3.788839817047119141e+00 1.019045244902372360e-02
-1.097977924346923828e+01 -5.025703907012939453e+00 1.285648047924041748e-01
-7.450339794158935547e+00 -3.741379022598266602e+00 1.018556579947471619e-02
-1.120187950134277344e+01 -5.044461727142333984e+00 1.308005303144454956e-01
-7.478534221649169922e+00 -3.698253631591796875e+00 1.019289530813694000e-02
-1.123719215393066406e+01 -4.977658271789550781e+00 1.308537721633911133e-01
-7.511874675750732422e+00 -3.657549858093261719e+00 1.020755618810653687e-02
-1.127302360534667969e+01 -4.911011219024658203e+00 1.309176534414291382e-01
-7.551308631896972656e+00 -3.619601488113403320e+00 1.023076940327882767e-02
-1.132868099212646484e+01 -4.852773189544677734e+00 1.312157511711120605e-01
-7.590559482574462891e+00 -3.581306934356689453e+00 1.025398168712854385e-02
-1.124581336975097656e+01 -4.735823631286621094e+00 1.299169063568115234e-01
-7.612390995025634766e+00 -3.534664630889892578e+00 1.025398168712854385e-02
-1.121368122100830078e+01 -4.641491413116455078e+00 1.292142421007156372e-01
-7.607558727264404297e+00 -3.475837707519531250e+00 1.021855138242244720e-02
-1.121045684814453125e+01 -4.559788703918457031e+00 1.288522630929946899e-01
-7.551214694976806641e+00 -3.394244670867919922e+00 1.011470425873994827e-02
-1.119736862182617188e+01 -4.474590301513671875e+00 1.283838301897048950e-01
-7.591105937957763672e+00 -3.356339216232299805e+00 1.014036033302545547e-02
-1.132327938079833984e+01 -4.444528102874755859e+00 1.295123398303985596e-01
-7.620727539062500000e+00 -3.313685655593872070e+00 1.015257835388183594e-02
-1.125983238220214844e+01 -4.340081214904785156e+00 1.284796446561813354e-01
-7.652869701385498047e+00 -3.271973848342895508e+00 1.016846019774675369e-02
-1.130869674682617188e+01 -4.279404163360595703e+00 1.287351548671722412e-01
-7.635926723480224609e+00 -3.209455966949462891e+00 1.011959090828895569e-02
-1.134411430358886719e+01 -4.213416099548339844e+00 1.288416087627410889e-01
-7.676733970642089844e+00 -3.171324491500854492e+00 1.014769170433282852e-02
-1.145712757110595703e+01 -4.175573825836181641e+00 1.298317313194274902e-01
-7.727550983428955078e+00 -3.136949539184570312e+00 1.018922962248325348e-02
-1.138931655883789062e+01 -4.071869373321533203e+00 1.287777423858642578e-01
-7.724360942840576172e+00 -3.080584287643432617e+00 1.015990786254405975e-02
-1.112344932556152344e+01 -3.900008678436279297e+00 1.254986673593521118e-01
-7.747773170471191406e+00 -3.034954309463500977e+00 1.016601733863353729e-02
-1.069137382507324219e+01 -3.675009489059448242e+00 1.203671544790267944e-01
-7.808249473571777344e+00 -3.003513336181640625e+00 1.022099517285823822e-02
-1.148507976531982422e+01 -3.869201421737670898e+00 1.290332525968551636e-01
-7.840564727783203125e+00 -2.960845708847045898e+00 1.023932080715894699e-02
-1.140700149536132812e+01 -3.765121221542358398e+00 1.278940886259078979e-01
-7.898904800415039062e+00 -2.927625179290771484e+00 1.029185578227043152e-02
-1.142798614501953125e+01 -3.694443225860595703e+00 1.278728097677230835e-01
-7.874429225921630859e+00 -2.863723516464233398e+00 1.023687794804573059e-02
-1.143614006042480469e+01 -3.619726657867431641e+00 1.277130991220474243e-01
-7.788247108459472656e+00 -2.778392553329467773e+00 1.010248716920614243e-02
-1.143330001831054688e+01 -3.541794538497924805e+00 1.274362951517105103e-01
-7.936351299285888672e+00 -2.776452541351318359e+00 1.027230732142925262e-02
-1.113519287109375000e+01 -3.374706983566284180e+00 1.238804385066032410e-01
-7.913509368896484375e+00 -2.714078187942504883e+00 1.022099517285823822e-02
-1.140016460418701172e+01 -3.378776311874389648e+00 1.265952438116073608e-01
-7.952763080596923828e+00 -2.673117399215698242e+00 1.025031693279743195e-02
-1.154938125610351562e+01 -3.346049070358276367e+00 1.280218511819839478e-01
-7.966166019439697266e+00 -2.623331308364868164e+00 1.024665124714374542e-02
-1.135610008239746094e+01 -3.214656591415405273e+00 1.256583631038665771e-01
-7.385381221771240234e+00 -2.381943941116333008e+00 9.480626322329044342e-03
-1.493295669555664062e+01 -3.553142786026000977e+00 3.108128309249877930e-01
-1.156933307647705078e+01 -3.198472976684570312e+00 1.277982741594314575e-01
-7.983455181121826172e+00 -2.520860433578491211e+00 1.022832561284303665e-02
-1.490480136871337891e+01 -3.449950933456420898e+00 3.097803890705108643e-01
-1.138697147369384766e+01 -3.072973728179931641e+00 1.255732029676437378e-01
-7.958643913269042969e+00 -2.459426641464233398e+00 1.017701253294944763e-02
-1.497641086578369141e+01 -3.369844675064086914e+00 3.108330965042114258e-01
-1.140464496612548828e+01 -3.002791881561279297e+00 1.255625486373901367e-01
-7.951569557189941406e+00 -2.403891324996948242e+00 1.014891266822814941e-02
-1.490010929107666016e+01 -3.256752252578735352e+00 3.088288903236389160e-01
-1.140929603576660156e+01 -2.929276466369628906e+00 1.254135072231292725e-01
-7.940278053283691406e+00 -2.347401618957519531e+00 1.011592708528041840e-02
-1.484450244903564453e+01 -3.149288892745971680e+00 3.072700500488281250e-01
-1.136206150054931641e+01 -2.842953205108642578e+00 1.247002035379409790e-01
-8.031387329101562500e+00 -2.320845842361450195e+00 1.021366473287343979e-02
-1.492034626007080078e+01 -3.069831609725952148e+00 3.084442615509033203e-01
-1.140357971191406250e+01 -2.779102563858032227e+00 1.249663680791854858e-01
-8.096482276916503906e+00 -2.285923242568969727e+00 1.027841586619615555e-02
-1.486536312103271484e+01 -2.963563680648803711e+00 3.069258928298950195e-01
-1.124917888641357422e+01 -2.668458938598632812e+00 1.230926066637039185e-01
-8.096858978271484375e+00 -2.232479810714721680e+00 1.026131212711334229e-02
-1.482731246948242188e+01 -2.861497163772583008e+00 3.057719767093658447e-01
-1.126046848297119141e+01 -2.598260879516601562e+00 1.230393722653388977e-01
-8.081436157226562500e+00 -2.174960136413574219e+00 1.022465992718935013e-02
-1.476891231536865234e+01 -2.756340742111206055e+00 3.042131662368774414e-01
-1.150939273834228516e+01 -2.581421613693237305e+00 1.255838423967361450e-01
-7.980497837066650391e+00 -2.095365762710571289e+00 1.008049584925174713e-02
-1.474323844909667969e+01 -2.658040761947631836e+00 3.033426702022552490e-01
-1.152990055084228516e+01 -2.511816978454589844e+00 1.256370842456817627e-01
-7.999985694885253906e+00 -2.048094987869262695e+00 1.008904818445444107e-02
-1.470607948303222656e+01 -2.558274745941162109e+00 3.022494316101074219e-01
-1.154705238342285156e+01 -2.441437244415283203e+00 1.256583631038665771e-01
-8.038599967956542969e+00 -2.005505323410034180e+00 1.012203563004732132e-02
-1.470079326629638672e+01 -2.464520454406738281e+00 3.018243014812469482e-01
-1.156769275665283203e+01 -2.371745109558105469e+00 1.257222592830657959e-01
-8.070187568664550781e+00 -1.960865736007690430e+00 1.014646980911493301e-02
-1.468898963928222656e+01 -2.369971990585327148e+00 3.012777268886566162e-01
-1.159968185424804688e+01 -2.304229259490966797e+00 1.259138882160186768e-01
-8.077201843261718750e+00 -1.910160422325134277e+00 1.014036033302545547e-02
-1.465385532379150391e+01 -2.272137641906738281e+00 3.002654910087585449e-01
-1.164011383056640625e+01 -2.238109111785888672e+00 1.262013316154479980e-01
-8.094617843627929688e+00 -1.861908793449401855e+00 1.014769170433282852e-02
-1.461313056945800781e+01 -2.174088716506958008e+00 2.991520464420318604e-01
-1.154450511932373047e+01 -2.146356344223022461e+00 1.250195950269699097e-01
-8.100033760070800781e+00 -1.810896873474121094e+00 1.014036033302545547e-02
-1.457571601867675781e+01 -2.077189445495605469e+00 2.981195747852325439e-01
-1.155056858062744141e+01 -2.074243068695068359e+00 1.249450743198394775e-01
-8.109038352966308594e+00 -1.760737538337707520e+00 1.013791747391223907e-02
-1.460700988769531250e+01 -1.990280032157897949e+00 2.985042333602905273e-01
-1.157884216308593750e+01 -2.006062269210815430e+00 1.251154094934463501e-01
-8.130453109741210938e+00 -1.713216304779052734e+00 1.015135645866394043e-02
-1.455846881866455078e+01 -1.892752766609191895e+00 2.972693145275115967e-01
-1.153471374511718750e+01 -1.925592899322509766e+00 1.245085746049880981e-01
-8.143752098083496094e+00 -1.663897037506103516e+00 1.015502121299505234e-02
-1.454401016235351562e+01 -1.800194978713989258e+00 2.967429757118225098e-01
-1.141599082946777344e+01 -1.833846330642700195e+00 1.231032609939575195e-01
-8.156750679016113281e+00 -1.614479184150695801e+00 1.015868689864873886e-02
-1.451208496093750000e+01 -1.705901622772216797e+00 2.958724498748779297e-01
-1.126594448089599609e+01 -1.738901376724243164e+00 1.213679090142250061e-01
-8.174360275268554688e+00 -1.565904974937438965e+00 1.016846019774675369e-02
-1.441695117950439453e+01 -1.605098485946655273e+00 2.937265336513519287e-01
-1.155831241607666016e+01 -1.711485624313354492e+00 1.244021058082580566e-01
-8.203480720520019531e+00 -1.519360899925231934e+00 1.019289530813694000e-02
-1.440962505340576172e+01 -1.514830470085144043e+00 2.933823764324188232e-01
-1.157156658172607422e+01 -1.640954136848449707e+00 1.244340464472770691e-01
-8.230367660522460938e+00 -1.472165942192077637e+00 1.021488569676876068e-02
-1.442959308624267578e+01 -1.427468776702880859e+00 2.936050593852996826e-01
-1.129406166076660156e+01 -1.530968904495239258e+00 1.213466152548789978e-01
-8.317095756530761719e+00 -1.435070276260375977e+00 1.031140331178903580e-02
-1.438432121276855469e+01 -1.333918452262878418e+00 2.925118803977966309e-01
-1.136373519897460938e+01 -1.469463467597961426e+00 1.219960451126098633e-01
-8.304041862487792969e+00 -1.380402803421020508e+00 1.028452441096305847e-02
-1.435139751434326172e+01 -1.242098212242126465e+00 2.916818559169769287e-01
-1.141322898864746094e+01 -1.404717445373535156e+00 1.224325448274612427e-01
-8.289644241333007812e+00 -1.325791954994201660e+00 1.025642547756433487e-02
-1.435077571868896484e+01 -1.153375506401062012e+00 2.915198802947998047e-01
-1.149512863159179688e+01 -1.343248844146728516e+00 1.232203617691993713e-01
-7.969474315643310547e+00 -1.224483728408813477e+00 9.850811213254928589e-03
-1.435060310363769531e+01 -1.064781308174133301e+00 2.913781702518463135e-01
-1.147731304168701172e+01 -1.269831895828247070e+00 1.229435577988624573e-01
-8.271652221679687500e+00 -1.219008207321166992e+00 1.021488569676876068e-02
-1.432893657684326172e+01 -9.748075008392333984e-01 2.908113300800323486e-01
-1.158633136749267578e+01 -1.209978342056274414e+00 1.240294873714447021e-01
-8.072027206420898438e+00 -1.139029145240783691e+00 9.959544986486434937e-03
-1.425781154632568359e+01 -8.821146488189697266e-01 2.892525196075439453e-01
-1.158060073852539062e+01 -1.137592196464538574e+00 1.238910779356956482e-01
-8.225536346435546875e+00 -1.109258174896240234e+00 1.014036033302545547e-02
-4.121398925781250000e+00 -8.048413693904876709e-02 1.223435923457145691e-01
-1.423400592803955078e+01 -7.930009365081787109e-01 2.886654436588287354e-01
-1.170187282562255859e+01 -1.077053189277648926e+00 1.251154094934463501e-01
-8.364101409912109375e+00 -1.075732231140136719e+00 1.030285097658634186e-02
-4.114819049835205078e+00 -5.510050803422927856e-02 1.221359297633171082e-01
-1.417469501495361328e+01 -7.024805545806884766e-01 2.873697876930236816e-01
-1.131473064422607422e+01 -9.714444279670715332e-01 1.209101155400276184e-01
-8.345728874206542969e+00 -1.021353840827941895e+00 1.027230732142925262e-02
-4.073099613189697266e+00 -2.954688295722007751e-02 1.208899542689323425e-01
-1.409083938598632812e+01 -6.116773486137390137e-01 2.855882644653320312e-01
-1.158662033081054688e+01 -9.232060909271240234e-01 1.237526834011077881e-01
-8.295220375061035156e+00 -9.635495543479919434e-01 1.020266953855752945e-02
-4.042217731475830078e+00 -4.519611597061157227e-03 1.199702918529510498e-01
-1.408233737945556641e+01 -5.247592926025390625e-01 2.853453457355499268e-01
-1.163095951080322266e+01 -8.549533486366271973e-01 1.241678819060325623e-01
-8.256245613098144531e+00 -9.077151417732238770e-01 1.014769170433282852e-02
-1.408329391479492188e+01 -4.382796287536621094e-01 2.853048443794250488e-01
-1.163897895812988281e+01 -7.837726473808288574e-01 1.241998225450515747e-01
-7.766318798065185547e+00 -8.056534528732299805e-01 9.539269842207431793e-03
-1.404573917388916016e+01 -3.508592545986175537e-01 2.844950854778289795e-01
-1.156871414184570312e+01 -7.077628374099731445e-01 1.234013512730598450e-01
-8.242877006530761719e+00 -8.040000200271606445e-01 1.011836994439363480e-02
-4.097432613372802734e+00 -7.719922065734863281e-02 8.298194408416748047e-02
-1.145102977752685547e+01 -6.300630569458007812e-01 1.221025064587593079e-01
-8.358194351196289062e+00 -7.635051608085632324e-01 1.025398168712854385e-02
-4.096829891204833984e+00 -5.204369872808456421e-02 8.296170085668563843e-02
-1.161647796630859375e+01 -5.676959753036499023e-01 1.238272041082382202e-01
-8.252121925354003906e+00 -7.027867436408996582e-01 1.011836994439363480e-02
-1.263246250152587891e+01 3.625102639198303223e-01 3.724260330200195312e+00
-4.090073585510253906e+00 -2.685908600687980652e-02 8.281999081373214722e-02
-1.147787952423095703e+01 -4.903474152088165283e-01 1.223154291510581970e-01
-8.445688247680664062e+00 -6.671003103256225586e-01 1.035049837082624435e-02
-1.269326972961425781e+01 4.422190189361572266e-01 3.742917060852050781e+00
-1.293921566009521484e+01 4.485264420509338379e-01 3.288115978240966797e+00
-1.315411186218261719e+01 4.536770582199096680e-01 2.826479911804199219e+00
-1.335893344879150391e+01 4.630756080150604248e-01 2.361766576766967773e+00
-1.363500308990478516e+01 4.750279188156127930e-01 1.900442600250244141e+00
-1.386876773834228516e+01 4.880190789699554443e-01 1.421846270561218262e+00
-4.085162162780761719e+00 -1.760207233019173145e-03 8.271876722574234009e-02
-1.147967338562011719e+01 -4.198746979236602783e-01 1.223047897219657898e-01
-8.350884437561035156e+00 -6.080762743949890137e-01 1.022954657673835754e-02
-1.314326477050781250e+01 5.340630412101745605e-01 2.824800014495849609e+00
-1.336469554901123047e+01 5.453971028327941895e-01 2.363332509994506836e+00
-1.364865493774414062e+01 5.593712925910949707e-01 1.902787923812866211e+00
-1.389731788635253906e+01 5.744216442108154297e-01 1.425107717514038086e+00
-1.422078514099121094e+01 5.927641987800598145e-01 9.378786683082580566e-01
-1.445597076416015625e+01 6.050948500633239746e-01 4.294188916683197021e-01
-1.409388256072998047e+01 8.040710538625717163e-02 2.853858470916748047e-01
-1.152101325988769531e+01 -3.506150841712951660e-01 1.227199882268905640e-01
-7.985277652740478516e+00 -5.322188735008239746e-01 9.777506813406944275e-03
-1.401114559173583984e+01 1.659132838249206543e-01 2.837257683277130127e-01
-4.109554767608642578e+00 -9.982981532812118530e-02 4.376697167754173279e-02
-7.994382858276367188e+00 -4.835744202136993408e-01 9.784838184714317322e-03
-1.400086784362792969e+01 2.517191767692565918e-01 2.835435867309570312e-01
-4.110089778900146484e+00 -7.461217790842056274e-02 4.376697167754173279e-02
-8.425566673278808594e+00 -4.577872753143310547e-01 1.030896045267581940e-02
-4.120130538940429688e+00 -5.166543647646903992e-02 1.935949623584747314e-01
-1.399506187438964844e+01 3.375257551670074463e-01 2.834626138210296631e-01
-4.069475650787353516e+00 -4.889914393424987793e-02 4.333047196269035339e-02
-8.338321685791015625e+00 -4.017490744590759277e-01 1.019900385290384293e-02
-4.104388236999511719e+00 -2.628148347139358521e-02 1.928440481424331665e-01
-1.394076156616210938e+01 4.218190908432006836e-01 2.824099063873291016e-01
-4.103696346282958984e+00 -2.412828244268894196e-02 4.369244724512100220e-02
-8.371602058410644531e+00 -3.518804013729095459e-01 1.023687794804573059e-02
-1.277059555053710938e+01 4.336158633232116699e-01 3.620614767074584961e+00
-1.296226692199707031e+01 4.446538686752319336e-01 3.154525041580200195e+00
-1.318982982635498047e+01 4.570696949958801270e-01 2.699507713317871094e+00
-1.344922733306884766e+01 4.707590341567993164e-01 2.242350101470947266e+00
-1.369299602508544922e+01 4.840772449970245361e-01 1.774657487869262695e+00
-1.397188091278076172e+01 5.085865855216979980e-01 2.830981910228729248e-01
-4.073769569396972656e+00 1.044291420839726925e-03 4.337305948138237000e-02
-8.393590927124023438e+00 -3.012238442897796631e-01 1.026131212711334229e-02
-1.318090343475341797e+01 5.377527475357055664e-01 2.698305368423461914e+00
-1.341159057617187500e+01 5.518537163734436035e-01 2.236597537994384766e+00
-1.367985916137695312e+01 5.676755905151367188e-01 1.773372888565063477e+00
-1.399836444854736328e+01 5.857875347137451172e-01 1.302191972732543945e+00
-1.424164676666259766e+01 6.009481549263000488e-01 8.044273257255554199e-01
-1.395750999450683594e+01 5.938394069671630859e-01 2.828755080699920654e-01
-1.161910533905029297e+01 7.427345216274261475e-02 1.237101033329963684e-01
-8.419270515441894531e+00 -2.504296302795410156e-01 1.029063388705253601e-02
-1.388070487976074219e+01 6.759200692176818848e-01 2.813976705074310303e-01
-1.158343505859375000e+01 1.451270878314971924e-01 1.233374774456024170e-01
-4.097855567932128906e+00 -9.672785550355911255e-02 5.007871892303228378e-03
-4.121442317962646484e+00 -7.342411577701568604e-02 1.547525674104690552e-01
-1.373653411865234375e+01 7.534122467041015625e-01 2.785634398460388184e-01
-1.134338188171386719e+01 2.117387652397155762e-01 1.207930073142051697e-01
-4.090373039245605469e+00 -7.144235819578170776e-02 4.998098127543926239e-03
-4.125812053680419922e+00 -4.818071797490119934e-02 1.549026370048522949e-01
-1.364183902740478516e+01 8.322048187255859375e-01 2.767414748668670654e-01
-1.166974925994873047e+01 2.894695699214935303e-01 1.242849975824356079e-01
-4.069736003875732422e+00 -4.610507190227508545e-02 4.972442053258419037e-03
-4.126029968261718750e+00 -2.286430075764656067e-02 1.549026370048522949e-01
-1.359856891632080078e+01 9.133478999137878418e-01 2.759721875190734863e-01
-1.167374992370605469e+01 3.612539172172546387e-01 1.243488714098930359e-01
-4.091941833496093750e+00 -2.124700322747230530e-02 4.999320022761821747e-03
-1.286528778076171875e+01 4.321945905685424805e-01 3.511872291564941406e+00
-1.304360198974609375e+01 4.450223147869110107e-01 3.041910409927368164e+00
-1.327345371246337891e+01 4.621420204639434814e-01 2.586472988128662109e+00
-1.349740028381347656e+01 4.722977876663208008e-01 2.119760274887084961e+00
-1.377802085876464844e+01 4.941558837890625000e-01 1.656189560890197754e+00
-1.431363487243652344e+01 5.233718752861022949e-01 6.729595661163330078e-01
-1.357276630401611328e+01 9.953075647354125977e-01 2.755672633647918701e-01
-1.171228313446044922e+01 4.343954324722290039e-01 1.247853785753250122e-01
-4.093995571136474609e+00 3.862966783344745636e-03 5.001763813197612762e-03
-1.325957965850830078e+01 5.431357622146606445e-01 2.584370136260986328e+00
-1.350214481353759766e+01 5.554322600364685059e-01 2.121000766754150391e+00
-1.375092124938964844e+01 5.776867270469665527e-01 1.653326988220214844e+00
-1.401866340637207031e+01 5.938369035720825195e-01 1.170837521553039551e+00
-1.431913566589355469e+01 6.115724444389343262e-01 6.733819246292114258e-01
-1.358932590484619141e+01 1.080392122268676758e+00 2.760328948497772217e-01
-1.158951663970947266e+01 5.010694265365600586e-01 1.235078200697898865e-01
-8.660777091979980469e+00 6.131492182612419128e-02 1.058140490204095840e-02
-1.358642673492431641e+01 1.164095759391784668e+00 2.761138975620269775e-01
-1.158921909332275391e+01 5.723198652267456055e-01 1.235397532582283020e-01
-8.656238555908203125e+00 1.144024357199668884e-01 1.057651918381452560e-02
-1.357205867767333984e+01 1.246798396110534668e+00 2.759721875190734863e-01
-1.157949924468994141e+01 6.430865526199340820e-01 1.234758794307708740e-01
-7.834527492523193359e+00 1.516275107860565186e-01 9.573478251695632935e-03
-1.371838188171386719e+01 1.345174551010131836e+00 2.791100442409515381e-01
-1.145557022094726562e+01 7.067361474037170410e-01 1.221983209252357483e-01
-8.034384727478027344e+00 2.048188000917434692e-01 9.819046594202518463e-03
-1.387792396545410156e+01 1.446844220161437988e+00 2.825313508510589600e-01
-1.149690914154052734e+01 7.801268696784973145e-01 1.226880475878715515e-01
-8.642670631408691406e+00 2.733999192714691162e-01 1.056430116295814514e-02
-1.287215232849121094e+01 4.300355017185211182e-01 3.386038780212402344e+00
-1.311154747009277344e+01 4.494883716106414795e-01 2.932499885559082031e+00
-1.331770515441894531e+01 4.681917428970336914e-01 2.465004444122314453e+00
-1.356148529052734375e+01 4.862415790557861328e-01 2.001452684402465820e+00
-1.377884674072265625e+01 5.012590289115905762e-01 1.524640917778015137e+00
-1.405501651763916016e+01 5.186748504638671875e-01 1.040242671966552734e+00
-1.437879753112792969e+01 5.381624698638916016e-01 5.401896834373474121e-01
-1.388070964813232422e+01 1.533287525177001953e+00 2.827742993831634521e-01
-1.174719429016113281e+01 8.695528507232666016e-01 1.254135072231292725e-01
-8.368025779724121094e+00 3.161194324493408203e-01 1.023076940327882767e-02
-1.282095241546630859e+01 5.070983171463012695e-01 3.373325347900390625e+00
-1.307636356353759766e+01 5.286299586296081543e-01 2.925301074981689453e+00
-1.330966949462890625e+01 5.496959686279296875e-01 2.464095115661621094e+00
-1.354045391082763672e+01 5.686968564987182617e-01 1.998826146125793457e+00
-1.377948379516601562e+01 5.859639048576354980e-01 1.525080561637878418e+00
-1.412231063842773438e+01 6.079503893852233887e-01 1.045479655265808105e+00
-1.436623859405517578e+01 6.259874701499938965e-01 5.398519635200500488e-01
-1.379556751251220703e+01 1.609623193740844727e+00 2.812357246875762939e-01
-1.177951335906982422e+01 9.446533918380737305e-01 1.258180737495422363e-01
-8.846464157104492188e+00 3.885654211044311523e-01 1.081842090934514999e-02
-1.383008670806884766e+01 1.699729084968566895e+00 2.821467220783233643e-01
-1.177449131011962891e+01 1.016999363899230957e+00 1.258287131786346436e-01
-8.826934814453125000e+00 4.419888257980346680e-01 1.079765148460865021e-02
-1.382931232452392578e+01 1.785837292671203613e+00 2.823491692543029785e-01
-1.177101707458496094e+01 1.089503645896911621e+00 1.258606463670730591e-01
-8.859001159667968750e+00 4.981063306331634521e-01 1.084041222929954529e-02
-1.377846431732177734e+01 1.865293741226196289e+00 2.815393805503845215e-01
-1.134815692901611328e+01 1.120633244514465332e+00 1.214104890823364258e-01
-8.759964942932128906e+00 5.464776158332824707e-01 1.072312612086534500e-02
-1.381427574157714844e+01 1.956531524658203125e+00 2.825111150741577148e-01
-1.156780910491943359e+01 1.214039683341979980e+00 1.238378584384918213e-01
-8.827280998229980469e+00 6.050727963447570801e-01 1.080986950546503067e-02
-1.384355068206787109e+01 2.047400951385498047e+00 2.833613753318786621e-01
-1.120236587524414062e+01 1.245226025581359863e+00 1.200051829218864441e-01
-8.990935325622558594e+00 6.717415452003479004e-01 1.101511996239423752e-02
-1.378329658508300781e+01 2.124992370605468750e+00 2.823896408081054688e-01
-1.149145889282226562e+01 1.348792433738708496e+00 1.231884211301803589e-01
-8.923848152160644531e+00 7.218168973922729492e-01 1.093814987689256668e-02
-1.375025558471679688e+01 2.206357240676879883e+00 2.819847762584686279e-01
-1.160006904602050781e+01 1.433750987052917480e+00 1.244446858763694763e-01
-8.947146415710449219e+00 7.789877653121948242e-01 1.097236014902591705e-02
-1.376209926605224609e+01 2.294961452484130859e+00 2.825111150741577148e-01
-1.176062107086181641e+01 1.526916146278381348e+00 1.262652128934860229e-01
-8.971072196960449219e+00 8.365643024444580078e-01 1.100778952240943909e-02
-1.338128280639648438e+01 2.315933942794799805e+00 2.749801874160766602e-01
-1.166185665130615234e+01 1.586914777755737305e+00 1.253070384263992310e-01
-8.999604225158691406e+00 8.949585556983947754e-01 1.104932837188243866e-02
-1.370239353179931641e+01 2.458198070526123047e+00 2.818835377693176270e-01
-1.171426773071289062e+01 1.667317628860473633e+00 1.259777545928955078e-01
-8.433064460754394531e+00 8.909084200859069824e-01 1.036027260124683380e-02
-1.395442485809326172e+01 2.591889619827270508e+00 2.873900234699249268e-01
-1.160985469818115234e+01 1.725201010704040527e+00 1.249663680791854858e-01
-8.348928451538085938e+00 9.338542819023132324e-01 1.026375498622655869e-02
-1.395200443267822266e+01 2.680104017257690430e+00 2.876734733581542969e-01
-1.141722869873046875e+01 1.768245577812194824e+00 1.230074465274810791e-01
-8.841579437255859375e+00 1.043927192687988281e+00 1.087706442922353745e-02
-1.396471595764160156e+01 2.771500110626220703e+00 2.882807850837707520e-01
-1.186817550659179688e+01 1.912726879119873047e+00 1.279899030923843384e-01
-8.862792968750000000e+00 1.101612210273742676e+00 1.091127283871173859e-02
-1.405322837829589844e+01 2.878803014755249023e+00 2.904671728610992432e-01
-1.158993911743164062e+01 1.940920352935791016e+00 1.251154094934463501e-01
-8.869749069213867188e+00 1.157784581184387207e+00 1.092837750911712646e-02
-1.393258953094482422e+01 2.943279981613159180e+00 2.883415222167968750e-01
-1.183592891693115234e+01 2.056854009628295898e+00 1.279047429561614990e-01
-8.835726737976074219e+00 1.208527565002441406e+00 1.089539006352424622e-02
-1.417510414123535156e+01 3.085489511489868164e+00 2.937467694282531738e-01
-1.145896530151367188e+01 2.063858032226562500e+00 1.239656135439872742e-01
-8.974654197692871094e+00 1.283675432205200195e+00 1.107620541006326675e-02
-1.409541893005371094e+01 3.158853054046630859e+00 2.924916446208953857e-01
-1.172624111175537109e+01 2.186365365982055664e+00 1.269998103380203247e-01
-9.081336975097656250e+00 1.355847716331481934e+00 1.121792662888765335e-02
-1.408648681640625000e+01 3.247752189636230469e+00 2.927143275737762451e-01
-1.164485645294189453e+01 2.245212554931640625e+00 1.262652128934860229e-01
-9.007631301879882812e+00 1.401398062705993652e+00 1.113729272037744522e-02
-1.383378505706787109e+01 3.279012680053710938e+00 2.878758907318115234e-01
-1.192016220092773438e+01 2.374244451522827148e+00 1.294058710336685181e-01
-8.548723220825195312e+00 1.383777499198913574e+00 1.058018393814563751e-02
-1.393191719055175781e+01 3.392693519592285156e+00 2.903457283973693848e-01
-1.165168857574462891e+01 2.395192146301269531e+00 1.266484856605529785e-01
-8.196889877319335938e+00 1.378491878509521484e+00 1.015502121299505234e-02
-1.384973144531250000e+01 3.462835788726806641e+00 2.890703082084655762e-01
-1.191458320617675781e+01 2.525527954101562500e+00 1.296720206737518311e-01
-8.887709617614746094e+00 1.550803899765014648e+00 1.102245040237903595e-02
-1.373525428771972656e+01 3.523898839950561523e+00 2.871268391609191895e-01
-1.188518619537353516e+01 2.595600128173828125e+00 1.295229792594909668e-01
-9.133877754211425781e+00 1.651571273803710938e+00 1.134010031819343567e-02
-7.095947742462158203e+00 2.143871068954467773e+00 2.200048714876174927e-01
-1.364472389221191406e+01 3.590048313140869141e+00 2.856895029544830322e-01
-1.191879177093505859e+01 2.679663658142089844e+00 1.300659477710723877e-01
-9.152076721191406250e+00 1.712919592857360840e+00 1.137553062289953232e-02
-7.072154045104980469e+00 2.184126138687133789e+00 2.196785509586334229e-01
-1.368518447875976562e+01 3.690624475479125977e+00 2.870053946971893311e-01
-1.196350097656250000e+01 2.766940832138061523e+00 1.307366639375686646e-01
-9.077577590942382812e+00 1.756693720817565918e+00 1.129611767828464508e-02
-1.368637371063232422e+01 3.781181573867797852e+00 2.875114977359771729e-01
-1.178091812133789062e+01 2.800975322723388672e+00 1.289267838001251221e-01
-9.148999214172363281e+00 1.828824996948242188e+00 1.139874383807182312e-02
-1.482694244384765625e+01 4.779150009155273438e+00 4.623484313488006592e-01
-1.370332050323486328e+01 3.876518726348876953e+00 2.883617579936981201e-01
-1.194321727752685547e+01 2.917102098464965820e+00 1.308963596820831299e-01
-9.197347640991210938e+00 1.897251486778259277e+00 1.147326920181512833e-02
-1.384028244018554688e+01 4.555054187774658203e+00 4.324448704719543457e-01
-1.363702201843261719e+01 3.948293685913085938e+00 2.874709963798522949e-01
-1.191345405578613281e+01 2.987410783767700195e+00 1.307685971260070801e-01
-9.201182365417480469e+00 1.956978201866149902e+00 1.149281673133373260e-02
-1.286359977722167969e+01 4.321270465850830078e+00 4.027489423751831055e-01
-1.359144878387451172e+01 4.025648117065429688e+00 2.870256304740905762e-01
-1.184357357025146484e+01 3.047248363494873047e+00 1.302043497562408447e-01
-9.244681358337402344e+00 2.025598526000976562e+00 1.156245544552803040e-02
-1.263165760040283203e+01 4.329786777496337891e+00 3.963113725185394287e-01
-7.084659576416015625e+00 2.145774841308593750e+00 1.498898118734359741e-01
-1.175117206573486328e+01 3.100474119186401367e+00 1.293952167034149170e-01
-9.009664535522460938e+00 2.032119750976562500e+00 1.128389965742826462e-02
-1.260390949249267578e+01 4.406881809234619141e+00 3.962817192077636719e-01
-7.032202243804931641e+00 2.177082300186157227e+00 1.490597873926162720e-01
-1.155817794799804688e+01 3.125535011291503906e+00 1.274788975715637207e-01
-8.966829299926757812e+00 2.080357789993286133e+00 1.124602742493152618e-02
-1.260958480834960938e+01 4.495883941650390625e+00 3.973200321197509766e-01
-1.324527931213378906e+01 4.189805984497070312e+00 2.812964618206024170e-01
-1.204759120941162109e+01 3.337342500686645508e+00 1.331001371145248413e-01
-8.981131553649902344e+00 2.141833305358886719e+00 1.128023583441972733e-02
-1.258739757537841797e+01 4.575219154357910156e+00 3.974980115890502930e-01
-1.311657428741455078e+01 4.237802028656005859e+00 2.791100442409515381e-01
-1.176522350311279297e+01 3.336986303329467773e+00 1.302043497562408447e-01
-9.029010772705078125e+00 2.211890459060668945e+00 1.135720405727624893e-02
-1.255252647399902344e+01 4.649937152862548828e+00 3.972903490066528320e-01
-1.280833244323730469e+01 4.225181102752685547e+00 2.730974555015563965e-01
-1.186456489562988281e+01 3.443957328796386719e+00 1.315351277589797974e-01
-9.137464523315429688e+00 2.297980546951293945e+00 1.151114236563444138e-02
-1.253778648376464844e+01 4.732165336608886719e+00 3.977353572845458984e-01
-1.285133552551269531e+01 4.326981067657470703e+00 2.745752930641174316e-01
-1.184704399108886719e+01 3.517830610275268555e+00 1.315777152776718140e-01
-8.939217567443847656e+00 2.306533813476562500e+00 1.127901300787925720e-02
-1.252997303009033203e+01 4.817256450653076172e+00 3.984176814556121826e-01
-1.269027519226074219e+01 4.359627246856689453e+00 2.717005908489227295e-01
-7.093801975250244141e+00 2.153867244720458984e+00 7.893172651529312134e-02
-9.131777763366699219e+00 2.416076898574829102e+00 1.154046319425106049e-02
-1.248528671264648438e+01 4.888217449188232422e+00 3.979430198669433594e-01
-1.265479469299316406e+01 4.434435844421386719e+00 2.715183794498443604e-01
-7.054667472839355469e+00 2.189351320266723633e+00 7.864427566528320312e-02
-9.120641708374023438e+00 2.473109722137451172e+00 1.154535077512264252e-02
-1.240306186676025391e+01 4.944007396697998047e+00 3.962817192077636719e-01
-1.260381031036376953e+01 4.503590106964111328e+00 2.710122764110565186e-01
-1.184510135650634766e+01 3.755851984024047852e+00 1.323016732931137085e-01
-9.100478172302246094e+00 2.527688264846801758e+00 1.153924223035573959e-02
-1.243454837799072266e+01 5.045197010040283203e+00 3.982693254947662354e-01
-1.260693931579589844e+01 4.592133045196533203e+00 2.716803550720214844e-01
-1.181041717529296875e+01 3.824764728546142578e+00 1.321739107370376587e-01
-9.098262786865234375e+00 2.587309598922729492e+00 1.155634596943855286e-02
-1.241721630096435547e+01 5.127121448516845703e+00 3.987143337726593018e-01
-1.259633445739746094e+01 4.676012516021728516e+00 2.720650136470794678e-01
-1.179242229461669922e+01 3.899043321609497070e+00 1.322377920150756836e-01
-9.086056709289550781e+00 2.644204378128051758e+00 1.156123261898756027e-02
-1.234313297271728516e+01 5.185407161712646484e+00 3.973497152328491211e-01
-1.257301616668701172e+01 4.755335807800292969e+00 2.721864581108093262e-01
-1.184122943878173828e+01 3.995945692062377930e+00 1.330575495958328247e-01
-7.037781238555908203e+00 2.095044612884521484e+00 8.971164934337139130e-03
-1.237450408935546875e+01 5.288147449493408203e+00 3.993966579437255859e-01
-1.257158946990966797e+01 4.843175411224365234e+00 2.727937996387481689e-01
-1.180892467498779297e+01 4.065922737121582031e+00 1.329723894596099854e-01
-7.064973354339599609e+00 2.150418043136596680e+00 9.022478014230728149e-03
-1.236199188232421875e+01 5.372742176055908203e+00 4.000493288040161133e-01
-1.254163551330566406e+01 4.920222282409667969e+00 2.727937996387481689e-01
-1.182432365417480469e+01 4.152551651000976562e+00 1.334301829338073730e-01
-7.032548427581787109e+00 2.187786340713500977e+00 8.998042903840541840e-03
-1.233884906768798828e+01 5.452937126159667969e+00 4.003756344318389893e-01
-1.249078369140625000e+01 4.988925457000732422e+00 2.723484337329864502e-01
-1.181650829315185547e+01 4.231431484222412109e+00 1.336324661970138550e-01
-9.182347297668457031e+00 2.918490648269653320e+00 1.177137065678834915e-02
-1.232065868377685547e+01 5.535508155822753906e+00 4.008799791336059570e-01
-1.249327945709228516e+01 5.079028129577636719e+00 2.730772197246551514e-01
-1.185325527191162109e+01 4.326829433441162109e+00 1.343457549810409546e-01
-9.078663825988769531e+00 2.946990251541137695e+00 1.166141498833894730e-02
-1.228464317321777344e+01 5.610171794891357422e+00 4.008206427097320557e-01
-1.247758579254150391e+01 5.162087440490722656e+00 2.734213769435882568e-01
-1.181242656707763672e+01 4.394248962402343750e+00 1.341860741376876831e-01
-9.227476119995117188e+00 3.058006286621093750e+00 1.187643967568874359e-02
-1.489961433410644531e+01 5.033642292022705078e+00 5.904232859611511230e-01
-1.226177501678466797e+01 5.690913677215576172e+00 4.012062847614288330e-01
-1.245581245422363281e+01 5.242817878723144531e+00 2.736440598964691162e-01
-1.162534904479980469e+01 4.406045913696289062e+00 1.323655396699905396e-01
-9.243587493896484375e+00 3.126421928405761719e+00 1.192164327949285507e-02
-1.354391098022460938e+01 4.668417930603027344e+00 5.378261208534240723e-01
-1.223747348785400391e+01 5.771159648895263672e+00 4.015622735023498535e-01
-1.242340946197509766e+01 5.319146633148193359e+00 2.736440598964691162e-01
-1.180518722534179688e+01 4.557240009307861328e+00 1.347290277481079102e-01
-9.249753952026367188e+00 3.191888332366943359e+00 1.195463072508573532e-02
-1.374880886077880859e+01 4.833629608154296875e+00 5.471300482749938965e-01
-1.220633983612060547e+01 5.848298072814941406e+00 4.017106294631958008e-01
-1.238870429992675781e+01 5.394476890563964844e+00 2.736035585403442383e-01
-1.193427753448486328e+01 4.691414833068847656e+00 1.365282535552978516e-01
-9.300740242004394531e+00 3.273483276367187500e+00 1.204625982791185379e-02
-1.218011283874511719e+01 5.927896499633789062e+00 4.020369648933410645e-01
-1.236634159088134766e+01 5.475248336791992188e+00 2.738465070724487305e-01
-1.198510551452636719e+01 4.796505928039550781e+00 1.374438405036926270e-01
-9.285185813903808594e+00 3.332178831100463867e+00 1.205236930400133133e-02
-1.426475429534912109e+01 5.212573051452636719e+00 5.701647400856018066e-01
-1.215336704254150391e+01 6.007392883300781250e+00 4.023633003234863281e-01
-1.233980751037597656e+01 5.554306507110595703e+00 2.740084528923034668e-01
-1.195174407958984375e+01 4.868445873260498047e+00 1.374012380838394165e-01
-9.202582359313964844e+00 3.366414785385131836e+00 1.197173446416854858e-02
-1.210645103454589844e+01 6.076919078826904297e+00 4.020369648933410645e-01
-1.231913089752197266e+01 5.636156558990478516e+00 2.743121087551116943e-01
-1.171196174621582031e+01 4.854771137237548828e+00 1.349845379590988159e-01
-9.203304290771484375e+00 3.430851459503173828e+00 1.199983432888984680e-02
-1.383906841278076172e+01 5.250405788421630859e+00 5.556836724281311035e-01
-1.208318424224853516e+01 6.158350467681884766e+00 4.025116264820098877e-01
-1.232511329650878906e+01 5.730607986450195312e+00 2.752231061458587646e-01
-1.194730472564697266e+01 5.038447856903076172e+00 1.380506753921508789e-01
-9.153099060058593750e+00 3.476250648498535156e+00 1.196196023374795914e-02
-1.371897220611572266e+01 5.301363468170166016e+00 5.521571636199951172e-01
-1.253610229492187500e+01 6.486392498016357422e+00 4.189170300960540771e-01
-1.227525520324707031e+01 5.799292564392089844e+00 2.748992145061492920e-01
-1.175350856781005859e+01 5.041885852813720703e+00 1.361662745475769043e-01
-9.112011909484863281e+00 3.524771451950073242e+00 1.193630415946245193e-02
-1.359784603118896484e+01 5.350680351257324219e+00 5.485931634902954102e-01
-1.213944149017333984e+01 6.375883102416992188e+00 4.069615602493286133e-01
-1.224574947357177734e+01 5.877531051635742188e+00 2.750409245491027832e-01
-1.192306995391845703e+01 5.201473712921142578e+00 1.384978145360946655e-01
-9.131150245666503906e+00 3.596740722656250000e+00 1.199006009846925735e-02
-1.416029834747314453e+01 5.672586441040039062e+00 5.726782679557800293e-01
-1.203658294677734375e+01 6.416394710540771484e+00 4.048255980014801025e-01
-1.221574592590332031e+01 5.955626010894775391e+00 2.751826345920562744e-01
-1.187356281280517578e+01 5.266830444335937500e+00 1.382955461740493774e-01
-9.124688148498535156e+00 3.659028053283691406e+00 1.201082952320575714e-02
-1.386798191070556641e+01 5.654478073120117188e+00 5.622488856315612793e-01
-1.200138187408447266e+01 6.492507457733154297e+00 4.049739241600036621e-01
-1.218793296813964844e+01 6.034904956817626953e+00 2.753850817680358887e-01
-1.198413562774658203e+01 5.404121398925781250e+00 1.399670094251632690e-01
-9.228907585144042969e+00 3.766716957092285156e+00 1.217820681631565094e-02
-1.402593421936035156e+01 5.819503784179687500e+00 5.700897574424743652e-01
-1.201038742065429688e+01 6.592959403991699219e+00 4.066352248191833496e-01
-1.215692710876464844e+01 6.112718582153320312e+00 2.755267918109893799e-01
-1.186530399322509766e+01 5.438388824462890625e+00 1.389662474393844604e-01
-9.321985244750976562e+00 3.871601581573486328e+00 1.233214512467384338e-02
-1.424313640594482422e+01 6.012325763702392578e+00 5.804065465927124023e-01
-1.198105907440185547e+01 6.672852516174316406e+00 4.070208668708801270e-01
-1.212186241149902344e+01 6.188560962677001953e+00 2.755875289440155029e-01
-1.185165309906005859e+01 5.520379543304443359e+00 1.392004787921905518e-01
-9.277788162231445312e+00 3.920164585113525391e+00 1.230526715517044067e-02
-1.394611740112304688e+01 5.988030910491943359e+00 5.697895884513854980e-01
-1.192335510253906250e+01 6.736898422241210938e+00 4.064572155475616455e-01
-1.211828041076660156e+01 6.280765056610107422e+00 2.763770520687103271e-01
-1.183382606506347656e+01 5.600695610046386719e+00 1.393921077251434326e-01
-9.199354171752929688e+00 3.953721523284912109e+00 1.223318465054035187e-02
-1.188526344299316406e+01 6.811920642852783203e+00 4.065758883953094482e-01
-1.209986495971679688e+01 6.365709781646728516e+00 2.768426835536956787e-01
-1.185781574249267578e+01 5.701365947723388672e+00 1.400841176509857178e-01
-8.990744590759277344e+00 3.929594993591308594e+00 1.198761723935604095e-02
-1.190200519561767578e+01 6.918878555297851562e+00 4.085932075977325439e-01
-1.205616855621337891e+01 6.437479019165039062e+00 2.767414748668670654e-01
-1.183249282836914062e+01 5.778843402862548828e+00 1.402012258768081665e-01
-9.136435508728027344e+00 4.060222148895263672e+00 1.221485808491706848e-02
-1.199798202514648438e+01 6.501330375671386719e+00 2.763163447380065918e-01
-1.178874969482421875e+01 5.847338676452636719e+00 1.401054114103317261e-01
-9.176054000854492188e+00 4.145436763763427734e+00 1.230160146951675415e-02
-1.422458076477050781e+01 6.525570392608642578e+00 5.875345468521118164e-01
-1.201305961608886719e+01 6.605173587799072266e+00 2.775917351245880127e-01
-1.184106159210205078e+01 5.964094638824462891e+00 1.411594003438949585e-01
-8.999588966369628906e+00 4.132392883300781250e+00 1.209879480302333832e-02
-1.410638141632080078e+01 6.576415061950683594e+00 5.843082070350646973e-01
-1.201770687103271484e+01 6.704088211059570312e+00 2.786444425582885742e-01
-1.192888259887695312e+01 6.100377559661865234e+00 1.426498740911483765e-01
-9.298481941223144531e+00 4.338917732238769531e+00 1.253617368638515472e-02
-1.199026679992675781e+01 6.785579681396484375e+00 2.789683341979980469e-01
-1.185395336151123047e+01 6.154106140136718750e+00 1.422027349472045898e-01
-9.112652778625488281e+00 4.320490360260009766e+00 1.232114899903535843e-02
-1.195707702636718750e+01 6.864000320434570312e+00 2.791707813739776611e-01
-1.187435531616210938e+01 6.257492542266845703e+00 1.429053843021392822e-01
-9.094980239868164062e+00 4.380662441253662109e+00 1.233336608856916428e-02
-1.193633460998535156e+01 6.949814796447753906e+00 2.796768844127655029e-01
-1.184984493255615234e+01 6.337779998779296875e+00 1.430757343769073486e-01
-9.306866645812988281e+00 4.553283214569091797e+00 1.265834644436836243e-02
-1.180633926391601562e+01 6.407985210418701172e+00 1.430225074291229248e-01
-9.310098648071289062e+00 4.625877380371093750e+00 1.270110812038183212e-02
-1.360443687438964844e+01 6.858037948608398438e+00 5.719655156135559082e-01
-8.837648391723632812e+00 5.291907787322998047e+00 2.085784375667572021e-01
-1.173176288604736328e+01 6.461011409759521484e+00 1.425966471433639526e-01
-9.292252540588378906e+00 4.688321590423583984e+00 1.271576900035142899e-02
-1.168229484558105469e+01 6.527509212493896484e+00 1.424795389175415039e-01
-9.165408134460449219e+00 4.695097923278808594e+00 1.258137729018926620e-02
-1.161940574645996094e+01 6.586246967315673828e+00 1.422027349472045898e-01
-9.145299911499023438e+00 4.755861282348632812e+00 1.259359531104564667e-02
-1.162905311584472656e+01 6.686326980590820312e+00 1.428202241659164429e-01
-9.050502777099609375e+00 4.777341842651367188e+00 1.250318717211484909e-02
-1.162322330474853516e+01 6.778208255767822266e+00 1.432567089796066284e-01
-9.273121833801269531e+00 4.967842102050781250e+00 1.285260170698165894e-02
-1.162100601196289062e+01 6.872814655303955078e+00 1.437464505434036255e-01
-8.968354225158691406e+00 4.875627517700195312e+00 1.247142162173986435e-02
-8.791584968566894531e+00 5.272536754608154297e+00 1.091459542512893677e-01
-9.271878242492675781e+00 5.114591598510742188e+00 1.293690130114555359e-02
-9.243811607360839844e+00 5.173339843750000000e+00 1.294178795069456100e-02
-9.273637771606445312e+00 5.265015125274658203e+00 1.302853133529424667e-02
-9.196962356567382812e+00 5.296367168426513672e+00 1.296622306108474731e-02
-9.260139465332031250e+00 5.408681869506835938e+00 1.310183573514223099e-02
-8.803467750549316406e+00 5.214655399322509766e+00 1.250074338167905807e-02
