-3.539057254791259766e+00 -6.017279148101806641e+00 1.233428835868835449e+00
-3.239393234252929688e+00 -5.998167991638183594e+00 1.135885119438171387e+00
-2.904246807098388672e+00 -5.886154174804687500e+00 1.030187129974365234e+00
-2.595213651657104492e+00 -5.774106979370117188e+00 9.336804747581481934e-01
-3.634899139404296875e+00 -6.177766799926757812e+00 9.984394311904907227e-01
-3.257068395614624023e+00 -6.025864124298095703e+00 8.872002959251403809e-01
-2.909894704818725586e+00 -5.884653568267822266e+00 7.886162400245666504e-01
-2.565151453018188477e+00 -5.699238777160644531e+00 6.911001801490783691e-01
-3.584902286529541016e+00 -6.087930679321289062e+00 7.238675355911254883e-01
-3.203122615814208984e+00 -5.921117782592773438e+00 6.256925463676452637e-01
-2.876312732696533203e+00 -5.811634540557861328e+00 5.410965681076049805e-01
-2.577979564666748047e+00 -5.719736576080322266e+00 4.640265703201293945e-01
-3.579764842987060547e+00 -6.074355602264404297e+00 4.645997285842895508e-01
-3.226248979568481445e+00 -5.958897113800048828e+00 3.824086487293243408e-01
-2.874963998794555664e+00 -5.803812503814697266e+00 3.043078184127807617e-01
-3.615946531295776367e+00 -6.133303165435791016e+00 2.113126665353775024e-01
-3.607583522796630859e+00 -6.046153068542480469e+00 2.074844121932983398e+00
-3.334304332733154297e+00 -6.099468708038330078e+00 1.969651460647583008e+00
-2.959897279739379883e+00 -5.927969455718994141e+00 1.807654976844787598e+00
-2.647839546203613281e+00 -5.833492755889892578e+00 1.684247374534606934e+00
-3.710714340209960938e+00 -6.221463203430175781e+00 1.839749813079833984e+00
-3.323379993438720703e+00 -6.074445724487304688e+00 1.684083461761474609e+00
-2.965424299240112305e+00 -5.931266307830810547e+00 1.545583724975585938e+00
-2.643071174621582031e+00 -5.809512138366699219e+00 1.426656842231750488e+00
-3.661972284317016602e+00 -6.142177581787109375e+00 1.535646438598632812e+00
-3.301736593246459961e+00 -6.029886245727539062e+00 1.406164765357971191e+00
-2.950295209884643555e+00 -5.890720844268798828e+00 1.283009886741638184e+00
-2.636401653289794922e+00 -5.781461715698242188e+00 1.175388097763061523e+00
-3.616266489028930664e+00 -6.063109874725341797e+00 1.247348189353942871e+00
-3.299364805221557617e+00 -6.020565032958984375e+00 1.143938779830932617e+00
-2.963763952255249023e+00 -5.915034770965576172e+00 1.038405060768127441e+00
-2.642104864120483398e+00 -5.783269882202148438e+00 9.377660155296325684e-01
-3.693036556243896484e+00 -6.189368724822998047e+00 1.003957986831665039e+00
-3.321641206741333008e+00 -6.056197643280029297e+00 8.946502804756164551e-01
-2.962432384490966797e+00 -5.899517059326171875e+00 7.930292487144470215e-01
-2.698485612869262695e+00 -5.898508071899414062e+00 7.172582745552062988e-01
-3.655851364135742188e+00 -6.122189998626708984e+00 7.305945158004760742e-01
-3.254725933074951172e+00 -5.929283618927001953e+00 6.286539435386657715e-01
-2.906100511550903320e+00 -5.782300949096679688e+00 5.400155782699584961e-01
-2.612195968627929688e+00 -5.701997280120849609e+00 4.638790786266326904e-01
-3.679418563842773438e+00 -6.156773090362548828e+00 4.726213812828063965e-01
-3.248810291290283203e+00 -5.913612365722656250e+00 3.807746767997741699e-01
-3.000745773315429688e+00 -5.965427398681640625e+00 3.137411773204803467e-01
-3.684799909591674805e+00 -6.163334369659423828e+00 2.131223082542419434e-01
-3.677385807037353516e+00 -6.078069210052490234e+00 2.093500852584838867e+00
-3.402933835983276367e+00 -6.135266780853271484e+00 1.987916707992553711e+00
-3.016282796859741211e+00 -5.949277877807617188e+00 1.819762110710144043e+00
-2.699788570404052734e+00 -5.852263927459716797e+00 1.694417834281921387e+00
-3.621918439865112305e+00 -5.988751411437988281e+00 1.777472972869873047e+00
-3.379924774169921875e+00 -6.088771343231201172e+00 1.693772912025451660e+00
-3.011901378631591797e+00 -5.932931900024414062e+00 1.550804495811462402e+00
-2.697099208831787109e+00 -5.833046436309814453e+00 1.436473369598388672e+00
-3.637880802154541016e+00 -6.017516136169433594e+00 1.510031342506408691e+00
-3.367697000503540039e+00 -6.061755657196044922e+00 1.418388843536376953e+00
-3.005071640014648438e+00 -5.909254074096679688e+00 1.291038155555725098e+00
-2.690845727920532227e+00 -5.806215763092041016e+00 1.183755159378051758e+00
-3.641170501708984375e+00 -6.020584106445312500e+00 1.243172407150268555e+00
-3.354938745498657227e+00 -6.033829212188720703e+00 1.150348782539367676e+00
-3.014336824417114258e+00 -5.924913883209228516e+00 1.043366670608520508e+00
-2.687539100646972656e+00 -5.788484573364257812e+00 9.412677884101867676e-01
-3.681724786758422852e+00 -6.085240840911865234e+00 9.907134771347045898e-01
-3.381403923034667969e+00 -6.076431751251220703e+00 9.006874561309814453e-01
-3.022026538848876953e+00 -5.927224159240722656e+00 7.992312908172607422e-01
-2.664648294448852539e+00 -5.731323242187500000e+00 6.989036202430725098e-01
-3.666554212570190430e+00 -6.055393218994140625e+00 7.252944707870483398e-01
-3.324474811553955078e+00 -5.969224452972412109e+00 6.350395083427429199e-01
-2.983197689056396484e+00 -5.846024036407470703e+00 5.476658940315246582e-01
-2.657656431198120117e+00 -5.708464145660400391e+00 4.657230377197265625e-01
-3.694890022277832031e+00 -6.097385883331298828e+00 4.697940945625305176e-01
-3.379822969436645508e+00 -6.063623905181884766e+00 3.917618095874786377e-01
-3.048651218414306641e+00 -5.969142436981201172e+00 3.149144947528839111e-01
-3.756747245788574219e+00 -6.197023391723632812e+00 2.150802910327911377e-01
-3.692508697509765625e+00 -6.619168281555175781e+00 1.534730792045593262e-01
-3.748216152191162109e+00 -6.110172748565673828e+00 2.112440109252929688e+00
-3.473070859909057617e+00 -6.172127246856689453e+00 2.006727218627929688e+00
-3.082312583923339844e+00 -5.988129138946533203e+00 1.837396502494812012e+00
-2.753298521041870117e+00 -5.873242378234863281e+00 1.705351233482360840e+00
-3.664169788360595703e+00 -5.975503921508789062e+00 1.780180692672729492e+00
-3.401963710784912109e+00 -6.040824890136718750e+00 1.686210393905639648e+00
-3.072788238525390625e+00 -5.961952209472656250e+00 1.563289046287536621e+00
-2.745704412460327148e+00 -5.843769073486328125e+00 1.443235754966735840e+00
-3.656340837478637695e+00 -5.965072154998779297e+00 1.502472758293151855e+00
-3.441386938095092773e+00 -6.105842590332031250e+00 1.433618783950805664e+00
-3.070992946624755859e+00 -5.948267936706542969e+00 1.303654193878173828e+00
-2.746949195861816406e+00 -5.833186626434326172e+00 1.192667841911315918e+00
-3.658996820449829102e+00 -5.967067718505859375e+00 1.236734628677368164e+00
-3.421945095062255859e+00 -6.066396713256835938e+00 1.160539031028747559e+00
-3.089169979095458984e+00 -5.980914592742919922e+00 1.056546449661254883e+00
-2.742844820022583008e+00 -5.813937187194824219e+00 9.481256008148193359e-01
-3.658918142318725586e+00 -5.964602947235107422e+00 9.747097492218017578e-01
-3.436175823211669922e+00 -6.086658954620361328e+00 9.053116440773010254e-01
-3.086635351181030273e+00 -5.963238239288330078e+00 8.066260814666748047e-01
-2.689575672149658203e+00 -5.693296909332275391e+00 6.962658762931823730e-01
-3.632336616516113281e+00 -5.916636466979980469e+00 7.113308310508728027e-01
-3.413447856903076172e+00 -6.041472434997558594e+00 6.449417471885681152e-01
-3.075853347778320312e+00 -5.937330722808837891e+00 5.579772591590881348e-01
-2.749777793884277344e+00 -5.812850475311279297e+00 4.756069481372833252e-01
-3.663282394409179688e+00 -5.962374687194824219e+00 4.611149132251739502e-01
-3.413524866104125977e+00 -6.036687850952148438e+00 3.913673758506774902e-01
-3.108209371566772461e+00 -5.994662761688232422e+00 3.172610700130462646e-01
-3.801505088806152344e+00 -6.184926033020019531e+00 2.154659479856491089e-01
-3.581387519836425781e+00 -6.328389644622802734e+00 1.472377926111221313e-01
-3.811978816986083984e+00 -6.129415035247802734e+00 2.127139329910278320e+00
-3.535678625106811523e+00 -6.194150924682617188e+00 2.020903348922729492e+00
-3.144910335540771484e+00 -6.018696784973144531e+00 1.852662086486816406e+00
-2.804671764373779297e+00 -5.888545036315917969e+00 1.714758992195129395e+00
-3.769336462020874023e+00 -6.063208103179931641e+00 1.813165187835693359e+00
-3.530060768127441406e+00 -6.179297447204589844e+00 1.730876684188842773e+00
-3.139109611511230469e+00 -5.999938964843750000e+00 1.578270435333251953e+00
-2.796224355697631836e+00 -5.857636928558349609e+00 1.450870752334594727e+00
-3.718159675598144531e+00 -5.983215808868408203e+00 1.512760877609252930e+00
-3.499210357666015625e+00 -6.120333671569824219e+00 1.442035317420959473e+00
-3.132948637008666992e+00 -5.977999210357666016e+00 1.314358711242675781e+00
-2.790752410888671875e+00 -5.833075523376464844e+00 1.196123719215393066e+00
-3.700740575790405273e+00 -5.952867507934570312e+00 1.238474607467651367e+00
-3.475759506225585938e+00 -6.074394702911376953e+00 1.166127204895019531e+00
-3.141407012939453125e+00 -5.991595268249511719e+00 1.061818361282348633e+00
-2.783597946166992188e+00 -5.807703495025634766e+00 9.498764872550964355e-01
-3.710616111755371094e+00 -5.966430664062500000e+00 9.787106513977050781e-01
-3.509434700012207031e+00 -6.128283500671386719e+00 9.146884083747863770e-01
-3.147642374038696289e+00 -5.990769863128662109e+00 8.129474520683288574e-01
-2.793268680572509766e+00 -5.820059776306152344e+00 7.138511538505554199e-01
-3.721138000488281250e+00 -5.978693962097167969e+00 7.215232849121093750e-01
-3.520759820938110352e+00 -6.143085956573486328e+00 6.580830812454223633e-01
-3.124285697937011719e+00 -5.941277980804443359e+00 5.601393580436706543e-01
-2.808719873428344727e+00 -5.844407081604003906e+00 4.795899987220764160e-01
-3.702435493469238281e+00 -5.944019317626953125e+00 4.614436328411102295e-01
-3.517066955566406250e+00 -6.131680965423583984e+00 3.989175260066986084e-01
-3.147259473800659180e+00 -5.979898452758789062e+00 3.174957334995269775e-01
-3.879030227661132812e+00 -6.225109100341796875e+00 2.176909148693084717e-01
-3.533541679382324219e+00 -6.155423164367675781e+00 1.437152624130249023e-01
-3.891464471817016602e+00 -6.172445774078369141e+00 2.150318622589111328e+00
-3.601578712463378906e+00 -6.220632076263427734e+00 2.036715030670166016e+00
-3.203478336334228516e+00 -6.040196418762207031e+00 1.865295648574829102e+00
-2.851280927658081055e+00 -5.892989635467529297e+00 1.721115708351135254e+00
-3.836440801620483398e+00 -6.087524890899658203e+00 1.827442169189453125e+00
-3.588370084762573242e+00 -6.192831993103027344e+00 1.740802526473999023e+00
-3.191395282745361328e+00 -6.009809970855712891e+00 1.585988163948059082e+00
-2.849146366119384766e+00 -5.875494003295898438e+00 1.459596514701843262e+00
-3.792845010757446289e+00 -6.020678043365478516e+00 1.528087973594665527e+00
-3.565695285797119141e+00 -6.148750782012939453e+00 1.453858494758605957e+00
-3.183859825134277344e+00 -5.985527515411376953e+00 1.320284485816955566e+00
-2.848411798477172852e+00 -5.860946655273437500e+00 1.205400347709655762e+00
-3.766073703765869141e+00 -5.975868701934814453e+00 1.248044133186340332e+00
-3.556537628173828125e+00 -6.128029346466064453e+00 1.180590867996215820e+00
-3.194818973541259766e+00 -6.003602981567382812e+00 1.067400336265563965e+00
-2.854258298873901367e+00 -5.862562179565429688e+00 9.616952538490295410e-01
-3.770397186279296875e+00 -5.980414867401123047e+00 9.847810864448547363e-01
-3.566396951675415039e+00 -6.140079021453857422e+00 9.196979403495788574e-01
-3.199291944503784180e+00 -5.999378204345703125e+00 8.167641162872314453e-01
-2.852882623672485352e+00 -5.851949214935302734e+00 7.198960185050964355e-01
-3.788009643554687500e+00 -6.003704547882080078e+00 7.273329496383666992e-01
-3.533366203308105469e+00 -6.078325748443603516e+00 6.534558534622192383e-01
-3.206665277481079102e+00 -6.008152961730957031e+00 5.682885646820068359e-01
-2.855464696884155273e+00 -5.849468231201171875e+00 4.814340174198150635e-01
-3.805431365966796875e+00 -6.026654243469238281e+00 4.696625769138336182e-01
-3.557134628295898438e+00 -6.114300251007080078e+00 3.991992473602294922e-01
-3.213071823120117188e+00 -6.015100955963134766e+00 3.204055130481719971e-01
-3.942243099212646484e+00 -6.240909576416015625e+00 2.190852165222167969e-01
-3.577784061431884766e+00 -6.144858360290527344e+00 1.439784467220306396e-01
-3.962839365005493164e+00 -6.200989246368408203e+00 2.168692827224731445e+00
-3.673782348632812500e+00 -6.256493091583251953e+00 2.055798053741455078e+00
-3.259684085845947266e+00 -6.056105613708496094e+00 1.876349925994873047e+00
-2.904448509216308594e+00 -5.910102844238281250e+00 1.731286168098449707e+00
-3.913898229598999023e+00 -6.126763343811035156e+00 1.846395969390869141e+00
-3.633193254470825195e+00 -6.182425498962402344e+00 1.744111061096191406e+00
-3.247153997421264648e+00 -6.025264739990234375e+00 1.595294713973999023e+00
-2.904116630554199219e+00 -5.896422863006591797e+00 1.469194769859313965e+00
-3.871285915374755859e+00 -6.062390327453613281e+00 1.544674754142761230e+00
-3.626700162887573242e+00 -6.166447639465332031e+00 1.463277101516723633e+00
-3.237312078475952148e+00 -5.996973991394042969e+00 1.327165842056274414e+00
-2.903035640716552734e+00 -5.881274223327636719e+00 1.213221669197082520e+00
-3.860455036163330078e+00 -6.043104171752929688e+00 1.267009377479553223e+00
-3.622591972351074219e+00 -6.154545307159423828e+00 1.189959287643432617e+00
-3.249434709548950195e+00 -6.016918182373046875e+00 1.073292374610900879e+00
-2.904647350311279297e+00 -5.874203205108642578e+00 9.665103554725646973e-01
-3.847555398941040039e+00 -6.020594596862792969e+00 9.952662587165832520e-01
-3.624642133712768555e+00 -6.153114318847656250e+00 9.249643683433532715e-01
-3.253999948501586914e+00 -6.012815952301025391e+00 8.212963342666625977e-01
-2.906817913055419922e+00 -5.870854377746582031e+00 7.244022488594055176e-01
-3.858543395996093750e+00 -6.033146381378173828e+00 7.337542176246643066e-01
-3.588294267654418945e+00 -6.086551666259765625e+00 6.566948890686035156e-01
-3.233503580093383789e+00 -5.969962596893310547e+00 5.665423274040222168e-01
-2.914780378341674805e+00 -5.879192352294921875e+00 4.853433370590209961e-01
-3.854710817337036133e+00 -6.022521018981933594e+00 4.711748659610748291e-01
-3.586466550827026367e+00 -6.078600406646728516e+00 3.982977271080017090e-01
-3.230401754379272461e+00 -5.959267616271972656e+00 3.184813261032104492e-01
-3.450313329696655273e+00 -6.950230598449707031e+00 2.913099825382232666e-01
-4.058616161346435547e+00 -6.338662147521972656e+00 2.233868241310119629e-01
-3.625079393386840820e+00 -6.139146804809570312e+00 1.443630903959274292e-01
-4.047746658325195312e+00 -6.249013900756835938e+00 2.194133520126342773e+00
-3.677152156829833984e+00 -6.175140380859375000e+00 2.036442279815673828e+00
-3.326841354370117188e+00 -6.091024875640869141e+00 1.893458008766174316e+00
-2.957932472229003906e+00 -5.926784038543701172e+00 1.741456747055053711e+00
-3.998301506042480469e+00 -6.175040721893310547e+00 1.868303537368774414e+00
-3.714336395263671875e+00 -6.232634544372558594e+00 1.764671802520751953e+00
-3.300885200500488281e+00 -6.035987854003906250e+00 1.603466391563415527e+00
-2.954648256301879883e+00 -5.907295703887939453e+00 1.476393461227416992e+00
-3.952505111694335938e+00 -6.106647968292236328e+00 1.562101483345031738e+00
-3.684040307998657227e+00 -6.176894187927246094e+00 1.471092462539672852e+00
-3.297154188156127930e+00 -6.019179344177246094e+00 1.336532235145568848e+00
-2.950965166091918945e+00 -5.887085437774658203e+00 1.218132734298706055e+00
-3.909236907958984375e+00 -6.037487983703613281e+00 1.270837068557739258e+00
-3.671915292739868164e+00 -6.151682853698730469e+00 1.193739533424377441e+00
-3.317626953125000000e+00 -6.054046154022216797e+00 1.083526134490966797e+00
-2.957505464553833008e+00 -5.889865398406982422e+00 9.720548987388610840e-01
-3.929116725921630859e+00 -6.065869808197021484e+00 1.006717205047607422e+00
-3.697421312332153320e+00 -6.189503192901611328e+00 9.338274002075195312e-01
-3.318073272705078125e+00 -6.042342662811279297e+00 8.280947804450988770e-01
-2.974040269851684570e+00 -5.915069103240966797e+00 7.320957779884338379e-01
-3.930120944976806641e+00 -6.062781333923339844e+00 7.402773499488830566e-01
-3.890236139297485352e+00 -6.507115840911865234e+00 7.046328783035278320e-01
-3.272473812103271484e+00 -5.954376697540283203e+00 5.669581294059753418e-01
-2.958423137664794922e+00 -5.876339435577392578e+00 4.865972399711608887e-01
-3.925261497497558594e+00 -6.050656318664550781e+00 4.752514362335205078e-01
-3.604217052459716797e+00 -6.023922443389892578e+00 3.961566388607025146e-01
-3.325639486312866211e+00 -6.046113014221191406e+00 3.242070376873016357e-01
-3.493344068527221680e+00 -6.929821491241455078e+00 2.913475036621093750e-01
-4.124096393585205078e+00 -6.354724407196044922e+00 2.248404771089553833e-01
-3.675007343292236328e+00 -6.137374877929687500e+00 1.448489427566528320e-01
-4.113913536071777344e+00 -6.266558647155761719e+00 2.209115505218505859e+00
-3.648829460144042969e+00 -6.042919635772705078e+00 2.000184535980224609e+00
-3.383793115615844727e+00 -6.105937957763671875e+00 1.904512405395507812e+00
-3.026594161987304688e+00 -5.972361564636230469e+00 1.760272264480590820e+00
-4.046751022338867188e+00 -6.166597843170166016e+00 1.873226642608642578e+00
-3.644461631774902344e+00 -6.030927658081054688e+00 1.713860988616943359e+00
-3.365737676620483398e+00 -6.065864086151123047e+00 1.616858839988708496e+00
-3.014702320098876953e+00 -5.936042785644531250e+00 1.488173246383666992e+00
-4.037629127502441406e+00 -6.155039310455322266e+00 1.580787897109985352e+00
-3.644807815551757812e+00 -6.026746749877929688e+00 1.440632462501525879e+00
-3.375986576080322266e+00 -6.074335575103759766e+00 1.353353619575500488e+00
-3.013793468475341797e+00 -5.921448230743408203e+00 1.229046344757080078e+00
-3.983487844467163086e+00 -6.070195198059082031e+00 1.282842516899108887e+00
-3.681500673294067383e+00 -6.082623004913330078e+00 1.184699773788452148e+00
-3.383035421371459961e+00 -6.084517002105712891e+00 1.092674374580383301e+00
-3.022348165512084961e+00 -5.928014755249023438e+00 9.813931584358215332e-01
-3.990178346633911133e+00 -6.078077793121337891e+00 1.012787580490112305e+00
-3.728136539459228516e+00 -6.154824256896972656e+00 9.320291280746459961e-01
-3.379730701446533203e+00 -6.066103458404541016e+00 8.341775536537170410e-01
-3.019768953323364258e+00 -5.915299892425537109e+00 7.344038486480712891e-01
-4.002205848693847656e+00 -6.091762542724609375e+00 7.468004822731018066e-01
-3.903765201568603516e+00 -6.439698219299316406e+00 6.999130845069885254e-01
-3.332728385925292969e+00 -5.976833343505859375e+00 5.710327625274658203e-01
-3.002140283584594727e+00 -5.873172283172607422e+00 4.878511726856231689e-01
-4.000139236450195312e+00 -6.083987712860107422e+00 4.797883033752441406e-01
-3.743648767471313477e+00 -6.170708179473876953e+00 4.073128402233123779e-01
-3.389447927474975586e+00 -6.073567867279052734e+00 3.267883062362670898e-01
-3.533522367477416992e+00 -6.903808116912841797e+00 2.911599278450012207e-01
-4.170700550079345703e+00 -6.340991497039794922e+00 2.252558022737503052e-01
-3.749436855316162109e+00 -6.175386905670166016e+00 1.462863087654113770e-01
-4.197449684143066406e+00 -6.309080600738525391e+00 2.233142852783203125e+00
-3.712464809417724609e+00 -6.063906669616699219e+00 2.014633178710937500e+00
-3.438215494155883789e+00 -6.115334510803222656e+00 1.913987517356872559e+00
-3.085748672485351562e+00 -5.997537612915039062e+00 1.773239850997924805e+00
-4.144626140594482422e+00 -6.232041358947753906e+00 1.900795817375183105e+00
-3.625050306320190430e+00 -5.916485786437988281e+00 1.687628388404846191e+00
-3.398116588592529297e+00 -6.036611557006835938e+00 1.614588975906372070e+00
-3.071641445159912109e+00 -5.957333564758300781e+00 1.498207926750183105e+00
-4.101301193237304688e+00 -6.169230461120605469e+00 1.590865850448608398e+00
-3.663794040679931641e+00 -5.975037097930908203e+00 1.433618783950805664e+00
-3.434406518936157227e+00 -6.091127395629882812e+00 1.361764311790466309e+00
-3.069479942321777344e+00 -5.940408706665039062e+00 1.236867666244506836e+00
-4.038654327392578125e+00 -6.072697639465332031e+00 1.288584232330322266e+00
-3.640849828720092773e+00 -5.932970523834228516e+00 1.159881591796875000e+00
-3.440205097198486328e+00 -6.098923206329345703e+00 1.099031567573547363e+00
-3.063212394714355469e+00 -5.918144702911376953e+00 9.828522801399230957e-01
-4.090488433837890625e+00 -6.148310184478759766e+00 1.028653383255004883e+00
-3.656842470169067383e+00 -5.954368114471435547e+00 9.050547480583190918e-01
-3.444735050201416016e+00 -6.094519138336181641e+00 8.409759402275085449e-01
-3.088022232055664062e+00 -5.958432674407958984e+00 7.420974373817443848e-01
-4.068177223205566406e+00 -6.110148906707763672e+00 7.521005868911743164e-01
-3.602221727371215820e+00 -5.860841751098632812e+00 6.393890976905822754e-01
-3.431161642074584961e+00 -6.065561294555664062e+00 5.815104246139526367e-01
-3.072112560272216797e+00 -5.920145034790039062e+00 4.933094382286071777e-01
-4.060632705688476562e+00 -6.094204902648925781e+00 4.825498461723327637e-01
-3.658514022827148438e+00 -5.947774887084960938e+00 3.940719068050384521e-01
-3.430587768554687500e+00 -6.059609889984130859e+00 3.271637558937072754e-01
-3.570288181304931641e+00 -6.871356487274169922e+00 2.907097339630126953e-01
-3.827614784240722656e+00 -6.217823028564453125e+00 1.478451341390609741e-01
-3.523151636123657227e+00 -6.215516567230224609e+00 7.606787234544754028e-02
-4.347614765167236328e+00 -6.448638439178466797e+00 2.291939735412597656e+00
-3.780552864074707031e+00 -6.090878009796142578e+00 2.031262636184692383e+00
-3.485710859298706055e+00 -6.111721038818359375e+00 1.919514775276184082e+00
-3.139952421188354492e+00 -6.011923789978027344e+00 1.783156156539916992e+00
-4.210412502288818359e+00 -6.247483730316162109e+00 1.913349628448486328e+00
-3.752035140991210938e+00 -6.040226459503173828e+00 1.729458689689636230e+00
-3.507532358169555664e+00 -6.142506599426269531e+00 1.648637771606445312e+00
-3.131669998168945312e+00 -5.983335494995117188e+00 1.509551405906677246e+00
-4.187149524688720703e+00 -6.215305805206298828e+00 1.609342455863952637e+00
-3.717973709106445312e+00 -5.980733394622802734e+00 1.440432071685791016e+00
-3.504367113113403320e+00 -6.127026081085205078e+00 1.374571561813354492e+00
-3.135560274124145508e+00 -5.978065013885498047e+00 1.248690605163574219e+00
-4.160042762756347656e+00 -6.172744274139404297e+00 1.315205097198486328e+00
-3.702717781066894531e+00 -5.951558589935302734e+00 1.167935132980346680e+00
-3.504547119140625000e+00 -6.124860286712646484e+00 1.107559561729431152e+00
-3.145021200180053711e+00 -5.985939502716064453e+00 9.972974061965942383e-01
-4.159696102142333984e+00 -6.169905662536621094e+00 1.036517262458801270e+00
-3.698026418685913086e+00 -5.939394950866699219e+00 9.062107801437377930e-01
-3.519597291946411133e+00 -6.138729572296142578e+00 8.500405550003051758e-01
-3.140257835388183594e+00 -5.969280719757080078e+00 7.458342909812927246e-01
-4.163456439971923828e+00 -6.170835494995117188e+00 7.627007365226745605e-01
-3.759227991104125977e+00 -6.032996177673339844e+00 6.606743335723876953e-01
-3.462858915328979492e+00 -6.034885883331298828e+00 5.805957317352294922e-01
-3.113027811050415039e+00 -5.910006999969482422e+00 4.940470457077026367e-01
-4.133686065673828125e+00 -6.122100830078125000e+00 4.867579638957977295e-01
-3.735090970993041992e+00 -5.989600181579589844e+00 3.983540534973144531e-01
-3.493571758270263672e+00 -6.083489894866943359e+00 3.296042382717132568e-01
-3.605390071868896484e+00 -6.836061477661132812e+00 2.901470065116882324e-01
-3.881045103073120117e+00 -6.218817234039306641e+00 1.484322100877761841e-01
-3.551753044128417969e+00 -6.177311420440673828e+00 7.586558908224105835e-02
-4.519124984741210938e+00 -6.615097045898437500e+00 2.360912561416625977e+00
-3.855772018432617188e+00 -6.127827167510986328e+00 2.051436424255371094e+00
-3.568073034286499023e+00 -6.167880535125732422e+00 1.943992257118225098e+00
-3.198524951934814453e+00 -6.033559799194335938e+00 1.795360803604125977e+00
-3.817503690719604492e+00 -6.062313079833984375e+00 1.742456793785095215e+00
-3.573466539382934570e+00 -6.169748306274414062e+00 1.661803245544433594e+00
-3.196710586547851562e+00 -6.017442226409912109e+00 1.523076176643371582e+00
-4.230167865753173828e+00 -6.196764469146728516e+00 1.611232042312622070e+00
-3.800044775009155273e+00 -6.029918670654296875e+00 1.457866430282592773e+00
-3.574896574020385742e+00 -6.162293910980224609e+00 1.387378692626953125e+00
-3.189279079437255859e+00 -5.990828514099121094e+00 1.255420684814453125e+00
-4.248375892639160156e+00 -6.221105098724365234e+00 1.331038355827331543e+00
-3.770738124847412109e+00 -5.978786945343017578e+00 1.177796721458435059e+00
-3.562889575958251953e+00 -6.139128208160400391e+00 1.114071965217590332e+00
-3.204034805297851562e+00 -6.008430004119873047e+00 1.004301071166992188e+00
-4.243288040161132812e+00 -6.211327075958251953e+00 1.047830224037170410e+00
-3.775687932968139648e+00 -5.982006072998046875e+00 9.162298440933227539e-01
-3.573668479919433594e+00 -6.145341396331787109e+00 8.539764285087585449e-01
-3.201169013977050781e+00 -5.995492935180664062e+00 7.515494823455810547e-01
-4.234366416931152344e+00 -6.193624496459960938e+00 7.687142491340637207e-01
-3.735023498535156250e+00 -5.913005828857421875e+00 6.500316858291625977e-01
-3.507341861724853516e+00 -6.026443481445312500e+00 5.818430185317993164e-01
-3.243737459182739258e+00 -6.067571163177490234e+00 5.088728666305541992e-01
-4.204979419708251953e+00 -6.146033763885498047e+00 4.907030463218688965e-01
-3.814984798431396484e+00 -6.034927845001220703e+00 4.029179811477661133e-01
-3.580103158950805664e+00 -6.146528720855712891e+00 3.342035710811614990e-01
-3.557193994522094727e+00 -6.645535469055175781e+00 2.829814851284027100e-01
-3.945856094360351562e+00 -6.237132072448730469e+00 1.494444310665130615e-01
-3.592108011245727539e+00 -6.159720897674560547e+00 7.591882348060607910e-02
-4.592931270599365234e+00 -6.635354518890380859e+00 2.378155708312988281e+00
-3.965215206146240234e+00 -6.216805458068847656e+00 2.089329957962036133e+00
-3.261604547500610352e+00 -6.062366962432861328e+00 1.809853911399841309e+00
-4.345771789550781250e+00 -6.280628204345703125e+00 1.939688086509704590e+00
-3.898022413253784180e+00 -6.106755733489990234e+00 1.762072205543518066e+00
-3.647264957427978516e+00 -6.209006786346435547e+00 1.678373575210571289e+00
-3.237740755081176758e+00 -6.005445003509521484e+00 1.525039434432983398e+00
-4.360992908477783203e+00 -6.304977416992187500e+00 1.646295428276062012e+00
-3.865980148315429688e+00 -6.051898002624511719e+00 1.468888044357299805e+00
-3.632550001144409180e+00 -6.174082279205322266e+00 1.395024657249450684e+00
-3.238130331039428711e+00 -5.993640422821044922e+00 1.260149836540222168e+00
-4.339698314666748047e+00 -6.271850585937500000e+00 1.347567558288574219e+00
-3.855701208114624023e+00 -6.031166076660156250e+00 1.192753434181213379e+00
-3.620536088943481445e+00 -6.151206016540527344e+00 1.120274186134338379e+00
-3.263442277908325195e+00 -6.030420303344726562e+00 1.011304736137390137e+00
-4.312887668609619141e+00 -6.230779170989990234e+00 1.055556178092956543e+00
-3.842251539230346680e+00 -6.005506992340087891e+00 9.234229922294616699e-01
-3.629465818405151367e+00 -6.154086112976074219e+00 8.582702279090881348e-01
-3.256363630294799805e+00 -6.009820461273193359e+00 7.558358907699584961e-01
-4.341399192810058594e+00 -6.267292976379394531e+00 7.811490893363952637e-01
-3.848549365997314453e+00 -6.010727882385253906e+00 6.633580923080444336e-01
-3.751934766769409180e+00 -6.356670856475830078e+00 6.159370541572570801e-01
-3.245239257812500000e+00 -5.981810092926025391e+00 5.033408403396606445e-01
-4.268193244934082031e+00 -6.157019615173339844e+00 4.936618506908416748e-01
-3.869718313217163086e+00 -6.039146900177001953e+00 4.047773182392120361e-01
-3.619274616241455078e+00 -6.127026081085205078e+00 3.343443870544433594e-01
-3.400431156158447266e+00 -6.260046482086181641e+00 2.674499452114105225e-01
-4.028307437896728516e+00 -6.281815528869628906e+00 1.511044800281524658e-01
-3.657831907272338867e+00 -6.184902191162109375e+00 7.650436460971832275e-02
-4.686982631683349609e+00 -6.683225631713867188e+00 2.405575513839721680e+00
-4.025224685668945312e+00 -6.226293563842773438e+00 2.100779771804809570e+00
-3.654346466064453125e+00 -6.141870498657226562e+00 1.949782729148864746e+00
-3.327937364578247070e+00 -6.095718860626220703e+00 1.825872540473937988e+00
-4.503847122192382812e+00 -6.424476146697998047e+00 1.992610931396484375e+00
-3.973422288894653320e+00 -6.141461849212646484e+00 1.779087901115417480e+00
-3.696259260177612305e+00 -6.204917430877685547e+00 1.683367371559143066e+00
-3.316215515136718750e+00 -6.061665058135986328e+00 1.544454216957092285e+00
-4.446168422698974609e+00 -6.344556331634521484e+00 1.663722038269042969e+00
-3.956288337707519531e+00 -6.110301017761230469e+00 1.488927483558654785e+00
-3.690985202789306641e+00 -6.186237335205078125e+00 1.402861952781677246e+00
-3.303207397460937500e+00 -6.025393486022949219e+00 1.271063446998596191e+00
-4.431801319122314453e+00 -6.321706771850585938e+00 1.364096760749816895e+00
-3.920527935028076172e+00 -6.050440311431884766e+00 1.201300024986267090e+00
-3.685552597045898438e+00 -6.174682617187500000e+00 1.128647089004516602e+00
-3.324667930603027344e+00 -6.054508209228515625e+00 1.018746256828308105e+00
-4.423261165618896484e+00 -6.307182788848876953e+00 1.073077440261840820e+00
-3.922734260559082031e+00 -6.049217224121093750e+00 9.338274002075195312e-01
-3.683465480804443359e+00 -6.158967018127441406e+00 8.620868325233459473e-01
-3.316163539886474609e+00 -6.031533718109130859e+00 7.611114382743835449e-01
-4.418061733245849609e+00 -6.295092582702636719e+00 7.879779934883117676e-01
-3.947150945663452148e+00 -6.082218170166015625e+00 6.739081740379333496e-01
-3.794962167739868164e+00 -6.340370178222656250e+00 6.166023015975952148e-01
-3.294386148452758789e+00 -5.984499931335449219e+00 5.052586197853088379e-01
-4.360948562622070312e+00 -6.209104537963867188e+00 4.999740123748779297e-01
-3.944223642349243164e+00 -6.073063850402832031e+00 4.086650609970092773e-01
-3.706078529357910156e+00 -6.186967372894287109e+00 3.388498425483703613e-01
-3.374141216278076172e+00 -6.121791839599609375e+00 2.624228596687316895e-01
-4.098377704620361328e+00 -6.305600643157958984e+00 1.522786617279052734e-01
-3.681312799453735352e+00 -6.138330459594726562e+00 7.620627433061599731e-02
-4.780681133270263672e+00 -6.728626251220703125e+00 2.432429790496826172e+00
-4.109755039215087891e+00 -6.272296905517578125e+00 2.124769926071166992e+00
-3.606741189956665039e+00 -5.978078365325927734e+00 1.904775619506835938e+00
-3.389646530151367188e+00 -6.119176387786865234e+00 1.839094281196594238e+00
-4.597060680389404297e+00 -6.472579479217529297e+00 2.016241550445556641e+00
-4.020621776580810547e+00 -6.131591796875000000e+00 1.783341884613037109e+00
-3.639092922210693359e+00 -6.024566650390625000e+00 1.640465974807739258e+00
-3.382712364196777344e+00 -6.094105720520019531e+00 1.557979106903076172e+00
-4.551803112030029297e+00 -6.411227703094482422e+00 1.688497304916381836e+00
-4.018431663513183594e+00 -6.123589515686035156e+00 1.498145580291748047e+00
-3.647071361541748047e+00 -6.028261661529541016e+00 1.372086524963378906e+00
-3.377876758575439453e+00 -6.072899341583251953e+00 1.285432934761047363e+00
-4.504150390625000000e+00 -6.341763496398925781e+00 1.374362230300903320e+00
-3.989525318145751953e+00 -6.074915885925292969e+00 1.210997223854064941e+00
-3.655337810516357422e+00 -6.039545536041259766e+00 1.108024835586547852e+00
-3.394014596939086914e+00 -6.091897010803222656e+00 1.028522253036499023e+00
-4.503755092620849609e+00 -6.338863372802734375e+00 1.083148837089538574e+00
-4.002806663513183594e+00 -6.090505599975585938e+00 9.439749121665954590e-01
-3.725305795669555664e+00 -6.143041610717773438e+00 8.630410432815551758e-01
-3.386520147323608398e+00 -6.070966243743896484e+00 7.686951160430908203e-01
-4.495803356170654297e+00 -6.322995662689208984e+00 7.949088811874389648e-01
-3.995886564254760742e+00 -6.075354099273681641e+00 6.758515834808349609e-01
-3.669378042221069336e+00 -6.046055793762207031e+00 5.901586413383483887e-01
-3.402527809143066406e+00 -6.092163562774658203e+00 5.161014199256896973e-01
-4.454501152038574219e+00 -6.260279178619384766e+00 5.062861442565917969e-01
-4.014897823333740234e+00 -6.099620342254638672e+00 4.121020734310150146e-01
-3.751230955123901367e+00 -6.176063537597656250e+00 3.395068943500518799e-01
-3.420907258987426758e+00 -6.117544651031494141e+00 2.631356418132781982e-01
-3.764627456665039062e+00 -6.190811634063720703e+00 7.714314758777618408e-02
-4.860541820526123047e+00 -6.752883911132812500e+00 2.451934576034545898e+00
-4.181161880493164062e+00 -6.296655654907226562e+00 2.141672372817993164e+00
-3.659464120864868164e+00 -5.982170581817626953e+00 1.913197994232177734e+00
-3.438974857330322266e+00 -6.119340896606445312e+00 1.845450878143310547e+00
-4.708580493927001953e+00 -6.544167995452880859e+00 2.047503232955932617e+00
-4.049026012420654297e+00 -6.093048572540283203e+00 1.779324173927307129e+00
-3.645471811294555664e+00 -5.952293395996093750e+00 1.626846551895141602e+00
-3.429618597030639648e+00 -6.090242385864257812e+00 1.562341928482055664e+00
-4.644147872924804688e+00 -6.456994056701660156e+00 1.708023548126220703e+00
-4.108554840087890625e+00 -6.177948951721191406e+00 1.517583847045898438e+00
-3.673726797103881836e+00 -5.989036560058593750e+00 1.368263483047485352e+00
-3.435855150222778320e+00 -6.088882923126220703e+00 1.293254256248474121e+00
-4.628097534179687500e+00 -6.432309627532958984e+00 1.400113105773925781e+00
-4.070992946624755859e+00 -6.116836547851562500e+00 1.224310278892517090e+00
-3.649441003799438477e+00 -5.947115898132324219e+00 1.095155239105224609e+00
-3.455182552337646484e+00 -6.113158702850341797e+00 1.035671830177307129e+00
-4.578437805175781250e+00 -6.360949039459228516e+00 1.091702580451965332e+00
-4.091228961944580078e+00 -6.142591476440429688e+00 9.559206962585449219e-01
-3.661002874374389648e+00 -5.954294681549072266e+00 8.396640419960021973e-01
-3.448182821273803711e+00 -6.093324184417724609e+00 7.741904854774475098e-01
-4.588588237762451172e+00 -6.370359897613525391e+00 8.043878078460693359e-01
-4.029775619506835938e+00 -6.045750617980957031e+00 6.752963066101074219e-01
-3.608746290206909180e+00 -5.864714622497558594e+00 5.746084451675415039e-01
-3.391666173934936523e+00 -5.986138343811035156e+00 5.088728666305541992e-01
-4.603692054748535156e+00 -6.386626243591308594e+00 5.187789201736450195e-01
-4.090477466583251953e+00 -6.132180690765380859e+00 4.159898459911346436e-01
-3.819435596466064453e+00 -6.202262401580810547e+00 3.422289788722991943e-01
-3.469226837158203125e+00 -6.115561485290527344e+00 2.639609873294830322e-01
-3.833504676818847656e+00 -6.217814922332763672e+00 7.777127623558044434e-02
-4.970830440521240234e+00 -6.817491054534912109e+00 2.486420869827270508e+00
-4.271283149719238281e+00 -6.347511291503906250e+00 2.167843341827392578e+00
-4.767485618591308594e+00 -6.541001319885253906e+00 2.055626392364501953e+00
-3.502744436264038086e+00 -6.131791591644287109e+00 1.578484654426574707e+00
-4.726284980773925781e+00 -6.486852645874023438e+00 1.723560571670532227e+00
-4.177593231201171875e+00 -6.198932170867919922e+00 1.529006361961364746e+00
-3.736841678619384766e+00 -6.008891582489013672e+00 1.378012180328369141e+00
-3.501483440399169922e+00 -6.117183685302734375e+00 1.303804039955139160e+00
-4.715040683746337891e+00 -6.469047069549560547e+00 1.414380550384521484e+00
-4.145953178405761719e+00 -6.147351741790771484e+00 1.235486745834350586e+00
-3.716652631759643555e+00 -5.974102020263671875e+00 1.104303479194641113e+00
-3.516245841979980469e+00 -6.133038997650146484e+00 1.042675495147705078e+00
-4.669314861297607422e+00 -6.403962612152099609e+00 1.103981256484985352e+00
-4.149369716644287109e+00 -6.147787094116210938e+00 9.606733322143554688e-01
-3.710073709487915039e+00 -5.951941013336181641e+00 8.425264954566955566e-01
-3.507277965545654297e+00 -6.109981060028076172e+00 7.790264487266540527e-01
-4.671566963195800781e+00 -6.402355670928955078e+00 8.120321631431579590e-01
-4.113611221313476562e+00 -6.090220451354980469e+00 6.830700635910034180e-01
-3.739076614379882812e+00 -5.993807315826416016e+00 5.894933938980102539e-01
-3.477528810501098633e+00 -6.050815105438232422e+00 5.161751508712768555e-01
-4.564530372619628906e+00 -6.251078605651855469e+00 5.100339651107788086e-01
-4.188412666320800781e+00 -6.196300506591796875e+00 4.220750033855438232e-01
-3.887043714523315430e+00 -6.226160526275634766e+00 3.448571860790252686e-01
-3.520142316818237305e+00 -6.117545127868652344e+00 2.649739086627960205e-01
-3.880064249038696289e+00 -6.207743167877197266e+00 7.794161885976791382e-02
-5.059867382049560547e+00 -6.850903987884521484e+00 2.509883165359497070e+00
-4.349175930023193359e+00 -6.378417968750000000e+00 2.187471628189086914e+00
-3.581587553024291992e+00 -6.193892002105712891e+00 1.881047844886779785e+00
-4.904244899749755859e+00 -6.642621517181396484e+00 2.096979856491088867e+00
-4.293820858001708984e+00 -6.292515754699707031e+00 1.852822661399841309e+00
-3.566233396530151367e+00 -6.154937744140625000e+00 1.590046167373657227e+00
-4.838571548461914062e+00 -6.556063652038574219e+00 1.749805569648742676e+00
-4.263617992401123047e+00 -6.243571281433105469e+00 1.546440601348876953e+00
-3.797720432281494141e+00 -6.024044990539550781e+00 1.386805176734924316e+00
-3.563143968582153320e+00 -6.137253284454345703e+00 1.312716722488403320e+00
-4.803776741027832031e+00 -6.506540775299072266e+00 1.428995728492736816e+00
-4.234797477722167969e+00 -6.196721076965332031e+00 1.250607728958129883e+00
-3.784331560134887695e+00 -6.000485420227050781e+00 1.113451719284057617e+00
-3.577682256698608398e+00 -6.152398109436035156e+00 1.049679160118103027e+00
-4.765008926391601562e+00 -6.451674938201904297e+00 1.117225766181945801e+00
-4.231240749359130859e+00 -6.186879634857177734e+00 9.708208441734313965e-01
-3.773573160171508789e+00 -5.971870422363281250e+00 8.486092686653137207e-01
-3.566706657409667969e+00 -6.126140117645263672e+00 7.838624119758605957e-01
-4.766344070434570312e+00 -6.448770999908447266e+00 8.216131329536437988e-01
-4.175646781921386719e+00 -6.101019382476806641e+00 6.871420145034790039e-01
-3.877515077590942383e+00 -6.131622791290283203e+00 6.053761839866638184e-01
-3.531163930892944336e+00 -6.057795524597167969e+00 5.186092257499694824e-01
-4.724442005157470703e+00 -6.387412071228027344e+00 5.235130190849304199e-01
-4.281644344329833984e+00 -6.251208782196044922e+00 4.275967478752136230e-01
-3.938527822494506836e+00 -6.223294258117675781e+00 3.460304737091064453e-01
-3.574738264083862305e+00 -6.125174999237060547e+00 2.662494480609893799e-01
-3.974810600280761719e+00 -6.273353576660156250e+00 7.907012850046157837e-02
-3.600576400756835938e+00 -6.164503097534179688e+00 8.721931837499141693e-03
-5.163864135742187500e+00 -6.902679920196533203e+00 2.540412187576293945e+00
-4.451670169830322266e+00 -6.443434715270996094e+00 2.219095230102539062e+00
-3.926579475402832031e+00 -6.161121845245361328e+00 1.993210673332214355e+00
-3.643498897552490234e+00 -6.212677478790283203e+00 1.893506884574890137e+00
-4.386504650115966797e+00 -6.344376564025878906e+00 1.875982880592346191e+00
-3.642003536224365234e+00 -6.197727203369140625e+00 1.606843113899230957e+00
-4.886903285980224609e+00 -6.537214756011962891e+00 1.752745032310485840e+00
-4.351460456848144531e+00 -6.288996219635009766e+00 1.564275622367858887e+00
-3.870553255081176758e+00 -6.056872367858886719e+00 1.399803519248962402e+00
-3.618695497512817383e+00 -6.145778656005859375e+00 1.319264888763427734e+00
-4.862482070922851562e+00 -6.502179145812988281e+00 1.434563636779785156e+00
-4.312609195709228516e+00 -6.228199005126953125e+00 1.262277245521545410e+00
-3.844491481781005859e+00 -6.013775825500488281e+00 1.120274186134338379e+00
-3.643005847930908203e+00 -6.177198410034179688e+00 1.057704329490661621e+00
-4.850189685821533203e+00 -6.483382225036621094e+00 1.127848863601684570e+00
-4.321653842926025391e+00 -6.236608505249023438e+00 9.827666282653808594e-01
-3.860482692718505859e+00 -6.027194023132324219e+00 8.598206639289855957e-01
-3.636571884155273438e+00 -6.158916473388671875e+00 7.908965349197387695e-01
-4.850536823272705078e+00 -6.479130268096923828e+00 8.292574286460876465e-01
-4.270879268646240234e+00 -6.158741950988769531e+00 6.965815424919128418e-01
-3.681948423385620117e+00 -6.228315830230712891e+00 5.351315736770629883e-01
-4.846707344055175781e+00 -6.469306468963623047e+00 5.326524972915649414e-01
-4.348951339721679688e+00 -6.266651630401611328e+00 4.304703176021575928e-01
-4.037586212158203125e+00 -6.294018268585205078e+00 3.513337969779968262e-01
-3.642284393310546875e+00 -6.153862953186035156e+00 2.684628665447235107e-01
-4.020253181457519531e+00 -6.259784221649169922e+00 7.920853048563003540e-02
-3.697961330413818359e+00 -6.242959976196289062e+00 8.864874951541423798e-03
-5.274477958679199219e+00 -6.961080074310302734e+00 2.573767900466918945e+00
-4.569468975067138672e+00 -6.527924060821533203e+00 2.257806777954101562e+00
-4.013516426086425781e+00 -6.213087081909179688e+00 2.017951488494873047e+00
-3.691437959671020508e+00 -6.206829071044921875e+00 1.898592114448547363e+00
-5.283262252807617188e+00 -6.975202083587646484e+00 2.222272157669067383e+00
-4.501169204711914062e+00 -6.425575733184814453e+00 1.908123731613159180e+00
-3.945939779281616211e+00 -6.101464271545410156e+00 1.693582057952880859e+00
-3.702944517135620117e+00 -6.213827610015869141e+00 1.616877794265747070e+00
-4.463077068328857422e+00 -6.366467475891113281e+00 1.590326905250549316e+00
-3.952468156814575195e+00 -6.102211952209472656e+00 1.415860295295715332e+00
-3.642222166061401367e+00 -6.099819660186767578e+00 1.314171910285949707e+00
-4.393797874450683594e+00 -6.262990474700927734e+00 1.274768590927124023e+00
-3.934502363204956055e+00 -6.072152137756347656e+00 1.135624647140502930e+00
-3.690487384796142578e+00 -6.170860290527343750e+00 1.060476541519165039e+00
-4.907226085662841797e+00 -6.476393222808837891e+00 1.131849765777587891e+00
-4.409415721893310547e+00 -6.280587673187255859e+00 9.939417243003845215e-01
-3.929289102554321289e+00 -6.052525997161865234e+00 8.668576478958129883e-01
-3.687569141387939453e+00 -6.158658504486083984e+00 7.937540411949157715e-01
-5.105980396270751953e+00 -6.733818531036376953e+00 8.658483624458312988e-01
-4.429940700531005859e+00 -6.305141448974609375e+00 7.162009477615356445e-01
-3.970383882522583008e+00 -6.111155033111572266e+00 6.081203818321228027e-01
-3.650359869003295898e+00 -6.089278221130371094e+00 5.251001715660095215e-01
-4.427518844604492188e+00 -6.297020435333251953e+00 4.344144165515899658e-01
-3.998265981674194336e+00 -6.149370670318603516e+00 3.446225225925445557e-01
-3.704659461975097656e+00 -6.172526359558105469e+00 2.702636420726776123e-01
-3.705303192138671875e+00 -6.168717384338378906e+00 8.791571483016014099e-03
-5.334026336669921875e+00 -6.950653553009033203e+00 2.581965684890747070e+00
-4.761378765106201172e+00 -6.714015483856201172e+00 2.332230806350708008e+00
-4.088554382324218750e+00 -6.244843482971191406e+00 2.036375522613525391e+00
-3.605587244033813477e+00 -5.978672027587890625e+00 1.835534572601318359e+00
-4.573690414428710938e+00 -6.444587707519531250e+00 1.922067165374755859e+00
-4.003591060638427734e+00 -6.108089447021484375e+00 1.702207684516906738e+00
-3.642581462860107422e+00 -6.028113365173339844e+00 1.574339866638183594e+00
-4.531556129455566406e+00 -6.380497932434082031e+00 1.600747346878051758e+00
-4.021616935729980469e+00 -6.126257896423339844e+00 1.427138209342956543e+00
-3.645968675613403320e+00 -6.021840095520019531e+00 1.302167057991027832e+00
-4.485289096832275391e+00 -6.310685634613037109e+00 1.290053963661193848e+00
-3.999342918395996094e+00 -6.090010166168212891e+00 1.143532514572143555e+00
-3.648257970809936523e+00 -6.016137599945068359e+00 1.037714600563049316e+00
-4.502476215362548828e+00 -6.330187320709228516e+00 1.006144404411315918e+00
-3.990365028381347656e+00 -6.064797401428222656e+00 8.721055388450622559e-01
-3.686601877212524414e+00 -6.072195053100585938e+00 7.855110168457031250e-01
-4.502611637115478516e+00 -6.325701713562011719e+00 7.216610312461853027e-01
-4.007806301116943359e+00 -6.086678028106689453e+00 6.081203818321228027e-01
-3.656056165695190430e+00 -6.014781951904296875e+00 5.206007957458496094e-01
-4.514151573181152344e+00 -6.337230205535888672e+00 4.390909969806671143e-01
-4.077693939208984375e+00 -6.188112735748291016e+00 3.481893241405487061e-01
-3.759607076644897461e+00 -6.177848815917968750e+00 2.715016603469848633e-01
-3.799261331558227539e+00 -6.238105297088623047e+00 8.923517540097236633e-03
-4.836728572845458984e+00 -6.732337474822998047e+00 2.348860502243041992e+00
-4.165732383728027344e+00 -6.278322696685791016e+00 2.055588960647583008e+00
-3.633626699447631836e+00 -5.942409038543701172e+00 1.831212043762207031e+00
-4.690288543701171875e+00 -6.523697376251220703e+00 1.954207897186279297e+00
-4.111047267913818359e+00 -6.188868522644042969e+00 1.731716513633728027e+00
-3.679500818252563477e+00 -6.005649566650390625e+00 1.574339866638183594e+00
-4.605524539947509766e+00 -6.401084423065185547e+00 1.612971425056457520e+00
-4.084140777587890625e+00 -6.139059066772460938e+00 1.435931205749511719e+00
-3.654040813446044922e+00 -5.952426433563232422e+00 1.291980981826782227e+00
-4.592514038085937500e+00 -6.378304004669189453e+00 1.309612631797790527e+00
-4.088085174560546875e+00 -6.142663478851318359e+00 1.158107638359069824e+00
-3.659713983535766602e+00 -5.952343940734863281e+00 1.030564904212951660e+00
-4.588193416595458984e+00 -6.367614269256591797e+00 1.016548871994018555e+00
-4.078176975250244141e+00 -6.116197109222412109e+00 8.830784559249877930e-01
-3.662830352783203125e+00 -5.950427532196044922e+00 7.726517915725708008e-01
-4.576865673065185547e+00 -6.347220897674560547e+00 7.273062467575073242e-01
-4.051715850830078125e+00 -6.071918964385986328e+00 6.091182231903076172e-01
-3.628537178039550781e+00 -5.887808322906494141e+00 5.115282535552978516e-01
-4.617217063903808594e+00 -6.398471355438232422e+00 4.452888667583465576e-01
-4.168286800384521484e+00 -6.241892814636230469e+00 3.526479005813598633e-01
-3.828401803970336914e+00 -6.204840183258056641e+00 2.737151086330413818e-01
-5.211691856384277344e+00 -6.693583011627197266e+00 2.517774403095245361e-01
-3.836940765380859375e+00 -6.213825225830078125e+00 8.922295644879341125e-03
-4.924937248229980469e+00 -6.767100334167480469e+00 2.371487617492675781e+00
-4.249394893646240234e+00 -6.319893836975097656e+00 2.077697753906250000e+00
-3.751553773880004883e+00 -6.051520824432373047e+00 1.871894359588623047e+00
-4.782285213470458984e+00 -6.566270828247070312e+00 1.975713968276977539e+00
-4.201152801513671875e+00 -6.241086483001708984e+00 1.753507733345031738e+00
-3.743057966232299805e+00 -6.026067733764648438e+00 1.585683345794677734e+00
-4.712806701660156250e+00 -6.466129779815673828e+00 1.636617898941040039e+00
-4.182087898254394531e+00 -6.203410625457763672e+00 1.456957817077636719e+00
-3.719071865081787109e+00 -5.975810527801513672e+00 1.301985144615173340e+00
-4.673996925354003906e+00 -6.408181190490722656e+00 1.321610808372497559e+00
-4.170441150665283203e+00 -6.183806419372558594e+00 1.170667052268981934e+00
-3.722333908081054688e+00 -5.971754550933837891e+00 1.037860512733459473e+00
-4.664012908935546875e+00 -6.389806747436523438e+00 1.024641156196594238e+00
-4.149536132812500000e+00 -6.141241550445556641e+00 8.903539180755615234e-01
-3.717163801193237305e+00 -5.956510066986083984e+00 7.763886451721191406e-01
