-4.526594161987304688e+00 -6.551880836486816406e+00 2.256443738937377930e+00
-4.198790550231933594e+00 -6.588243007659912109e+00 2.131390571594238281e+00
-3.990382194519042969e+00 -6.804162502288818359e+00 2.073780298233032227e+00
-4.221688270568847656e+00 -6.616525173187255859e+00 1.829322695732116699e+00
-4.022718429565429688e+00 -6.845602989196777344e+00 1.774813532829284668e+00
-4.235779285430908203e+00 -6.628399848937988281e+00 1.531889200210571289e+00
-4.019331932067871094e+00 -6.826195240020751953e+00 1.465324401855468750e+00
-4.235591888427734375e+00 -6.625557899475097656e+00 1.234239816665649414e+00
-4.013889789581298828e+00 -6.806081295013427734e+00 1.165386199951171875e+00
-4.237481117248535156e+00 -6.615784168243408203e+00 9.437871575355529785e-01
-4.029741764068603516e+00 -6.824791431427001953e+00 8.764047622680664062e-01
-4.244188785552978516e+00 -6.621166229248046875e+00 6.562677025794982910e-01
-4.024514675140380859e+00 -6.807793617248535156e+00 5.849198102951049805e-01
-4.219347476959228516e+00 -6.577358245849609375e+00 3.671499192714691162e-01
-4.010279178619384766e+00 -6.775612831115722656e+00 2.955867946147918701e-01
-4.434791564941406250e+00 -5.917335510253906250e+00 2.194708734750747681e-01
-3.844459772109985352e+00 -5.535574913024902344e+00 1.364677548408508301e-01
-3.348049402236938477e+00 -5.213120937347412109e+00 6.596451997756958008e-02
-3.035936355590820312e+00 -5.125318527221679688e+00 7.277846802026033401e-03
-4.244370937347412109e+00 -6.570459365844726562e+00 2.134022474288940430e+00
-4.015248298645019531e+00 -6.751287937164306641e+00 2.065135478973388672e+00
-4.268024921417236328e+00 -6.599493026733398438e+00 1.831819772720336914e+00
-4.038167953491210938e+00 -6.776358604431152344e+00 1.763251900672912598e+00
-4.293979644775390625e+00 -6.629471778869628906e+00 1.538197159767150879e+00
-4.051562786102294922e+00 -6.785363674163818359e+00 1.461868524551391602e+00
-4.286910057067871094e+00 -6.616025924682617188e+00 1.237340927124023438e+00
-4.040342330932617188e+00 -6.755852699279785156e+00 1.161008834838867188e+00
-4.288807392120361328e+00 -6.606314182281494141e+00 9.461725354194641113e-01
-4.055713653564453125e+00 -6.773500919342041016e+00 8.729975819587707520e-01
-4.289621829986572266e+00 -6.602520942687988281e+00 6.570161581039428711e-01
-4.054929733276367188e+00 -6.764153957366943359e+00 5.832971334457397461e-01
-4.285761833190917969e+00 -6.591542243957519531e+00 3.694026470184326172e-01
-3.996239423751831055e+00 -6.658342361450195312e+00 2.915350794792175293e-01
-4.521177768707275391e+00 -5.956094741821289062e+00 2.219331860542297363e-01
-3.876051902770996094e+00 -5.508611202239990234e+00 1.363867819309234619e-01
-3.370154380798339844e+00 -5.177395343780517578e+00 6.577289104461669922e-02
-3.115729331970214844e+00 -5.187174320220947266e+00 7.392689585685729980e-03
-4.294118404388427734e+00 -6.558821201324462891e+00 2.138760089874267578e+00
-4.047108173370361328e+00 -6.710788249969482422e+00 2.060304403305053711e+00
-4.314311027526855469e+00 -6.582139968872070312e+00 1.834316611289978027e+00
-4.064024448394775391e+00 -6.725559711456298828e+00 1.756489396095275879e+00
-4.343195438385009766e+00 -6.616128921508789062e+00 1.541255831718444824e+00
-4.075804710388183594e+00 -6.731776237487792969e+00 1.455684065818786621e+00
-4.349658012390136719e+00 -6.623453140258789062e+00 1.243698120117187500e+00
-4.065817356109619141e+00 -6.704711437225341797e+00 1.156485676765441895e+00
-4.347271442413330078e+00 -6.607245445251464844e+00 9.501084685325622559e-01
-4.077081203460693359e+00 -6.715353012084960938e+00 8.687111735343933105e-01
-4.404038429260253906e+00 -6.688437461853027344e+00 6.682422161102294922e-01
-4.081335544586181641e+00 -6.714432239532470703e+00 5.811580419540405273e-01
-4.385486125946044922e+00 -6.655203342437744141e+00 3.744713366031646729e-01
-4.051045417785644531e+00 -6.656744956970214844e+00 2.925480008125305176e-01
-4.652678489685058594e+00 -6.051861763000488281e+00 2.265611290931701660e-01
-3.905716657638549805e+00 -5.479025363922119141e+00 1.362450718879699707e-01
-3.406814575195312500e+00 -5.164131164550781250e+00 6.586870551109313965e-02
-3.101724386215209961e+00 -5.092801094055175781e+00 7.285177242010831833e-03
-4.349750041961669922e+00 -6.555662155151367188e+00 2.146392822265625000e+00
-4.080136299133300781e+00 -6.672627925872802734e+00 2.056236267089843750e+00
-4.100117206573486328e+00 -6.692175865173339844e+00 1.754308104515075684e+00
-4.106230258941650391e+00 -6.689042568206787109e+00 1.451864361763000488e+00
-4.099626064300537109e+00 -6.667839050292968750e+00 1.154442787170410156e+00
-4.115083217620849609e+00 -6.685131549835205078e+00 8.680517673492431641e-01
-4.111993312835693359e+00 -6.672283172607421875e+00 5.796828269958496094e-01
-4.402940273284912109e+00 -6.593279361724853516e+00 3.725001811981201172e-01
-4.092338562011718750e+00 -6.632613658905029297e+00 2.925855219364166260e-01
-4.822365283966064453e+00 -6.193555355072021484e+00 2.329690158367156982e-01
-3.902385950088500977e+00 -5.403892993927001953e+00 1.349696666002273560e-01
-3.472893476486206055e+00 -5.194669246673583984e+00 6.652877479791641235e-02
-3.118729352951049805e+00 -5.050700664520263672e+00 7.252190727740526199e-03
-4.122021198272705078e+00 -6.649110794067382812e+00 2.056744575500488281e+00
-4.140072345733642578e+00 -6.665233612060546875e+00 1.753871679306030273e+00
-4.143039703369140625e+00 -6.657042980194091797e+00 1.450409173965454102e+00
-4.150404930114746094e+00 -6.658510208129882812e+00 1.157215118408203125e+00
-4.151288986206054688e+00 -6.652167320251464844e+00 8.670625686645507812e-01
-4.151270866394042969e+00 -6.644389629364013672e+00 5.794615745544433594e-01
-4.145147323608398438e+00 -6.626864433288574219e+00 2.934483885765075684e-01
-4.922168254852294922e+00 -6.242340087890625000e+00 2.359356582164764404e-01
-3.941373348236083984e+00 -5.387916088104248047e+00 1.351721137762069702e-01
-3.500215291976928711e+00 -5.166639328002929688e+00 6.644360721111297607e-02
-3.148599863052368164e+00 -5.029774188995361328e+00 7.249747402966022491e-03
-4.163770675659179688e+00 -6.625330924987792969e+00 2.057253122329711914e+00
-4.189211845397949219e+00 -6.652918815612792969e+00 1.757362127304077148e+00
-4.184857845306396484e+00 -6.633159160614013672e+00 1.450773000717163086e+00
-4.190654277801513672e+00 -6.632081985473632812e+00 1.157069206237792969e+00
-4.188308238983154297e+00 -6.620690345764160156e+00 8.662932515144348145e-01
-4.209570884704589844e+00 -6.646595954895019531e+00 5.818956494331359863e-01
-4.184660434722900391e+00 -6.599617481231689453e+00 2.933733463287353516e-01
-3.977929830551147461e+00 -5.368450641632080078e+00 1.352935731410980225e-01
-3.523362636566162109e+00 -5.132699489593505859e+00 6.628391146659851074e-02
-3.129573822021484375e+00 -4.931835174560546875e+00 7.136126048862934113e-03
-4.530519485473632812e+00 -6.562613010406494141e+00 2.175608158111572266e+00
-4.203305244445800781e+00 -6.598026752471923828e+00 2.056744575500488281e+00
-4.233104705810546875e+00 -6.632024288177490234e+00 1.758670926094055176e+00
-4.241372585296630859e+00 -6.632208824157714844e+00 1.456229805946350098e+00
-4.232336044311523438e+00 -6.607910156250000000e+00 1.157361030578613281e+00
-4.241729259490966797e+00 -6.614947319030761719e+00 8.689309954643249512e-01
-4.251890659332275391e+00 -6.623158931732177734e+00 5.821169018745422363e-01
-4.222915172576904297e+00 -6.570454120635986328e+00 2.932232916355133057e-01
-4.013195991516113281e+00 -5.347139835357666016e+00 1.353745460510253906e-01
-3.561070680618286133e+00 -5.120013713836669922e+00 6.640102714300155640e-02
-3.161399126052856445e+00 -4.915062904357910156e+00 7.139791734516620636e-03
-4.252104759216308594e+00 -6.585111141204833984e+00 2.060812950134277344e+00
-4.284320831298828125e+00 -6.622313976287841797e+00 1.763033866882324219e+00
-4.296427726745605469e+00 -6.628337860107421875e+00 1.461140751838684082e+00
-4.292732715606689453e+00 -6.612518310546875000e+00 1.162759780883789062e+00
-4.304445743560791016e+00 -6.622965335845947266e+00 8.734372258186340332e-01
-4.300064086914062500e+00 -6.608647823333740234e+00 5.831495523452758789e-01
-4.271878242492675781e+00 -6.557816028594970703e+00 2.938235402107238770e-01
-4.154232501983642578e+00 -5.464887142181396484e+00 1.389982998371124268e-01
-3.618914842605590820e+00 -5.135667324066162109e+00 6.689075380563735962e-02
-3.282152891159057617e+00 -5.034632205963134766e+00 7.342598401010036469e-03
-4.305670261383056641e+00 -6.579127311706542969e+00 2.067169427871704102e+00
-4.317382335662841797e+00 -6.584475517272949219e+00 1.759979844093322754e+00
-4.347815990447998047e+00 -6.618288040161132812e+00 1.464778780937194824e+00
-4.360957622528076172e+00 -6.628203868865966797e+00 1.170201182365417480e+00
-4.369606018066406250e+00 -6.633781433105468750e+00 8.783831000328063965e-01
-4.395434856414794922e+00 -6.665393829345703125e+00 5.905256271362304688e-01
-4.323047161102294922e+00 -6.548160076141357422e+00 2.945738732814788818e-01
-4.027888298034667969e+00 -5.231735706329345703e+00 1.336942613124847412e-01
-3.642805576324462891e+00 -5.102785110473632812e+00 6.675235182046890259e-02
-3.321803092956542969e+00 -5.027748107910156250e+00 7.362146861851215363e-03
-4.331525325775146484e+00 -6.530823230743408203e+00 2.060304403305053711e+00
-4.204383850097656250e+00 -5.392208576202392578e+00 1.384517103433609009e-01
-3.671117305755615234e+00 -5.076285839080810547e+00 6.669911742210388184e-02
-3.345357656478881836e+00 -4.996469020843505859e+00 7.346264086663722992e-03
-4.397245407104492188e+00 -5.568752288818359375e+00 1.436747610569000244e-01
-3.722287178039550781e+00 -5.081090927124023438e+00 6.706108897924423218e-02
-3.344511508941650391e+00 -4.929507255554199219e+00 7.277846802026033401e-03
-4.543723106384277344e+00 -5.682219028472900391e+00 1.473187655210494995e-01
-3.772462129592895508e+00 -5.083852291107177734e+00 6.740177422761917114e-02
-3.390557527542114258e+00 -4.931966304779052734e+00 7.312055211514234543e-03
-4.658408164978027344e+00 -5.752911567687988281e+00 1.498898118734359741e-01
-3.832422733306884766e+00 -5.098977088928222656e+00 6.791279464960098267e-02
-3.440188646316528320e+00 -4.938968658447265625e+00 7.353594060987234116e-03
-4.573621273040771484e+00 -6.541447162628173828e+00 2.098443984985351562e+00
-4.721512317657470703e+00 -5.758237361907958984e+00 1.507805734872817993e-01
-3.854552268981933594e+00 -5.063431262969970703e+00 6.775310635566711426e-02
-3.462356567382812500e+00 -4.906328678131103516e+00 7.336489856243133545e-03
-4.643073558807373047e+00 -5.592236995697021484e+00 1.471770554780960083e-01
-3.870894908905029297e+00 -5.020678997039794922e+00 6.749758869409561157e-02
-3.420279979705810547e+00 -4.784119129180908203e+00 7.184995338320732117e-03
-4.806616783142089844e+00 -5.717464923858642578e+00 1.512461900711059570e-01
-3.777933359146118164e+00 -4.838416576385498047e+00 6.535768508911132812e-02
-3.545766592025756836e+00 -4.895866870880126953e+00 7.385359145700931549e-03
-5.078795433044433594e+00 -5.966509819030761719e+00 1.586556583642959595e-01
-3.793905019760131836e+00 -4.797888278961181641e+00 6.512346118688583374e-02
-3.565684556961059570e+00 -4.860311508178710938e+00 7.364589720964431763e-03
-5.294152736663818359e+00 -6.142744064331054688e+00 1.642026305198669434e-01
-3.983279228210449219e+00 -4.974335670471191406e+00 6.784892082214355469e-02
-3.573967218399047852e+00 -4.809445858001708984e+00 7.320607546716928482e-03
-5.332402229309082031e+00 -6.110897541046142578e+00 1.642228811979293823e-01
-3.721498250961303711e+00 -4.589420318603515625e+00 6.290903687477111816e-02
-3.597396612167358398e+00 -4.779436588287353516e+00 7.308390457183122635e-03
-3.634733676910400391e+00 -4.426621437072753906e+00 6.098204851150512695e-02
-3.627867460250854492e+00 -4.758863449096679688e+00 7.310833781957626343e-03
-5.490308284759521484e+00 -6.138149738311767578e+00 1.667534261941909790e-01
-3.905394315719604492e+00 -4.697185039520263672e+00 6.503829360008239746e-02
-3.680833101272583008e+00 -4.767383575439453125e+00 7.358481176197528839e-03
-5.535921573638916016e+00 -6.113239288330078125e+00 1.669963598251342773e-01
-4.176927089691162109e+00 -4.961523532867431641e+00 6.905195862054824829e-02
-3.711863994598388672e+00 -4.747072219848632812e+00 7.362146861851215363e-03
-4.216372966766357422e+00 -4.946455001831054688e+00 6.920100003480911255e-02
-3.675737857818603516e+00 -4.641890048980712891e+00 7.233865093439817429e-03
-4.272124767303466797e+00 -4.950013637542724609e+00 6.961620599031448364e-02
-3.578406095504760742e+00 -4.462439537048339844e+00 6.988296750932931900e-03
-4.321497440338134766e+00 -4.945543289184570312e+00 6.992495059967041016e-02
-3.613284111022949219e+00 -4.449714183807373047e+00 7.002957630902528763e-03
-4.376276969909667969e+00 -4.946644306182861328e+00 7.031886279582977295e-02
-3.634802818298339844e+00 -4.420507907867431641e+00 6.991961970925331116e-03
-4.447909832000732422e+00 -4.965878963470458984e+00 7.097893208265304565e-02
-3.675295114517211914e+00 -4.414260864257812500e+00 7.017618510872125626e-03
-4.488371849060058594e+00 -4.949604511260986328e+00 7.113862782716751099e-02
-3.801572322845458984e+00 -4.509368419647216797e+00 7.205764763057231903e-03
-4.865570068359375000e+00 -5.299847602844238281e+00 7.660018652677536011e-02
-3.943434715270996094e+00 -4.619821071624755859e+00 7.420789450407028198e-03
-5.034828662872314453e+00 -5.417113780975341797e+00 7.874009013175964355e-02
-4.018786907196044922e+00 -4.650012493133544922e+00 7.508754264563322067e-03
-5.063176155090332031e+00 -5.381021022796630859e+00 7.866556942462921143e-02
-4.045267581939697266e+00 -4.623008251190185547e+00 7.505088578909635544e-03
-5.274037361145019531e+00 -5.536652088165283203e+00 8.141231536865234375e-02
-4.093451499938964844e+00 -4.620555400848388672e+00 7.541740778833627701e-03
-5.294028282165527344e+00 -5.489791393280029297e+00 8.119939267635345459e-02
-4.135747432708740234e+00 -4.610984325408935547e+00 7.567396853119134903e-03
-5.342281818389892578e+00 -5.472229957580566406e+00 8.142296224832534790e-02
-4.149172306060791016e+00 -4.569234371185302734e+00 7.540519349277019501e-03
-5.609823226928710938e+00 -5.676180839538574219e+00 8.496817946434020996e-02
-4.194726943969726562e+00 -4.562829971313476562e+00 7.572283968329429626e-03
-5.604232788085937500e+00 -5.601360321044921875e+00 8.436134457588195801e-02
-4.057091236114501953e+00 -4.359127044677734375e+00 7.275403477251529694e-03
-5.875450134277343750e+00 -5.800811290740966797e+00 8.790656179189682007e-02
-4.222973346710205078e+00 -4.481897830963134766e+00 7.523415144532918930e-03
-5.982519626617431641e+00 -5.834466457366943359e+00 8.897119760513305664e-02
-4.338052272796630859e+00 -4.547798633575439453e+00 7.678574416786432266e-03
-5.928909778594970703e+00 -5.711624145507812500e+00 8.765105903148651123e-02
-4.315165996551513672e+00 -4.468582630157470703e+00 7.589388173073530197e-03
-7.582059383392333984e+00 -6.710177898406982422e+00 2.050154209136962891e-01
-5.722624301910400391e+00 -5.445595264434814453e+00 8.410583436489105225e-02
-4.288676738739013672e+00 -4.386960983276367188e+00 7.495314814150333405e-03
-7.912145137786865234e+00 -6.916199207305908203e+00 2.127892822027206421e-01
-5.798188686370849609e+00 -5.450100898742675781e+00 8.472331613302230835e-02
-4.437910079956054688e+00 -4.484237194061279297e+00 7.707896176725625992e-03
-7.976379871368408203e+00 -6.886468887329101562e+00 2.133763730525970459e-01
-5.874754905700683594e+00 -5.454563140869140625e+00 8.535144478082656860e-02
-4.565844535827636719e+00 -4.557236671447753906e+00 7.881381548941135406e-03
-8.027612686157226562e+00 -6.845180988311767578e+00 2.136192917823791504e-01
-6.200681686401367188e+00 -5.686732769012451172e+00 8.957803249359130859e-02
-4.444893360137939453e+00 -4.382400035858154297e+00 7.626039907336235046e-03
-8.205585479736328125e+00 -6.910433292388916016e+00 2.172228097915649414e-01
-6.263618946075439453e+00 -5.674089431762695312e+00 8.998259902000427246e-02
-4.661543369293212891e+00 -4.539934635162353516e+00 7.949798367917537689e-03
-8.243221282958984375e+00 -6.856119155883789062e+00 2.171013504266738892e-01
-6.226033687591552734e+00 -5.570872783660888672e+00 8.894990384578704834e-02
-4.710210800170898438e+00 -4.531352043151855469e+00 7.985228672623634338e-03
-8.275090217590332031e+00 -6.797160148620605469e+00 2.168381661176681519e-01
-6.175431728363037109e+00 -5.457738876342773438e+00 8.774687349796295166e-02
-4.764747142791748047e+00 -4.527853012084960938e+00 8.030433207750320435e-03
-8.382639884948730469e+00 -6.799794197082519531e+00 2.185589373111724854e-01
-6.232156753540039062e+00 -5.440129280090332031e+00 8.807690441608428955e-02
-4.828895092010498047e+00 -4.532751560211181641e+00 8.091518655419349670e-03
-8.456977844238281250e+00 -6.774484157562255859e+00 2.194092124700546265e-01
-6.314645767211914062e+00 -5.444228172302246094e+00 8.876891434192657471e-02
-5.008409023284912109e+00 -4.643777847290039062e+00 8.344417437911033630e-03
-8.531319618225097656e+00 -6.748516559600830078e+00 2.202594727277755737e-01
-6.343364238739013672e+00 -5.401490211486816406e+00 8.870504051446914673e-02
-4.988136768341064453e+00 -4.568383216857910156e+00 8.263783529400825500e-03
-8.570203781127929688e+00 -6.694196224212646484e+00 2.201987504959106445e-01
-6.215677261352539062e+00 -5.227310657501220703e+00 8.646931499242782593e-02
-4.704608440399169922e+00 -4.255929946899414062e+00 7.750656455755233765e-03
-8.900873184204101562e+00 -6.864964008331298828e+00 2.276082187891006470e-01
-6.423786640167236328e+00 -5.335379600524902344e+00 8.890732377767562866e-02
-4.803710937500000000e+00 -4.292279720306396484e+00 7.870386354625225067e-03
-8.963508605957031250e+00 -6.825968742370605469e+00 2.281345725059509277e-01
-6.540673255920410156e+00 -5.364986419677734375e+00 9.006775915622711182e-02
-4.800716876983642578e+00 -4.236917495727539062e+00 7.822738960385322571e-03
-8.965267181396484375e+00 -6.740799427032470703e+00 2.271223515272140503e-01
-6.576577663421630859e+00 -5.327270984649658203e+00 9.011035412549972534e-02
-4.778379917144775391e+00 -4.165326595306396484e+00 7.744547910988330841e-03
-9.004854202270507812e+00 -6.684470653533935547e+00 2.270818650722503662e-01
-6.680979728698730469e+00 -5.344282627105712891e+00 9.108981490135192871e-02
-4.934194087982177734e+00 -4.248151302337646484e+00 7.954685017466545105e-03
-9.107793807983398438e+00 -6.674598217010498047e+00 2.286406755447387695e-01
-6.482168197631835938e+00 -5.120341300964355469e+00 8.794914931058883667e-02
-5.108720779418945312e+00 -4.344116210937500000e+00 8.192922919988632202e-03
-9.048942565917968750e+00 -6.546506404876708984e+00 2.261506021022796631e-01
-6.708213329315185547e+00 -5.232374668121337891e+00 9.057878702878952026e-02
-5.255506038665771484e+00 -4.413655757904052734e+00 8.384734392166137695e-03
-9.293159484863281250e+00 -6.636703014373779297e+00 2.312319725751876831e-01
-6.660969734191894531e+00 -5.130100250244140625e+00 8.951415121555328369e-02
-4.902254581451416016e+00 -4.065957069396972656e+00 7.781200110912322998e-03
-9.302654266357421875e+00 -6.557666301727294922e+00 2.304626852273941040e-01
-6.683567047119140625e+00 -5.082475185394287109e+00 8.939704298973083496e-02
-4.971979618072509766e+00 -4.072553157806396484e+00 7.852060720324516296e-03
-9.434632301330566406e+00 -6.564416885375976562e+00 2.327300459146499634e-01
-6.896945953369140625e+00 -5.178255558013916016e+00 9.182439744472503662e-02
-4.951003551483154297e+00 -4.004863739013671875e+00 7.779978215694427490e-03
-9.417041778564453125e+00 -6.466785430908203125e+00 2.313129454851150513e-01
-6.946262359619140625e+00 -5.148939609527587891e+00 9.205862134695053101e-02
-4.975483894348144531e+00 -3.974409580230712891e+00 7.779978215694427490e-03
-9.436679840087890625e+00 -6.395420074462890625e+00 2.308270633220672607e-01
-6.895415306091308594e+00 -5.045988082885742188e+00 9.097269922494888306e-02
-5.174862384796142578e+00 -4.081912994384765625e+00 8.052423596382141113e-03
-9.615362167358398438e+00 -6.430774211883544922e+00 2.342281341552734375e-01
-6.989470958709716797e+00 -5.049257278442382812e+00 9.180311113595962524e-02
-4.854261875152587891e+00 -3.780938625335693359e+00 7.517306134104728699e-03
-9.765623092651367188e+00 -6.444898605346679688e+00 2.369206547737121582e-01
-7.175007820129394531e+00 -5.116584777832031250e+00 9.382591396570205688e-02
-4.932065010070800781e+00 -3.793147087097167969e+00 7.601605262607336044e-03
-1.000605964660644531e+01 -6.515793800354003906e+00 2.417793124914169312e-01
-7.033735752105712891e+00 -4.951018810272216797e+00 9.157954156398773193e-02
-5.210096836090087891e+00 -3.956336021423339844e+00 7.992559112608432770e-03
-1.003491687774658203e+01 -6.447249412536621094e+00 2.415161281824111938e-01
-7.255321979522705078e+00 -5.040702342987060547e+00 9.406012296676635742e-02
-5.229473590850830078e+00 -3.920693874359130859e+00 7.985228672623634338e-03
-9.902019500732421875e+00 -6.276363849639892578e+00 2.373862713575363159e-01
-7.152515411376953125e+00 -4.904480934143066406e+00 9.233542531728744507e-02
-5.265488624572753906e+00 -3.897456645965576172e+00 8.003554306924343109e-03
-1.004207038879394531e+01 -6.279095172882080078e+00 2.398156076669692993e-01
-7.141895294189453125e+00 -4.833041191101074219e+00 9.181375801563262939e-02
-5.675242900848388672e+00 -4.147093772888183594e+00 8.587541989982128143e-03
-1.046589183807373047e+01 -6.455116748809814453e+00 2.489863336086273193e-01
-7.302803039550781250e+00 -4.876869678497314453e+00 9.349587559700012207e-02
-5.729778766632080078e+00 -4.133254528045654297e+00 8.631524629890918732e-03
-9.716059684753417969e+00 -5.910651206970214844e+00 2.302804887294769287e-01
-7.208180904388427734e+00 -4.749987125396728516e+00 9.190957248210906982e-02
-5.684978008270263672e+00 -4.048135757446289062e+00 8.526455610990524292e-03
-1.022539138793945312e+01 -6.134853839874267578e+00 2.414554059505462646e-01
-7.067851066589355469e+00 -4.595562934875488281e+00 8.975902199745178223e-02
-5.748161792755126953e+00 -4.040203571319580078e+00 8.583877235651016235e-03
-1.066037845611572266e+01 -6.307199001312255859e+00 2.508083283901214600e-01
-7.405641078948974609e+00 -4.750801563262939453e+00 9.367686510086059570e-02
-5.791741371154785156e+00 -4.017967700958251953e+00 8.611976169049739838e-03
-1.070146846771240234e+01 -6.243180751800537109e+00 2.508690655231475830e-01
-7.412683963775634766e+00 -4.691368579864501953e+00 9.340006113052368164e-02
-5.769254207611083984e+00 -3.950151920318603516e+00 8.542337454855442047e-03
-1.071184158325195312e+01 -6.161448478698730469e+00 2.502212524414062500e-01
-7.440481185913085938e+00 -4.645267009735107422e+00 9.338941425085067749e-02
-5.824040412902832031e+00 -3.935393810272216797e+00 8.587541989982128143e-03
-1.108775806427001953e+01 -6.287449359893798828e+00 2.580963373184204102e-01
-7.692773818969726562e+00 -4.737427711486816406e+00 9.618939459323883057e-02
-5.798158168792724609e+00 -3.866297006607055664e+00 8.514237590134143829e-03
-1.097427749633789062e+01 -6.134416103363037109e+00 2.545737922191619873e-01
-7.478123188018798828e+00 -4.542190551757812500e+00 9.315519034862518311e-02
-5.719020366668701172e+00 -3.763037919998168945e+00 8.363964967429637909e-03
-1.118334484100341797e+01 -6.161526679992675781e+00 2.585417032241821289e-01
-7.601069927215576172e+00 -4.553257942199707031e+00 9.433692693710327148e-02
-5.663999557495117188e+00 -3.677234411239624023e+00 8.250344544649124146e-03
-1.103555011749267578e+01 -5.992126941680908203e+00 2.542701363563537598e-01
-7.543631076812744141e+00 -4.456183433532714844e+00 9.328294545412063599e-02
-5.654457569122314453e+00 -3.621915102005004883e+00 8.203918114304542542e-03
-1.108445072174072266e+01 -5.930904388427734375e+00 2.545535564422607422e-01
-7.862882137298583984e+00 -4.579924106597900391e+00 9.688139706850051880e-02
-5.675729751586914062e+00 -3.586617708206176758e+00 8.202696219086647034e-03
-1.190599441528320312e+01 -6.276821136474609375e+00 2.725306153297424316e-01
-7.942863941192626953e+00 -4.561470985412597656e+00 9.752018004655838013e-02
-5.943729400634765625e+00 -3.705135345458984375e+00 8.556998334825038910e-03
-1.133030033111572266e+01 -5.884757041931152344e+00 2.585214674472808838e-01
-7.981144905090332031e+00 -4.518560886383056641e+00 9.764794260263442993e-02
-6.017462730407714844e+00 -3.700022697448730469e+00 8.630301803350448608e-03
-1.137153625488281250e+01 -5.817857265472412109e+00 2.586429417133331299e-01
-8.016578674316406250e+00 -4.473889827728271484e+00 9.774375706911087036e-02
-6.001575469970703125e+00 -3.639695882797241211e+00 8.575324900448322296e-03
-1.186147975921630859e+01 -5.976974010467529297e+00 2.689473628997802734e-01
-8.267295837402343750e+00 -4.547509670257568359e+00 1.004585623741149902e-01
-5.998048782348632812e+00 -3.587403535842895508e+00 8.538672700524330139e-03
-1.181284904479980469e+01 -5.861861228942871094e+00 2.670241296291351318e-01
-8.160542488098144531e+00 -4.423784732818603516e+00 9.882967174053192139e-02
-5.960515022277832031e+00 -3.515479564666748047e+00 8.454373106360435486e-03
-1.170666217803955078e+01 -5.719920158386230469e+00 2.638255059719085693e-01
-7.979382991790771484e+00 -4.262439727783203125e+00 9.631714969873428345e-02
-6.075333595275878906e+00 -3.533134460449218750e+00 8.586320094764232635e-03
-1.161089801788330078e+01 -5.585140228271484375e+00 2.608900666236877441e-01
-8.163777351379394531e+00 -4.296763420104980469e+00 9.822283685207366943e-02
-6.206204891204833984e+00 -3.558463811874389648e+00 8.740258403122425079e-03
-1.188440704345703125e+01 -5.627173423767089844e+00 2.662548422813415527e-01
-8.133174896240234375e+00 -4.217132091522216797e+00 9.754147380590438843e-02
-6.240109920501708984e+00 -3.527205228805541992e+00 8.757362142205238342e-03
-1.191689872741699219e+01 -5.553301811218261719e+00 2.662143409252166748e-01
-8.345015525817871094e+00 -4.262207508087158203e+00 9.976655244827270508e-02
-6.228439807891845703e+00 -3.470354795455932617e+00 8.710936643183231354e-03
-1.187713623046875000e+01 -5.446321010589599609e+00 2.645745277404785156e-01
-8.626491546630859375e+00 -4.339439392089843750e+00 1.028113961219787598e-01
-5.581705570220947266e+00 -3.065278768539428711e+00 7.779978215694427490e-03
-1.190030574798583984e+01 -5.368818759918212891e+00 2.643518745899200439e-01
-8.785567283630371094e+00 -4.352118968963623047e+00 1.043870449066162109e-01
-5.220481395721435547e+00 -2.825353622436523438e+00 7.252190727740526199e-03
-1.190652275085449219e+01 -5.283937931060791016e+00 2.637647688388824463e-01
-8.635055541992187500e+00 -4.211772918701171875e+00 1.022897288203239441e-01
-5.692136764526367188e+00 -3.035608530044555664e+00 7.881381548941135406e-03
-1.274373531341552734e+01 -5.035152435302734375e+00 4.038031101226806641e+00
-1.188649082183837891e+01 -5.187985420227050781e+00 2.626108527183532715e-01
-8.655326843261718750e+00 -4.156112670898437500e+00 1.022258475422859192e-01
-6.059438705444335938e+00 -3.183890819549560547e+00 8.362743072211742401e-03
-1.273772621154785156e+01 -4.942636489868164062e+00 4.026441574096679688e+00
-1.254154109954833984e+01 -4.853922367095947266e+00 3.991296589374542236e-01
-1.198608684539794922e+01 -5.144132137298583984e+00 2.641089260578155518e-01
-8.644503593444824219e+00 -4.085834503173828125e+00 1.017999947071075439e-01
-6.223616600036621094e+00 -3.221582174301147461e+00 8.561885915696620941e-03
-1.275347232818603516e+01 -4.858922481536865234e+00 4.021918773651123047e+00
-1.257202339172363281e+01 -4.777233123779296875e+00 3.991593420505523682e-01
-1.199255466461181641e+01 -5.059996128082275391e+00 2.635623216629028320e-01
-8.799968719482421875e+00 -4.093446731567382812e+00 1.033330634236335754e-01
-6.316318511962890625e+00 -3.220581769943237305e+00 8.662067353725433350e-03
-1.276867103576660156e+01 -4.775200843811035156e+00 4.017395973205566406e+00
-1.286937999725341797e+01 -4.815424442291259766e+00 3.489715576171875000e+00
-1.233605957031250000e+01 -4.601147174835205078e+00 3.907637894153594971e-01
-1.167613029479980469e+01 -4.842306613922119141e+00 2.559504210948944092e-01
-9.007674217224121094e+00 -4.123024940490722656e+00 1.054729744791984558e-01
-6.219787120819091797e+00 -3.123425245285034180e+00 8.503242395818233490e-03
-1.289868450164794922e+01 -4.736368656158447266e+00 3.489715576171875000e+00
-1.238189411163330078e+01 -4.531895637512207031e+00 3.913274407386779785e-01
-1.151489543914794922e+01 -4.692842483520507812e+00 2.517800629138946533e-01
-9.062891006469726562e+00 -4.081226825714111328e+00 1.058242991566658020e-01
-6.259451389312744141e+00 -3.095397949218750000e+00 8.531342260539531708e-03
-1.303839492797851562e+01 -4.694512844085693359e+00 4.083824634552001953e+00
-1.290288257598876953e+01 -4.648264884948730469e+00 3.483069181442260742e+00
-1.289169120788574219e+01 -4.646775722503662109e+00 2.942797660827636719e+00
-1.289626693725585938e+01 -4.633171081542968750e+00 9.029646515846252441e-01
-1.229281425476074219e+01 -4.413949489593505859e+00 3.876488208770751953e-01
-1.153697586059570312e+01 -4.619498252868652344e+00 2.516383528709411621e-01
-9.128904342651367188e+00 -4.043765544891357422e+00 1.063033863902091980e-01
-6.337666511535644531e+00 -3.085824966430664062e+00 8.611976169049739838e-03
-1.278114032745361328e+01 -4.513490676879882812e+00 3.994498968124389648e+00
-1.293847179412841797e+01 -4.571590423583984375e+00 3.485038518905639648e+00
-1.290244579315185547e+01 -4.561394214630126953e+00 2.938808202743530273e+00
-1.290140628814697266e+01 -4.558494091033935547e+00 2.417618036270141602e+00
-1.291698551177978516e+01 -4.561462879180908203e+00 1.908168435096740723e+00
-1.284685325622558594e+01 -4.531653404235839844e+00 1.395753502845764160e+00
-1.277951908111572266e+01 -4.502886295318603516e+00 8.928388953208923340e-01
-1.231495189666748047e+01 -4.336779117584228516e+00 3.875004947185516357e-01
-1.146833992004394531e+01 -4.510564327239990234e+00 2.495329231023788452e-01
-9.275468826293945312e+00 -4.040791034698486328e+00 1.077193394303321838e-01
-6.451165676116943359e+00 -3.092265367507934570e+00 8.740258403122425079e-03
-1.281403350830078125e+01 -4.436865329742431641e+00 3.996195077896118164e+00
-1.275850105285644531e+01 -4.963673114776611328e+00 3.879054784774780273e+00
-1.298642730712890625e+01 -4.499095439910888672e+00 3.490453720092773438e+00
-1.287384033203125000e+01 -4.462606906890869141e+00 2.926000833511352539e+00
-1.286306953430175781e+01 -4.456358432769775391e+00 2.405264616012573242e+00
-1.285207462310791016e+01 -4.450037479400634766e+00 1.894510149955749512e+00
-1.285843467712402344e+01 -4.447213649749755859e+00 1.394020915031433105e+00
-1.276729583740234375e+01 -4.410703182220458984e+00 8.900773525238037109e-01
-1.229125499725341797e+01 -4.243844509124755859e+00 3.859281837940216064e-01
-1.145849514007568359e+01 -4.425702095031738281e+00 2.487231492996215820e-01
-9.337774276733398438e+00 -3.999944925308227539e+00 1.081558391451835632e-01
-6.139915466308593750e+00 -2.896877527236938477e+00 8.294327184557914734e-03
-1.365669345855712891e+01 -4.634992122650146484e+00 4.250038623809814453e+00
-1.278602123260498047e+01 -4.884264469146728516e+00 3.878237009048461914e+00
-1.315420627593994141e+01 -4.467011451721191406e+00 3.528115510940551758e+00
-1.283895587921142578e+01 -4.362455844879150391e+00 2.911933422088623047e+00
-1.286219787597656250e+01 -4.367848873138427734e+00 2.400044679641723633e+00
-1.283318138122558594e+01 -4.355497360229492188e+00 1.887749910354614258e+00
-1.284214210510253906e+01 -4.353540420532226562e+00 1.389332294464111328e+00
-1.278750324249267578e+01 -4.330041408538818359e+00 8.896170854568481445e-01
-1.255471229553222656e+01 -4.248772621154785156e+00 3.933744132518768311e-01
-1.144149684906005859e+01 -4.338649272918701172e+00 2.477716654539108276e-01
-9.371357917785644531e+00 -3.946455001831054688e+00 1.082623079419136047e-01
-6.004292964935302734e+00 -2.787975549697875977e+00 8.087853901088237762e-03
-1.410265827178955078e+01 -4.690048694610595703e+00 4.379786968231201172e+00
-1.281484889984130859e+01 -4.805381298065185547e+00 3.877964258193969727e+00
-1.288218021392822266e+01 -4.289155006408691406e+00 2.915712833404541016e+00
-1.287380695343017578e+01 -4.283871173858642578e+00 2.397260904312133789e+00
-1.285590553283691406e+01 -4.275422573089599609e+00 1.887198090553283691e+00
-1.286200523376464844e+01 -4.272465229034423828e+00 1.388618826866149902e+00
-1.284034919738769531e+01 -4.260295391082763672e+00 8.914580941200256348e-01
-1.254923629760742188e+01 -4.161276340484619141e+00 3.923954069614410400e-01
-1.142386436462402344e+01 -4.251972675323486328e+00 2.468201816082000732e-01
-9.302080154418945312e+00 -3.850254297256469727e+00 1.071870326995849609e-01
-6.004914283752441406e+00 -2.743601083755493164e+00 8.065862581133842468e-03
-1.290758514404296875e+01 -4.744910717010498047e+00 3.344770431518554688e+00
-1.294264698028564453e+01 -4.221247673034667969e+00 2.923481225967407227e+00
-1.291389274597167969e+01 -4.209375858306884766e+00 2.399870634078979492e+00
-1.293369197845458984e+01 -4.213332176208496094e+00 1.894786000251770020e+00
-1.297973823547363281e+01 -4.223321437835693359e+00 1.398505568504333496e+00
-1.294026851654052734e+01 -4.205484390258789062e+00 8.965867161750793457e-01
-1.238630104064941406e+01 -4.023059368133544922e+00 3.865214884281158447e-01
-1.140372276306152344e+01 -4.164990425109863281e+00 2.458281964063644409e-01
-9.369989395141601562e+00 -3.811189174652099609e+00 1.076980456709861755e-01
-6.381000041961669922e+00 -2.868237257003784180e+00 8.547225035727024078e-03
-1.292823028564453125e+01 -4.662655353546142578e+00 3.342643499374389648e+00
-1.303349971771240234e+01 -4.162575244903564453e+00 2.938178300857543945e+00
-1.302484703063964844e+01 -4.157307147979736328e+00 2.415704011917114258e+00
-1.298294448852539062e+01 -4.131451606750488281e+00 8.977702260017395020e-01
-1.279142379760742188e+01 -4.588101863861083984e+00 7.669020295143127441e-01
-1.240313243865966797e+01 -3.944559335708618164e+00 3.862842023372650146e-01
-1.133023643493652344e+01 -4.059531211853027344e+00 2.437025308609008789e-01
-9.521338462829589844e+00 -3.804830312728881836e+00 1.091672405600547791e-01
-6.248486042022705078e+00 -2.762712001800537109e+00 8.346861228346824646e-03
-1.304170417785644531e+01 -4.618469715118408203e+00 3.920219898223876953e+00
-1.316365623474121094e+01 -4.112785339355468750e+00 3.502515554428100586e+00
-1.290621376037597656e+01 -4.565418720245361328e+00 3.329645156860351562e+00
-1.313344955444335938e+01 -4.105863571166992188e+00 2.954975128173828125e+00
-1.287792873382568359e+01 -4.550356388092041016e+00 2.793692827224731445e+00
-1.286601257324218750e+01 -4.541094779968261719e+00 2.273413896560668945e+00
-1.288082027435302734e+01 -4.541265010833740234e+00 1.769005537033081055e+00
-1.282532405853271484e+01 -4.516666889190673828e+00 1.263786077499389648e+00
-1.276753425598144531e+01 -4.491306304931640625e+00 7.638031244277954102e-01
-1.246241474151611328e+01 -3.879373073577880859e+00 3.873818218708038330e-01
-1.135304546356201172e+01 -3.989270925521850586e+00 2.436620444059371948e-01
-9.712981224060058594e+00 -3.812465906143188477e+00 1.110942214727401733e-01
-6.596377372741699219e+00 -2.868272066116333008e+00 8.787905797362327576e-03
-1.286075210571289062e+01 -4.465771675109863281e+00 3.857518196105957031e+00
-1.319049835205078125e+01 -4.032504081726074219e+00 3.503007650375366211e+00
-1.297437667846679688e+01 -4.500152111053466797e+00 3.340043544769287109e+00
-1.286117172241210938e+01 -4.455858230590820312e+00 2.784074068069458008e+00
-1.287778759002685547e+01 -4.456580638885498047e+00 2.270619869232177734e+00
-1.284564399719238281e+01 -4.440436363220214844e+00 1.760399580001831055e+00
-1.283679580688476562e+01 -4.432362556457519531e+00 1.262212753295898438e+00
-1.277219963073730469e+01 -4.405068874359130859e+00 7.624508142471313477e-01
-1.247737789154052734e+01 -3.800211191177368164e+00 3.871148526668548584e-01
-1.136785793304443359e+01 -3.916278600692749023e+00 2.434596121311187744e-01
-9.452548980712890625e+00 -3.643467187881469727e+00 1.078577414155006409e-01
-6.338006973266601562e+00 -2.709805965423583984e+00 8.421386592090129852e-03
-1.331347751617431641e+01 -3.978410005569458008e+00 4.094849109649658203e+00
-1.354187107086181641e+01 -4.609369754791259766e+00 4.053256511688232422e+00
-1.279923152923583984e+01 -4.894591331481933594e+00 3.738487243652343750e+00
-1.326420783996582031e+01 -3.966208934783935547e+00 3.516053676605224609e+00
-1.303762340545654297e+01 -4.432656288146972656e+00 3.349260568618774414e+00
-1.281405544281005859e+01 -4.351656436920166016e+00 2.768042564392089844e+00
-1.287126159667968750e+01 -4.366073131561279297e+00 2.264702796936035156e+00
-1.285104465484619141e+01 -4.354214191436767578e+00 1.757445216178894043e+00
-1.281847858428955078e+01 -4.338192462921142578e+00 1.257770657539367676e+00
-1.277155876159667969e+01 -4.317344665527343750e+00 7.608168125152587891e-01
-1.258667755126953125e+01 -3.749261617660522461e+00 3.897848129272460938e-01
-1.140967178344726562e+01 -3.852530241012573242e+00 2.438442558050155640e-01
-9.787090301513671875e+00 -3.703602552413940430e+00 1.114136055111885071e-01
-6.138794898986816406e+00 -2.580196619033813477e+00 8.135501295328140259e-03
-1.331646060943603516e+01 -3.890458106994628906e+00 4.088347434997558594e+00
-1.284076499938964844e+01 -4.820372581481933594e+00 3.741909027099609375e+00
-1.332271575927734375e+01 -3.894809484481811523e+00 3.525161504745483398e+00
-1.286468505859375000e+01 -4.280992031097412109e+00 2.773252725601196289e+00
-1.288844966888427734e+01 -4.283903121948242188e+00 2.263059377670288086e+00
-1.288787269592285156e+01 -4.278716564178466797e+00 1.758858203887939453e+00
-1.287320899963378906e+01 -4.268859863281250000e+00 1.260546922683715820e+00
-1.278643512725830078e+01 -4.235131740570068359e+00 7.601406574249267578e-01
-1.257105731964111328e+01 -3.660781860351562500e+00 3.885981440544128418e-01
-1.144353580474853516e+01 -3.785903453826904297e+00 2.440669387578964233e-01
-9.830253601074218750e+00 -3.651139974594116211e+00 1.116478294134140015e-01
-6.483540534973144531e+00 -2.678406000137329102e+00 8.570437319576740265e-03
-1.335299491882324219e+01 -3.812363386154174805e+00 4.092304706573486328e+00
-1.286104774475097656e+01 -4.738157272338867188e+00 3.739276885986328125e+00
-1.294629764556884766e+01 -4.761867046356201172e+00 3.215104579925537109e+00
-1.287953281402587891e+01 -4.198331356048583984e+00 2.770848035812377930e+00
-1.292105770111083984e+01 -4.206878185272216797e+00 2.264209747314453125e+00
-1.295538043975830078e+01 -4.213052272796630859e+00 1.764509916305541992e+00
-1.296639728546142578e+01 -4.211630344390869141e+00 1.267117619514465332e+00
-1.288340759277343750e+01 -4.179703712463378906e+00 7.643665671348571777e-01
-1.270288181304931641e+01 -3.614765882492065430e+00 3.919800817966461182e-01
-1.136573314666748047e+01 -3.682947158813476562e+00 2.419210225343704224e-01
-9.620416641235351562e+00 -3.506181001663208008e+00 1.090181916952133179e-01
-5.878128051757812500e+00 -2.386188030242919922e+00 7.750656455755233765e-03
-1.290931606292724609e+01 -4.658538818359375000e+00 3.198761224746704102e+00
-1.298718357086181641e+01 -4.145441532135009766e+00 2.788482666015625000e+00
-1.299349975585937500e+01 -4.127475738525390625e+00 7.693811655044555664e-01
-1.277932167053222656e+01 -4.576367378234863281e+00 6.377604603767395020e-01
-1.274119377136230469e+01 -3.541305065155029297e+00 3.924844264984130859e-01
-1.143576622009277344e+01 -3.628256797790527344e+00 2.429332584142684937e-01
-1.016338348388671875e+01 -3.633578062057495117e+00 1.149162501096725464e-01
-6.789004325866699219e+00 -2.707550764083862305e+00 8.929626084864139557e-03
-1.297732639312744141e+01 -4.600929737091064453e+00 3.756384849548339844e+00
-1.316009902954101562e+01 -4.116874217987060547e+00 3.353750944137573242e+00
-1.291470432281494141e+01 -4.571117401123046875e+00 3.193086385726928711e+00
-1.307689857482910156e+01 -4.085835456848144531e+00 2.802309751510620117e+00
-1.288163948059082031e+01 -4.549296855926513672e+00 2.660448551177978516e+00
-1.286696434020996094e+01 -4.541588306427001953e+00 2.141623020172119141e+00
-1.288210964202880859e+01 -4.534296035766601562e+00 1.640565156936645508e+00
-1.282326221466064453e+01 -4.508552074432373047e+00 1.134248852729797363e+00
-1.270254707336425781e+01 -4.461128711700439453e+00 6.325510144233703613e-01
-1.288423347473144531e+01 -3.496041536331176758e+00 3.962223827838897705e-01
-1.152560520172119141e+01 -3.579071283340454102e+00 2.443705946207046509e-01
-1.012132072448730469e+01 -3.548650741577148438e+00 1.141922995448112488e-01
-6.610887050628662109e+00 -2.589613914489746094e+00 8.674284443259239197e-03
-1.294243812561035156e+01 -4.499357700347900391e+00 3.738224267959594727e+00
-1.319626140594482422e+01 -4.039460659027099609e+00 3.356586933135986328e+00
-1.287350463867187500e+01 -4.467839717864990234e+00 3.176062107086181641e+00
-1.288519573211669922e+01 -4.461820125579833984e+00 2.655478477478027344e+00
-1.286751556396484375e+01 -4.453183174133300781e+00 2.137126445770263672e+00
-1.283742141723632812e+01 -4.430227279663085938e+00 1.631381273269653320e+00
-1.276306629180908203e+01 -4.399582386016845703e+00 1.126515388488769531e+00
-1.270134735107421875e+01 -4.373347282409667969e+00 6.311430931091308594e-01
-1.296534919738769531e+01 -3.432780981063842773e+00 3.980616629123687744e-01
-1.166022968292236328e+01 -3.542579412460327148e+00 2.467594295740127563e-01
-1.013155651092529297e+01 -3.482580184936523438e+00 1.140645444393157959e-01
-6.648118972778320312e+00 -2.557258605957031250e+00 8.702384307980537415e-03
-1.331067276000976562e+01 -3.990386486053466797e+00 3.937394618988037109e+00
-1.336611938476562500e+01 -4.554916858673095703e+00 3.852452754974365234e+00
-1.322824478149414062e+01 -3.960643529891967773e+00 3.358477354049682617e+00
-1.295323085784912109e+01 -4.406643867492675781e+00 3.189000606536865234e+00
-1.286399841308593750e+01 -4.366269588470458984e+00 2.645538806915283203e+00
-1.284969139099121094e+01 -4.358912467956542969e+00 2.129683732986450195e+00
-1.284179019927978516e+01 -4.343739986419677734e+00 1.628518700599670410e+00
-1.277943611145019531e+01 -4.317677974700927734e+00 1.125600576400756836e+00
-1.272888851165771484e+01 -4.295650005340576172e+00 6.311900019645690918e-01
-1.300165462493896484e+01 -3.357161045074462891e+00 3.985363543033599854e-01
-1.170474910736083984e+01 -3.477801084518432617e+00 2.472453117370605469e-01
-1.034130859375000000e+01 -3.483877182006835938e+00 1.161831542849540710e-01
-6.455064296722412109e+00 -2.437636852264404297e+00 8.429937995970249176e-03
-1.329335880279541016e+01 -3.896460294723510742e+00 3.925127029418945312e+00
-1.286538696289062500e+01 -4.832337379455566406e+00 3.613096952438354492e+00
-1.325602912902832031e+01 -3.880494117736816406e+00 3.359422922134399414e+00
-1.307703590393066406e+01 -4.359421253204345703e+00 3.212834596633911133e+00
-1.286353588104248047e+01 -4.278271675109863281e+00 2.639995336532592773e+00
-1.289963150024414062e+01 -4.287776470184326172e+00 2.133560180664062500e+00
-1.290024471282958984e+01 -4.275482654571533203e+00 1.632573962211608887e+00
-1.283028507232666016e+01 -4.247325897216796875e+00 1.127762675285339355e+00
-1.279673671722412109e+01 -4.231264114379882812e+00 6.332550048828125000e-01
-1.284752845764160156e+01 -3.233408927917480469e+00 3.931964039802551270e-01
-1.172010803222656250e+01 -3.404243469238281250e+00 2.471238523721694946e-01
-1.038717937469482422e+01 -3.428507566452026367e+00 1.164599582552909851e-01
-6.437081813812255859e+00 -2.385819673538208008e+00 8.387178182601928711e-03
-1.335863876342773438e+01 -3.826743364334106445e+00 3.937394618988037109e+00
-1.286757087707519531e+01 -4.743270874023437500e+00 3.605468750000000000e+00
-1.285874652862548828e+01 -4.189228534698486328e+00 2.633687496185302734e+00
-1.296703147888183594e+01 -4.222002983093261719e+00 2.140382766723632812e+00
-1.298761844635009766e+01 -4.216174125671386719e+00 1.640326499938964844e+00
-1.296512031555175781e+01 -4.203868389129638672e+00 1.137325644493103027e+00
-1.290133285522460938e+01 -4.178209304809570312e+00 6.371503472328186035e-01
-1.177347564697265625e+01 -3.341547489166259766e+00 2.478121519088745117e-01
-1.043656539916992188e+01 -3.373936414718627930e+00 1.167793571949005127e-01
-6.280559539794921875e+00 -2.284074783325195312e+00 8.164823055267333984e-03
-1.288370037078857422e+01 -4.659622669219970703e+00 3.601909160614013672e+00
-1.313882446289062500e+01 -4.201583862304687500e+00 3.215104579925537109e+00
-1.290564155578613281e+01 -4.654826641082763672e+00 3.066657781600952148e+00
-1.298707294464111328e+01 -4.143064975738525391e+00 2.654714107513427734e+00
-1.280800247192382812e+01 -4.581752300262451172e+00 1.006091594696044922e+00
-1.289054489135742188e+01 -4.087496757507324219e+00 6.353669762611389160e-01
-1.274506282806396484e+01 -4.551711559295654297e+00 5.080761313438415527e-01
-1.320708370208740234e+01 -3.152080774307250977e+00 4.029862880706787109e-01
-1.184578514099121094e+01 -3.283665895462036133e+00 2.489053606986999512e-01
-1.046660327911376953e+01 -3.312852382659912109e+00 1.168858110904693604e-01
-6.693805217742919922e+00 -2.387959480285644531e+00 8.682836778461933136e-03
-1.294212722778320312e+01 -4.591152191162109375e+00 3.610299825668334961e+00
-1.316342830657958984e+01 -4.120595932006835938e+00 3.214877605438232422e+00
-1.290635871887207031e+01 -4.565787315368652344e+00 3.060113668441772461e+00
-1.301131343841552734e+01 -4.063007354736328125e+00 2.654522895812988281e+00
-1.289234161376953125e+01 -4.548173427581787109e+00 2.528848648071289062e+00
-1.288807678222656250e+01 -4.536553859710693359e+00 2.015168190002441406e+00
-1.283561992645263672e+01 -4.510537624359130859e+00 1.504417896270751953e+00
-1.281611251831054688e+01 -4.496144771575927734e+00 1.004542589187622070e+00
-1.271899509429931641e+01 -4.454596042633056641e+00 5.059377551078796387e-01
-1.188501167297363281e+01 -3.216142892837524414e+00 2.493102401494979858e-01
-1.062905311584472656e+01 -3.292655706405639648e+00 1.184721142053604126e-01
-6.741367816925048828e+00 -2.358399629592895508e+00 8.725597523152828217e-03
-1.297827625274658203e+01 -4.514514446258544922e+00 3.612588405609130859e+00
-1.320522499084472656e+01 -4.044883251190185547e+00 3.218963384628295898e+00
-1.289725017547607422e+01 -4.473716259002685547e+00 3.051387786865234375e+00
-1.286610603332519531e+01 -4.450338363647460938e+00 2.518298864364624023e+00
-1.287732696533203125e+01 -4.444156169891357422e+00 2.009185791015625000e+00
-1.278505611419677734e+01 -4.404822349548339844e+00 1.495295524597167969e+00
-1.280102157592773438e+01 -4.402825832366943359e+00 1.001223444938659668e+00
-1.272529506683349609e+01 -4.369330406188964844e+00 5.051124095916748047e-01
-1.189485549926757812e+01 -3.140604734420776367e+00 2.491077929735183716e-01
-1.018780231475830078e+01 -3.087584257125854492e+00 1.133405938744544983e-01
-7.049890995025634766e+00 -2.417885065078735352e+00 9.105555713176727295e-03
-1.328170108795166016e+01 -3.986912250518798828e+00 3.783231258392333984e+00
-1.309543991088867188e+01 -4.465384960174560547e+00 3.637506246566772461e+00
-1.324658775329589844e+01 -3.968812227249145508e+00 3.223049163818359375e+00
-1.291152191162109375e+01 -4.390097618103027344e+00 3.048333883285522461e+00
-1.284940242767333984e+01 -4.356470108032226562e+00 2.509749889373779297e+00
-1.285749721527099609e+01 -4.349208831787109375e+00 2.001890182495117188e+00
-1.281090259552001953e+01 -4.325973987579345703e+00 1.495185613632202148e+00
-1.280511569976806641e+01 -4.316551685333251953e+00 9.994531869888305664e-01
-1.275375938415527344e+01 -4.291804313659667969e+00 5.051874518394470215e-01
-1.187226867675781250e+01 -3.056840896606445312e+00 2.482372969388961792e-01
-1.064469146728515625e+01 -3.154869556427001953e+00 1.182059571146965027e-01
-7.070281505584716797e+00 -2.376493930816650391e+00 9.112886153161525726e-03
