-8.511330604553222656e+00 -3.214148044586181641e+00 1.111530140042304993e-02
-8.744679450988769531e+00 -3.241100549697875977e+00 1.139385625720024109e-02
-1.103326511383056641e+01 -2.704925775527954102e+00 3.371568918228149414e-01
-8.543553352355957031e+00 -3.107066392898559570e+00 1.110674999654293060e-02
-8.650050163269042969e+00 -3.085833549499511719e+00 1.122036948800086975e-02
-8.814183235168457031e+00 -3.083553075790405273e+00 1.140851713716983795e-02
-8.708076477050781250e+00 -2.986589193344116211e+00 1.124724838882684708e-02
-8.571732521057128906e+00 -2.881168127059936523e+00 1.104810647666454315e-02
-1.100349998474121094e+01 -2.761272430419921875e+00 2.297136187553405762e-01
-8.798211097717285156e+00 -2.897331476211547852e+00 1.131688710302114487e-02
-1.107365226745605469e+01 -2.706761121749877930e+00 2.308270633220672607e-01
-8.945257186889648438e+00 -2.885037422180175781e+00 1.148304250091314316e-02
-8.770166397094726562e+00 -2.769272804260253906e+00 1.123625319451093674e-02
-8.804190635681152344e+00 -2.720722198486328125e+00 1.125824358314275742e-02
-8.946114540100097656e+00 -2.704558610916137695e+00 1.141829136759042740e-02
-8.877191543579101562e+00 -2.624383449554443359e+00 1.130955573171377182e-02
-1.100605773925781250e+01 -2.753875732421875000e+00 1.207930073142051697e-01
-8.950769424438476562e+00 -2.586521625518798828e+00 1.138286013156175613e-02
-1.100720405578613281e+01 -2.682503938674926758e+00 1.206226721405982971e-01
-8.894293785095214844e+00 -2.511173486709594727e+00 1.129123102873563766e-02
-8.990511894226074219e+00 -2.478879213333129883e+00 1.139385625720024109e-02
-8.936992645263671875e+00 -2.405216217041015625e+00 1.130711287260055542e-02
-8.968025207519531250e+00 -2.354651927947998047e+00 1.132788229733705521e-02
-8.461113929748535156e+00 -2.166149377822875977e+00 1.067059114575386047e-02
-8.486859321594238281e+00 -2.117339134216308594e+00 1.068647485226392746e-02
-9.215852737426757812e+00 -2.239235401153564453e+00 1.158688962459564209e-02
-8.512203216552734375e+00 -2.013032913208007812e+00 1.068647485226392746e-02
-8.693966865539550781e+00 -1.999769687652587891e+00 1.089905574917793274e-02
-8.240565299987792969e+00 -1.842314839363098145e+00 1.031628996133804321e-02
-9.241646766662597656e+00 -2.006663799285888672e+00 1.155390311032533646e-02
-9.426981925964355469e+00 -1.986415505409240723e+00 1.177014969289302826e-02
-9.126449584960937500e+00 -1.864677786827087402e+00 1.138041727244853973e-02
-9.129871368408203125e+00 -1.807090401649475098e+00 1.137064304202795029e-02
-9.074984550476074219e+00 -1.738431215286254883e+00 1.128878723829984665e-02
-9.298851966857910156e+00 -1.722233772277832031e+00 1.155390311032533646e-02
-8.825915336608886719e+00 -1.578691601753234863e+00 1.095403358340263367e-02
-9.592251777648925781e+00 -1.655091643333435059e+00 1.189232151955366135e-02
-9.708764076232910156e+00 -1.613913536071777344e+00 1.202426850795745850e-02
-9.321529388427734375e+00 -1.490825057029724121e+00 1.153313368558883667e-02
-9.327536582946777344e+00 -1.433145523071289062e+00 1.152946799993515015e-02
-9.156099319458007812e+00 -1.349350690841674805e+00 1.130711287260055542e-02
-9.305804252624511719e+00 -1.313125133514404297e+00 1.148182060569524765e-02
-9.545586585998535156e+00 -1.287274241447448730e+00 1.176770590245723724e-02
-9.566199302673339844e+00 -1.230337619781494141e+00 1.178358774632215500e-02
-9.608308792114257812e+00 -1.175868868827819824e+00 1.182634849101305008e-02
-9.345159530639648438e+00 -1.085507512092590332e+00 1.149403769522905350e-02
-9.651835441589355469e+00 -1.061150193214416504e+00 1.186299975961446762e-02
-9.667117118835449219e+00 -1.002836346626281738e+00 1.187399681657552719e-02
-9.661145210266113281e+00 -9.423362016677856445e-01 1.185933593660593033e-02
-9.785251617431640625e+00 -8.938640952110290527e-01 1.200472097843885422e-02
-9.969902992248535156e+00 -8.490803837776184082e-01 1.222463231533765793e-02
-9.905142784118652344e+00 -7.823783755302429199e-01 1.213911175727844238e-02
-1.008229923248291016e+01 -7.341506481170654297e-01 1.235047075897455215e-02
-1.008960723876953125e+01 -6.724724769592285156e-01 1.235413644462823868e-02
-1.006659317016601562e+01 -6.089209318161010742e-01 1.232114899903535843e-02
-1.009710025787353516e+01 -5.486068725585937500e-01 1.235413644462823868e-02
-1.030703639984130859e+01 -4.966037869453430176e-01 1.260703429579734802e-02
-1.013204669952392578e+01 -4.258764684200286865e-01 1.238956674933433533e-02
-1.032434654235839844e+01 -3.705135881900787354e-01 1.262169517576694489e-02
-1.074991798400878906e+01 8.472168445587158203e-01 3.200394511222839355e-01
-1.017949008941650391e+01 -3.027870655059814453e-01 1.244209986180067062e-02
-7.892061710357666016e+00 6.707350015640258789e-01 2.350753247737884521e-01
-9.677297592163085938e+00 -2.284278273582458496e-01 1.182634849101305008e-02
-7.898747444152832031e+00 7.201454639434814453e-01 2.354016602039337158e-01
-1.021543502807617188e+01 -1.784225553274154663e-01 1.248241867870092392e-02
-1.017234039306640625e+01 -1.152400225400924683e-01 1.242866180837154388e-02
-1.029485321044921875e+01 -5.345501005649566650e-02 1.257771253585815430e-02
-1.040598773956298828e+01 9.818766266107559204e-03 1.271332427859306335e-02
-1.075983619689941406e+01 8.554392457008361816e-01 2.185589373111724854e-01
-1.042473125457763672e+01 7.380302995443344116e-02 1.273653749376535416e-02
-7.886482715606689453e+00 6.757200956344604492e-01 1.602752059698104858e-01
-9.307180404663085938e+00 1.230054199695587158e-01 1.137186493724584579e-02
-7.884179115295410156e+00 7.242808341979980469e-01 1.603156924247741699e-01
-1.055401611328125000e+01 2.042598426342010498e-01 1.289658434689044952e-02
-1.061954212188720703e+01 2.707216739654541016e-01 1.297844015061855316e-02
-4.848927497863769531e+00 6.833602786064147949e-01 1.453349292278289795e-01
-1.116740608215332031e+01 3.532666862010955811e-01 1.365039125084877014e-02
-4.833765029907226562e+00 7.114986777305603027e-01 1.450086086988449097e-01
-1.095018100738525391e+01 4.136656820774078369e-01 1.338771916925907135e-02
-4.835236549377441406e+00 7.420544624328613281e-01 1.451866030693054199e-01
-1.371811008453369141e+01 1.600585699081420898e+00 2.796566784381866455e-01
-1.075486183166503906e+01 8.624818325042724609e-01 1.148736625909805298e-01
-1.087550640106201172e+01 4.776875376701354980e-01 1.329975575208663940e-02
-7.875230789184570312e+00 6.802081465721130371e-01 8.415906131267547607e-02
-1.096525382995605469e+01 5.490602850914001465e-01 1.341337524354457855e-02
-7.880866050720214844e+00 7.294384241104125977e-01 8.426553010940551758e-02
-1.097865200042724609e+01 6.172858476638793945e-01 1.343414559960365295e-02
-1.110141086578369141e+01 6.925452947616577148e-01 1.358930487185716629e-02
-4.846628189086914062e+00 6.864334344863891602e-01 9.911676496267318726e-02
-1.108498096466064453e+01 7.598286271095275879e-01 1.357464399188756943e-02
-4.807708263397216797e+00 7.110391855239868164e-01 9.840820729732513428e-02
-1.074305057525634766e+01 8.026476502418518066e-01 1.316170021891593933e-02
-4.833887100219726562e+00 7.452479004859924316e-01 9.903578460216522217e-02
-1.374287509918212891e+01 1.613049030303955078e+00 1.473236083984375000e-01
-7.890225410461425781e+00 6.382110118865966797e-01 9.671216830611228943e-03
-1.371584892272949219e+01 1.695258259773254395e+00 1.471426188945770264e-01
-7.886160850524902344e+00 6.866124868392944336e-01 9.671216830611228943e-03
-7.882794857025146484e+00 7.350809574127197266e-01 9.672437794506549835e-03
-4.901546955108642578e+00 6.669895648956298828e-01 5.266728252172470093e-02
-7.879131317138671875e+00 7.835339903831481934e-01 9.673659689724445343e-03
-4.893402099609375000e+00 6.964887380599975586e-01 5.262469872832298279e-02
-1.068851184844970703e+01 1.129184365272521973e+00 1.313115563243627548e-02
-4.869255065917968750e+00 7.235614657402038574e-01 5.241177603602409363e-02
-1.014472866058349609e+01 1.134720206260681152e+00 1.247142162173986435e-02
-4.858794689178466797e+00 7.525067925453186035e-01 5.234789475798606873e-02
-1.356079483032226562e+01 1.601126074790954590e+00 1.668272726237773895e-02
-1.348720359802246094e+01 1.676409125328063965e+00 1.660453528165817261e-02
-4.861752986907958984e+00 6.346135139465332031e-01 5.990143399685621262e-03
-4.916223049163818359e+00 6.724281311035156250e-01 6.062225438654422760e-03
-4.892966747283935547e+00 6.981149315834045410e-01 1.855530142784118652e-01
-4.854588985443115234e+00 6.943684816360473633e-01 5.991365294903516769e-03
-4.887602806091308594e+00 7.279772758483886719e-01 1.855155080556869507e-01
-4.868040084838867188e+00 7.268005609512329102e-01 6.013356614857912064e-03
-4.842738151550292969e+00 7.534282207489013672e-01 5.987699609249830246e-03
-4.840985774993896484e+00 7.836079597473144531e-01 5.991365294903516769e-03
-1.420169353485107422e+01 2.567924499511718750e+00 1.763201132416725159e-02
-1.324205589294433594e+01 2.478407621383666992e+00 1.645915023982524872e-02
-1.464133930206298828e+01 2.926707983016967773e+00 1.824165321886539459e-02
-1.457424354553222656e+01 3.193356990814208984e+00 1.822821609675884247e-02
-1.282579898834228516e+01 2.892844438552856445e+00 1.606330834329128265e-02
-1.498379135131835938e+01 3.573356389999389648e+00 1.881953142583370209e-02
-2.383207082748413086e+00 1.035289883613586426e+00 1.712167710065841675e-01
-2.281720161437988281e+00 9.916762709617614746e-01 7.383928447961807251e-02
-2.367682218551635742e+00 1.045861601829528809e+00 1.705592572689056396e-01
-2.375246763229370117e+00 1.049698472023010254e+00 7.707290351390838623e-02
-2.340284347534179688e+00 1.050967812538146973e+00 1.690469682216644287e-01
-2.320437669754028320e+00 1.042541861534118652e+00 7.550059258937835693e-02
-2.331068515777587891e+00 1.064064741134643555e+00 1.688497066497802734e-01
-2.332181930541992188e+00 1.065064787864685059e+00 7.609391957521438599e-02
-2.301122903823852539e+00 1.067993164062500000e+00 7.529293000698089600e-02
-2.391286611557006836e+00 1.022854089736938477e+00 1.467768549919128418e-01
-2.395951986312866211e+00 1.042286753654479980e+00 1.474529802799224854e-01
-2.387685298919677734e+00 1.056160688400268555e+00 1.473402976989746094e-01
-2.316575050354003906e+00 1.025673031806945801e+00 5.129940435290336609e-02
-2.368411779403686523e+00 1.065058588981628418e+00 1.465514749288558960e-01
-2.364939689636230469e+00 1.064489960670471191e+00 5.251406878232955933e-02
-2.344579219818115234e+00 1.071684718132019043e+00 1.454809308052062988e-01
-2.339271306991577148e+00 1.070245862007141113e+00 5.208893865346908569e-02
-2.343539476394653320e+00 1.089637517929077148e+00 5.233186855912208557e-02
-2.382745027542114258e+00 1.020645976066589355e+00 1.217888295650482178e-01
-2.358053445816040039e+00 1.011530876159667969e+00 2.731842733919620514e-02
-2.384679794311523438e+00 1.038837552070617676e+00 1.222112178802490234e-01
-2.391960382461547852e+00 1.059518337249755859e+00 1.229152083396911621e-01
-2.341806411743164062e+00 1.038769721984863281e+00 2.727583982050418854e-02
-2.378127813339233398e+00 1.070894002914428711e+00 1.225397437810897827e-01
-2.330831050872802734e+00 1.051064014434814453e+00 2.722260914742946625e-02
-2.385136365890502930e+00 1.091701745986938477e+00 1.232437342405319214e-01
-2.351608276367187500e+00 1.077845096588134766e+00 2.754199877381324768e-02
-2.439933061599731445e+00 1.013351678848266602e+00 3.227811306715011597e-03
-2.406034946441650391e+00 1.016627311706542969e+00 3.191159572452306747e-03
-2.396995544433593750e+00 1.030186772346496582e+00 3.187494352459907532e-03
-2.352680444717407227e+00 1.027310729026794434e+00 9.637802094221115112e-02
-2.384215116500854492e+00 1.042071580886840820e+00 3.178942250087857246e-03
-2.359119415283203125e+00 1.047404170036315918e+00 9.690324962139129639e-02
-2.373207092285156250e+00 1.054650664329528809e+00 3.172833472490310669e-03
-2.378150939941406250e+00 1.073370456695556641e+00 9.795368462800979614e-02
-2.361223220825195312e+00 1.066722393035888672e+00 3.165503032505512238e-03
-2.332822799682617188e+00 1.071175575256347656e+00 3.136181505396962166e-03
-2.329831123352050781e+00 1.087160825729370117e+00 3.141068387776613235e-03
-8.166563987731933594e+00 6.603570938110351562e+00 3.117032647132873535e-01
-8.134398460388183594e+00 6.660521030426025391e+00 3.120295703411102295e-01
-8.098763465881347656e+00 6.714773178100585938e+00 3.122372329235076904e-01
-8.047456741333007812e+00 6.755984783172607422e+00 3.118515610694885254e-01
-3.499880790710449219e+00 3.081254005432128906e+00 1.184243559837341309e+00
-3.447370290756225586e+00 3.033956527709960938e+00 9.861814975738525391e-01
-8.151060104370117188e+00 6.683526515960693359e+00 2.134370952844619751e-01
-3.477290868759155273e+00 3.099446296691894531e+00 1.183012843132019043e+00
-3.447668790817260742e+00 3.071963310241699219e+00 9.916404485702514648e-01
-8.091435432434082031e+00 6.718086242675781250e+00 2.129512280225753784e-01
-3.451731681823730469e+00 3.114880084991455078e+00 1.180797457695007324e+00
-3.420769214630126953e+00 3.085856437683105469e+00 9.893309473991394043e-01
-3.337755441665649414e+00 3.013083934783935547e+00 6.263527870178222656e-01
-3.293795585632324219e+00 2.975487470626831055e+00 4.547869563102722168e-01
-3.245095491409301758e+00 2.933551311492919922e+00 2.882543504238128662e-01
-3.267240047454833984e+00 2.954606533050537109e+00 1.307391375303268433e-01
-8.014093399047851562e+00 6.737370014190673828e+00 2.119997441768646240e-01
-3.422535896301269531e+00 3.126848220825195312e+00 1.177351236343383789e+00
-3.438589096069335938e+00 3.140413522720336914e+00 1.000038862228393555e+00
-3.340647220611572266e+00 3.052034378051757812e+00 7.994929552078247070e-01
-3.317011117935180664e+00 3.031502485275268555e+00 6.259388923645019531e-01
-3.260794878005981445e+00 2.982214450836181641e+00 4.527484774589538574e-01
-3.223353862762451172e+00 2.950039148330688477e+00 2.879255712032318115e-01
-3.210712432861328125e+00 2.939499616622924805e+00 1.291964948177337646e-01
-3.384471893310546875e+00 3.131484508514404297e+00 1.358825087547302246e+00
-3.389054775238037109e+00 3.134627342224121094e+00 1.172428131103515625e+00
-3.414947986602783203e+00 3.157470941543579102e+00 9.987791776657104492e-01
-3.324749469757080078e+00 3.075149536132812500e+00 8.001889586448669434e-01
-3.291805028915405273e+00 3.045744657516479492e+00 6.246972084045410156e-01
-3.232215166091918945e+00 2.992703914642333984e+00 4.513214826583862305e-01
-3.206655740737915039e+00 2.971118211746215820e+00 2.880570888519287109e-01
-3.189683437347412109e+00 2.956427335739135742e+00 1.290778368711471558e-01
-3.399496793746948242e+00 3.184324264526367188e+00 1.372676253318786621e+00
-3.352070331573486328e+00 3.138801574707031250e+00 1.166274428367614746e+00
-3.308427095413208008e+00 3.096851348876953125e+00 9.731640219688415527e-01
-3.307255506515502930e+00 3.096837997436523438e+00 8.005369305610656738e-01
-3.267994880676269531e+00 3.061145782470703125e+00 6.237314939498901367e-01
-3.210888624191284180e+00 3.009758949279785156e+00 4.509138166904449463e-01
-3.173081874847412109e+00 2.976402044296264648e+00 2.866763174533843994e-01
-3.177314281463623047e+00 2.981414794921875000e+00 1.293151676654815674e-01
-3.397990942001342773e+00 3.222284078598022461e+00 1.380025863647460938e+00
-3.310942173004150391e+00 3.138639450073242188e+00 1.158643603324890137e+00
-3.520024299621582031e+00 3.096739530563354492e+00 1.140289425849914551e+00
-3.286524057388305664e+00 3.114403009414672852e+00 9.723241329193115234e-01
-3.447325706481933594e+00 3.034918546676635742e+00 9.394471049308776855e-01
-3.288191318511962891e+00 3.117072582244873047e+00 8.005369305610656738e-01
-3.246994256973266602e+00 3.079095363616943359e+00 6.233175396919250488e-01
-3.201741456985473633e+00 3.038305997848510742e+00 4.522388279438018799e-01
-3.174295663833618164e+00 3.014367818832397461e+00 2.884515821933746338e-01
-3.136495113372802734e+00 2.979512929916381836e+00 1.283955127000808716e-01
-8.129125595092773438e+00 6.674889087677001953e+00 1.119885072112083435e-01
-3.371235609054565430e+00 3.236430168151855469e+00 1.377199053764343262e+00
-3.284628391265869141e+00 3.152184724807739258e+00 1.156182050704956055e+00
-3.466854333877563477e+00 3.087904930114746094e+00 1.129181981086730957e+00
-3.276524543762207031e+00 3.143309354782104492e+00 9.750536084175109863e-01
-3.416205644607543945e+00 3.044931650161743164e+00 9.360404014587402344e-01
-3.259056568145751953e+00 3.127644062042236328e+00 7.981010675430297852e-01
-3.253761768341064453e+00 3.123653650283813477e+00 6.282842755317687988e-01
-3.197386264801025391e+00 3.071677923202514648e+00 4.542773365974426270e-01
-8.085709571838378906e+00 6.722725391387939453e+00 1.119565740227699280e-01
-3.344435214996337891e+00 3.250369548797607422e+00 1.374372363090515137e+00
-3.441474437713623047e+00 3.101199388504028320e+00 1.312646627426147461e+00
-3.270091295242309570e+00 3.177007198333740234e+00 1.157905101776123047e+00
-3.441347360610961914e+00 3.103262424468994141e+00 1.127054929733276367e+00
-3.250863790512084961e+00 3.157224178314208984e+00 9.731640219688415527e-01
-3.387274980545043945e+00 3.056646823883056641e+00 9.332348704338073730e-01
-3.258168220520019531e+00 3.165423393249511719e+00 8.026248216629028320e-01
-3.250159740447998047e+00 3.158745765686035156e+00 6.313194632530212402e-01
-3.329480171203613281e+00 3.008713245391845703e+00 5.812336802482604980e-01
-3.221980094909667969e+00 3.133546590805053711e+00 4.604946970939636230e-01
-3.318196773529052734e+00 3.000621318817138672e+00 4.158018827438354492e-01
-3.257305860519409180e+00 2.947625637054443359e+00 2.479148358106613159e-01
-3.384025812149047852e+00 3.294594049453735352e+00 1.401730179786682129e-01
-3.246708869934082031e+00 2.940098285675048828e+00 8.869087696075439453e-02
-8.027478218078613281e+00 6.758043766021728516e+00 1.117223501205444336e-01
-3.322376966476440430e+00 3.268811225891113281e+00 1.373524188995361328e+00
-3.415273427963256836e+00 3.115773439407348633e+00 1.309920430183410645e+00
-3.251227378845214844e+00 3.197692155838012695e+00 1.158151388168334961e+00
-3.409324645996093750e+00 3.112527608871459961e+00 1.122801184654235840e+00
-3.225155591964721680e+00 3.170942544937133789e+00 9.712743759155273438e-01
-3.365563154220581055e+00 3.074730157852172852e+00 9.324333667755126953e-01
-3.242896795272827148e+00 3.189498662948608398e+00 8.036687970161437988e-01
-3.328478097915649414e+00 3.042982339859008789e+00 7.514494061470031738e-01
-3.251897335052490234e+00 3.199468135833740234e+00 6.354583501815795898e-01
-3.314615011215209961e+00 3.032433032989501953e+00 5.818759202957153320e-01
-3.312567949295043945e+00 3.261436939239501953e+00 4.762930274009704590e-01
-3.254923582077026367e+00 2.979911088943481445e+00 4.101566672325134277e-01
-3.354258537292480469e+00 3.304790496826171875e+00 3.102810978889465332e-01
-3.230324029922485352e+00 2.959463357925415039e+00 2.472386956214904785e-01
-3.369441986083984375e+00 3.320909023284912109e+00 1.404103487730026245e-01
-3.200603485107421875e+00 2.934290409088134766e+00 8.792159706354141235e-02
-3.304296255111694336e+00 3.291166305541992188e+00 1.374372363090515137e+00
-3.397504568099975586e+00 3.137975931167602539e+00 1.310465693473815918e+00
-3.236353158950805664e+00 3.222368240356445312e+00 1.159874439239501953e+00
-3.408715248107910156e+00 3.150535821914672852e+00 1.128945708274841309e+00
-3.204945087432861328e+00 3.189982175827026367e+00 9.710643291473388672e-01
-3.355264425277709961e+00 3.103305816650390625e+00 9.348381161689758301e-01
-3.206517219543457031e+00 3.192661046981811523e+00 7.994929552078247070e-01
-3.291646480560302734e+00 3.046597719192504883e+00 7.473405003547668457e-01
-3.225187063217163086e+00 3.212371349334716797e+00 6.340786814689636230e-01
-3.281394243240356445e+00 3.039236068725585938e+00 5.793069601058959961e-01
-3.273470163345336914e+00 3.262739658355712891e+00 4.735410511493682861e-01
-3.210288286209106445e+00 2.975460052490234375e+00 4.068250954151153564e-01
-3.316961765289306641e+00 3.308397531509399414e+00 3.087030351161956787e-01
-3.209908485412597656e+00 2.977191925048828125e+00 2.470696866512298584e-01
-3.345463752746582031e+00 3.337990999221801758e+00 1.402620077133178711e-01
-3.184736967086791992e+00 2.955914020538330078e+00 8.798232674598693848e-02
-3.285390615463256836e+00 3.312741041183471680e+00 1.374937653541564941e+00
-3.372564315795898438e+00 3.153506755828857422e+00 1.308284759521484375e+00
-3.221298694610595703e+00 3.246981859207153320e+00 1.161597490310668945e+00
-3.362358331680297852e+00 3.146164178848266602e+00 1.119965195655822754e+00
-3.187377691268920898e+00 3.211669206619262695e+00 9.716942906379699707e-01
-3.311844587326049805e+00 3.101067066192626953e+00 9.280246496200561523e-01
-3.184786319732666016e+00 3.210178375244140625e+00 7.989709377288818359e-01
-3.269291877746582031e+00 3.063365221023559570e+00 7.465186715126037598e-01
-3.206113100051879883e+00 3.232803583145141602e+00 6.342166662216186523e-01
-3.251832723617553711e+00 3.049138307571411133e+00 5.773802399635314941e-01
-3.230280399322509766e+00 3.259446859359741211e+00 4.701775610446929932e-01
-3.191970586776733398e+00 2.995101928710937500e+00 4.068250954151153564e-01
-3.285365104675292969e+00 3.317344188690185547e+00 3.076510429382324219e-01
-3.193763732910156250e+00 2.998881578445434570e+00 2.472386956214904785e-01
-3.319996595382690430e+00 3.353483200073242188e+00 1.400543451309204102e-01
-3.142495870590209961e+00 2.952806711196899414e+00 8.731425553560256958e-02
-8.079662322998046875e+00 6.560897350311279297e+00 1.271576900035142899e-02
-3.259632349014282227e+00 3.327355861663818359e+00 1.372676253318786621e+00
-3.361536026000976562e+00 3.182078123092651367e+00 1.311556220054626465e+00
-3.211490631103515625e+00 3.277069807052612305e+00 1.165289759635925293e+00
-3.307013988494873047e+00 3.132656097412109375e+00 1.107912302017211914e+00
-3.484045028686523438e+00 3.063940763473510742e+00 1.081386566162109375e+00
-3.168980121612548828e+00 3.232562541961669922e+00 9.721142053604125977e-01
-3.278533935546875000e+00 3.107849836349487305e+00 9.240167737007141113e-01
-3.167097091674804688e+00 3.231769561767578125e+00 7.994929552078247070e-01
-3.241130590438842773e+00 3.074542522430419922e+00 7.443820238113403320e-01
-3.188296079635620117e+00 3.254537820816040039e+00 6.346305608749389648e-01
-3.239535570144653320e+00 3.075178384780883789e+00 5.785362720489501953e-01
-3.201869010925292969e+00 3.270675659179687500e+00 4.689544439315795898e-01
-3.180030107498168945e+00 3.020802974700927734e+00 4.076579809188842773e-01
-3.259365797042846680e+00 3.331733703613281250e+00 3.071250021457672119e-01
-3.183262825012207031e+00 3.025988340377807617e+00 2.478584945201873779e-01
-3.286078929901123047e+00 3.360213041305541992e+00 1.394906789064407349e-01
-3.098240375518798828e+00 2.947226047515869141e+00 8.658546209335327148e-02
-8.131942749023437500e+00 6.686563968658447266e+00 1.286237593740224838e-02
-3.269171237945556641e+00 3.378312826156616211e+00 1.385396599769592285e+00
-3.335695743560791016e+00 3.196652650833129883e+00 1.309102535247802734e+00
-3.468084335327148438e+00 3.084593534469604492e+00 1.266253352165222168e+00
-3.185929536819458008e+00 3.291142225265502930e+00 1.163320541381835938e+00
-3.275807619094848633e+00 3.141455173492431641e+00 1.103894710540771484e+00
-3.464451789855957031e+00 3.084613084793090820e+00 1.081159472465515137e+00
-3.159968376159667969e+00 3.263184070587158203e+00 9.754735827445983887e-01
-3.256575584411621094e+00 3.125194787979125977e+00 9.232152104377746582e-01
-3.433862686157226562e+00 3.061678171157836914e+00 8.959277868270874023e-01
-3.151317119598388672e+00 3.255387067794799805e+00 8.005369305610656738e-01
-3.232876300811767578e+00 3.104620218276977539e+00 7.468473315238952637e-01
-3.172399044036865234e+00 3.278310060501098633e+00 6.354583501815795898e-01
-3.229186296463012695e+00 3.103244066238403320e+00 5.800776481628417969e-01
-3.204560756683349609e+00 3.313859462738037109e+00 4.723179638385772705e-01
-3.182965755462646484e+00 3.060964107513427734e+00 4.104343354701995850e-01
-3.239554882049560547e+00 3.352387905120849609e+00 3.071907758712768555e-01
-8.082044601440429688e+00 6.724301338195800781e+00 3.947034776210784912e-01
-3.382562637329101562e+00 3.257458686828613281e+00 9.508811682462692261e-02
-8.076928138732910156e+00 6.724817276000976562e+00 1.284038461744785309e-02
-3.240427494049072266e+00 3.389987945556640625e+00 1.382004618644714355e+00
-3.313947200775146484e+00 3.215050220489501953e+00 1.308284759521484375e+00
-3.449092388153076172e+00 3.105815172195434570e+00 1.266253352165222168e+00
-3.160316705703735352e+00 3.305024862289428711e+00 1.161351323127746582e+00
-3.250893115997314453e+00 3.156081438064575195e+00 1.102004051208496094e+00
-3.446183443069458008e+00 3.106464862823486328e+00 1.081386566162109375e+00
-3.153402805328369141e+00 3.296642303466796875e+00 9.796727895736694336e-01
-3.238743543624877930e+00 3.146483182907104492e+00 9.236159920692443848e-01
-3.401168107986450195e+00 3.070193767547607422e+00 8.922958970069885254e-01
-3.136047124862670898e+00 3.279644012451171875e+00 8.017548322677612305e-01
-3.236398220062255859e+00 3.146401166915893555e+00 7.521068453788757324e-01
-3.157699108123779297e+00 3.303441286087036133e+00 6.365620493888854980e-01
-3.233541727066040039e+00 3.145820379257202148e+00 5.843164920806884766e-01
-3.322210073471069336e+00 3.005239009857177734e+00 5.381482839584350586e-01
-3.171798706054687500e+00 3.320511579513549805e+00 4.704833030700683594e-01
-3.200509548187255859e+00 3.115859746932983398e+00 4.151540696620941162e-01
-3.308333873748779297e+00 2.994787216186523438e+00 3.723728954792022705e-01
-3.259602308273315430e+00 2.952744960784912109e+00 2.066421061754226685e-01
-3.400453329086303711e+00 3.315142393112182617e+00 9.616107493638992310e-02
-3.151835918426513672e+00 2.858129501342773438e+00 4.530004039406776428e-02
-8.028633117675781250e+00 6.768448829650878906e+00 1.282938942313194275e-02
-3.158980846405029297e+00 3.345642089843750000e+00 1.355998396873474121e+00
-3.296903610229492188e+00 3.238020420074462891e+00 1.309375286102294922e+00
-3.415711641311645508e+00 3.113920927047729492e+00 1.260989427566528320e+00
-3.161940574645996094e+00 3.347606182098388672e+00 1.169474363327026367e+00
-3.234238862991333008e+00 3.178693771362304688e+00 1.102949380874633789e+00
-3.421302318572998047e+00 3.122299432754516602e+00 1.079570531845092773e+00
-3.141844987869262695e+00 3.325167655944824219e+00 9.824022650718688965e-01
-3.217979431152343750e+00 3.164922475814819336e+00 9.232152104377746582e-01
-3.375020027160644531e+00 3.084383249282836914e+00 8.903843164443969727e-01
-3.140883445739746094e+00 3.325312614440917969e+00 8.081926107406616211e-01
-3.224061727523803711e+00 3.173119306564331055e+00 7.537505030632019043e-01
-3.315362453460693359e+00 3.030925273895263672e+00 7.050362229347229004e-01
-3.150289535522460938e+00 3.336437225341796875e+00 6.391833424568176270e-01
-3.265757799148559570e+00 3.216401815414428711e+00 5.936933159828186035e-01
-3.289063692092895508e+00 3.012156009674072266e+00 5.357628464698791504e-01
-3.313945531845092773e+00 3.266140699386596680e+00 4.324598908424377441e-01
-3.270794391632080078e+00 2.997524738311767578e+00 3.702108263969421387e-01
-3.353785991668701172e+00 3.307715177536010742e+00 2.658323347568511963e-01
-3.234061241149902344e+00 2.965938329696655273e+00 2.061727643013000488e-01
-3.384317636489868164e+00 3.340158700942993164e+00 9.628254175186157227e-02
-3.156337499618530273e+00 2.897702455520629883e+00 4.561943188309669495e-02
-3.287889719009399414e+00 3.269042730331420898e+00 1.313737034797668457e+00
-3.386615514755249023e+00 3.125660419464111328e+00 1.257304549217224121e+00
-3.151258230209350586e+00 3.377574443817138672e+00 1.173166632652282715e+00
-3.236027002334594727e+00 3.219724416732788086e+00 1.110275626182556152e+00
-3.414240598678588867e+00 3.154468774795532227e+00 1.083429455757141113e+00
-3.148066997528076172e+00 3.372973680496215820e+00 9.908006787300109863e-01
-3.199887514114379883e+00 3.185990571975708008e+00 9.236159920692443848e-01
-3.394217252731323242e+00 3.140364170074462891e+00 9.005154371261596680e-01
-3.124451160430908203e+00 3.348842144012451172e+00 8.092364668846130371e-01
-3.208723306655883789e+00 3.197019100189208984e+00 7.547365427017211914e-01
-3.280026912689208984e+00 3.035776853561401367e+00 7.014699578285217285e-01
-3.067608833312988281e+00 3.289068222045898438e+00 6.264907717704772949e-01
-3.241044998168945312e+00 3.231477975845336914e+00 5.927941799163818359e-01
-3.263967037200927734e+00 3.026205301284790039e+00 5.346894264221191406e-01
-3.282564401626586914e+00 3.275160789489746094e+00 4.309791624546051025e-01
-3.218005180358886719e+00 2.985681056976318359e+00 3.663024902343750000e-01
-3.324242115020751953e+00 3.319060802459716797e+00 2.650998532772064209e-01
-3.219461917877197266e+00 2.989124774932861328e+00 2.064074277877807617e-01
-3.337590456008911133e+00 3.334715604782104492e+00 9.553350508213043213e-02
-3.155344009399414062e+00 2.932672023773193359e+00 4.586429148912429810e-02
-3.273194074630737305e+00 3.294615507125854492e+00 1.315917968750000000e+00
-3.360323905944824219e+00 3.139794826507568359e+00 1.254672527313232422e+00
-3.145581722259521484e+00 3.413239240646362305e+00 1.178828120231628418e+00
-3.214840888977050781e+00 3.238140344619750977e+00 1.109802961349487305e+00
-3.380595684051513672e+00 3.162053346633911133e+00 1.078889608383178711e+00
-3.129299640655517578e+00 3.394382715225219727e+00 9.914304614067077637e-01
-3.160268068313598633e+00 3.185395240783691406e+00 9.178045988082885742e-01
-3.330468416213989258e+00 3.119528770446777344e+00 8.886640071868896484e-01
-3.100507736206054688e+00 3.364329814910888672e+00 8.083665966987609863e-01
-3.194602489471435547e+00 3.222251415252685547e+00 7.560514807701110840e-01
-3.264221668243408203e+00 3.058547496795654297e+00 7.020902037620544434e-01
-3.052738428115844727e+00 3.313656091690063477e+00 6.275944113731384277e-01
-3.221155881881713867e+00 3.251303911209106445e+00 5.927941799163818359e-01
-3.243165016174316406e+00 3.044137001037597656e+00 5.343316197395324707e-01
-3.243492126464843750e+00 3.276135683059692383e+00 4.284804463386535645e-01
-3.202530384063720703e+00 3.008099555969238281e+00 3.666351437568664551e-01
-3.292578935623168945e+00 3.328039169311523438e+00 2.641983330249786377e-01
-3.211250305175781250e+00 3.018400430679321289e+00 2.070644795894622803e-01
-3.317066192626953125e+00 3.355131864547729492e+00 9.553350508213043213e-02
-3.141659736633300781e+00 2.956089019775390625e+00 4.592817276716232300e-02
-3.251569271087646484e+00 3.313264131546020508e+00 1.315372824668884277e+00
-3.329080343246459961e+00 3.149083614349365234e+00 1.250198125839233398e+00
-3.140238046646118164e+00 3.449677705764770508e+00 1.184735894203186035e+00
-3.201034784317016602e+00 3.264049053192138672e+00 1.111930012702941895e+00
-3.317993402481079102e+00 3.141889572143554688e+00 1.065043210983276367e+00
-3.484906673431396484e+00 3.065710067749023438e+00 1.037489295005798340e+00
-3.118945837020874023e+00 3.425086498260498047e+00 9.947898983955383301e-01
-3.155063867568969727e+00 3.219420433044433594e+00 9.220128655433654785e-01
-3.294883012771606445e+00 3.124371528625488281e+00 8.842675685882568359e-01
-3.049313068389892578e+00 3.349792957305908203e+00 8.003629446029663086e-01
-3.179602146148681641e+00 3.246725559234619141e+00 7.572020292282104492e-01
-3.249693870544433594e+00 3.082598209381103516e+00 7.030205130577087402e-01
-3.033681631088256836e+00 3.333790063858032227e+00 6.278703212738037109e-01
-3.192821979522705078e+00 3.262501955032348633e+00 5.912527441978454590e-01
-3.233062505722045898e+00 3.072186470031738281e+00 5.357628464698791504e-01
-3.212190389633178711e+00 3.284585714340209961e+00 4.269997775554656982e-01
-3.191956281661987305e+00 3.035246849060058594e+00 3.675498366355895996e-01
-3.264420747756958008e+00 3.340325117111206055e+00 2.635785639286041260e-01
-3.173131227493286133e+00 3.019455671310424805e+00 2.057973146438598633e-01
-3.119842052459716797e+00 2.971861600875854492e+00 4.587493836879730225e-02
-3.233856678009033203e+00 3.335916042327880859e+00 1.316463232040405273e+00
-3.313179254531860352e+00 3.172787666320800781e+00 1.251514077186584473e+00
-3.480875492095947266e+00 3.094814300537109375e+00 1.224537372589111328e+00
-3.133917093276977539e+00 3.485457897186279297e+00 1.190397381782531738e+00
-3.185003280639648438e+00 3.287816286087036133e+00 1.113348007202148438e+00
-3.281076669692993164e+00 3.145340442657470703e+00 1.059368371963500977e+00
-3.458014011383056641e+00 3.079895496368408203e+00 1.035089731216430664e+00
-3.101794242858886719e+00 3.448521137237548828e+00 9.960496425628662109e-01
-3.138657569885253906e+00 3.242238759994506836e+00 9.230148196220397949e-01
-3.252990961074829102e+00 3.122777462005615234e+00 8.781507015228271484e-01
-3.034627199172973633e+00 3.375030517578125000e+00 8.019288182258605957e-01
-3.165793180465698242e+00 3.272554636001586914e+00 7.586812376976013184e-01
-3.239268541336059570e+00 3.110690832138061523e+00 7.048811316490173340e-01
-3.162404537200927734e+00 3.271336078643798828e+00 5.893260240554809570e-01
-3.222022056579589844e+00 3.099538087844848633e+00 5.370748639106750488e-01
-3.214113712310791016e+00 3.327149868011474609e+00 4.299612045288085938e-01
-3.194810390472412109e+00 3.075509071350097656e+00 3.700445294380187988e-01
-3.225140571594238281e+00 3.340897560119628906e+00 2.620572447776794434e-01
-3.403137922286987305e+00 3.281783819198608398e+00 5.033574253320693970e-02
-3.212661743164062500e+00 3.355000972747802734e+00 1.316190600395202637e+00
-3.293649196624755859e+00 3.193057060241699219e+00 1.251514077186584473e+00
-3.463258028030395508e+00 3.117408275604248047e+00 1.225045800209045410e+00
-3.041675329208374023e+00 3.424905300140380859e+00 1.163320541381835938e+00
-3.151333570480346680e+00 3.293256282806396484e+00 1.108621239662170410e+00
-3.252629995346069336e+00 3.156596183776855469e+00 1.056417465209960938e+00
-3.454271078109741211e+00 3.114779949188232422e+00 1.039670705795288086e+00
-3.083173513412475586e+00 3.470411777496337891e+00 9.968894720077514648e-01
-3.142402887344360352e+00 3.286218881607055664e+00 9.300286173820495605e-01
-3.226729631423950195e+00 3.135837793350219727e+00 8.762391209602355957e-01
-3.376301765441894531e+00 3.049819707870483398e+00 8.416156768798828125e-01
-3.153149843215942383e+00 3.299762964248657227e+00 7.604891657829284668e-01
-3.220829486846923828e+00 3.131196975708007812e+00 7.050362229347229004e-01
-3.342598915100097656e+00 3.023616075515747070e+00 6.647676825523376465e-01
-3.138847827911376953e+00 3.287092447280883789e+00 5.886837840080261230e-01
-3.227126836776733398e+00 3.142801523208618164e+00 5.411300659179687500e-01
-3.318386793136596680e+00 3.004875421524047852e+00 4.950247108936309814e-01
-3.140708684921264648e+00 3.291340589523315430e+00 4.228352606296539307e-01
-3.284345149993896484e+00 2.977181196212768555e+00 3.278649151325225830e-01
-3.403296947479248047e+00 3.319000959396362305e+00 2.233499288558959961e-01
-3.254653930664062500e+00 2.953372716903686523e+00 1.649943739175796509e-01
-3.385083913803100586e+00 3.304698944091796875e+00 5.036768317222595215e-02
-3.073054075241088867e+00 2.790539979934692383e+00 5.071402061730623245e-03
-3.197965860366821289e+00 3.380941390991210938e+00 1.318644165992736816e+00
-3.280880451202392578e+00 3.219964265823364258e+00 1.254146218299865723e+00
-3.434772014617919922e+00 3.130131006240844727e+00 1.221740365028381348e+00
-3.147753953933715820e+00 3.330184221267700195e+00 1.114529490470886230e+00
-3.231810808181762695e+00 3.175129413604736328e+00 1.055963516235351562e+00
-3.455995798110961914e+00 3.154997587203979492e+00 1.045996904373168945e+00
-3.135634660720825195e+00 3.319683074951171875e+00 9.340364933013916016e-01
-3.201830148696899414e+00 3.150070428848266602e+00 8.747099041938781738e-01
-3.353896617889404297e+00 3.067160844802856445e+00 8.407062292098999023e-01
-3.140968322753906250e+00 3.327656030654907227e+00 7.624614834785461426e-01
-3.210005044937133789e+00 3.159215927124023438e+00 7.068968415260314941e-01
-3.316687345504760742e+00 3.037387371063232422e+00 6.633085012435913086e-01
-3.124063253402709961e+00 3.312061548233032227e+00 5.897113680839538574e-01
-3.282020092010498047e+00 3.235734701156616211e+00 5.536534190177917480e-01
-3.283035993576049805e+00 3.009732007980346680e+00 4.924968481063842773e-01
-3.349076032638549805e+00 3.304151058197021484e+00 3.925798237323760986e-01
-3.248381376266479492e+00 2.981094121932983398e+00 3.260946273803710938e-01
-3.364386320114135742e+00 3.321574211120605469e+00 2.221296876668930054e-01
-3.229112148284912109e+00 2.966526508331298828e+00 1.646192073822021484e-01
-3.351941108703613281e+00 3.312754869461059570e+00 5.017605051398277283e-02
-3.053665399551391602e+00 2.807313203811645508e+00 5.067736841738224030e-03
-3.179787874221801758e+00 3.403311967849731445e+00 1.319734573364257812e+00
-3.262429952621459961e+00 3.241394519805908203e+00 1.254672527313232422e+00
-3.392044067382812500e+00 3.129505872726440430e+00 1.213349699974060059e+00
-3.132566213607788086e+00 3.355117797851562500e+00 1.116420269012451172e+00
-3.219172716140747070e+00 3.201767444610595703e+00 1.058233380317687988e+00
-3.427254915237426758e+00 3.167532682418823242e+00 1.043161034584045410e+00
-3.153970956802368164e+00 3.380408048629760742e+00 9.456593394279479980e-01
-3.185918807983398438e+00 3.173120737075805664e+00 8.756657242774963379e-01
-3.341507673263549805e+00 3.093694448471069336e+00 8.423432111740112305e-01
-3.118473052978515625e+00 3.344701528549194336e+00 7.619683742523193359e-01
-3.189860343933105469e+00 3.178155422210693359e+00 7.067418098449707031e-01
-3.287106037139892578e+00 3.047592163085937500e+00 6.611198782920837402e-01
-3.097597837448120117e+00 3.324637889862060547e+00 5.885553359985351562e-01
-3.261401414871215820e+00 3.255110502243041992e+00 5.535342097282409668e-01
-3.257221460342407227e+00 3.023057937622070312e+00 4.913977384567260742e-01
-3.297009706497192383e+00 3.292948246002197266e+00 3.888377845287322998e-01
-3.219069480895996094e+00 2.990787744522094727e+00 3.249882459640502930e-01
-3.327692031860351562e+00 3.325913906097412109e+00 2.210502475500106812e-01
-3.209385633468627930e+00 2.984923124313354492e+00 1.645441800355911255e-01
-3.356998920440673828e+00 3.358720541000366211e+00 5.055931583046913147e-02
-3.041506767272949219e+00 2.830766201019287109e+00 5.076289176940917969e-03
-3.133397340774536133e+00 3.395184278488159180e+00 1.309102535247802734e+00
-3.252002477645874023e+00 3.270929574966430664e+00 1.258357286453247070e+00
-3.359349012374877930e+00 3.137717247009277344e+00 1.208518624305725098e+00
-3.163961648941040039e+00 3.430704116821289062e+00 1.135090231895446777e+00
-3.185054540634155273e+00 3.206948518753051758e+00 1.053466558456420898e+00
-3.350032567977905273e+00 3.134493827819824219e+00 1.025491476058959961e+00
-3.133833885192871094e+00 3.400417327880859375e+00 9.458597302436828613e-01
-3.162932872772216797e+00 3.189124584197998047e+00 8.747099041938781738e-01
-3.317440032958984375e+00 3.109432220458984375e+00 8.410699963569641113e-01
-3.081185817718505859e+00 3.345633506774902344e+00 7.578594088554382324e-01
-3.179341554641723633e+00 3.206788539886474609e+00 7.087575197219848633e-01
-3.259688377380371094e+00 3.059579372406005859e+00 6.593689322471618652e-01
-3.206445932388305664e+00 3.239776611328125000e+00 5.475706458091735840e-01
-3.240783929824829102e+00 3.045028686523437500e+00 4.917274415493011475e-01
-3.250814676284790039e+00 3.286900758743286133e+00 3.857610523700714111e-01
-3.211554050445556641e+00 3.020732164382934570e+00 3.260946273803710938e-01
-3.304413557052612305e+00 3.343427896499633789e+00 2.208625227212905884e-01
-3.187372207641601562e+00 3.001134157180786133e+00 1.643566042184829712e-01
-3.292770147323608398e+00 3.335138082504272461e+00 4.989924654364585876e-02
-3.101228713989257812e+00 2.922066926956176758e+00 5.205792374908924103e-03
-3.234575271606445312e+00 3.293575286865234375e+00 1.259410142898559570e+00
-3.328789234161376953e+00 3.147638797760009766e+00 1.204450368881225586e+00
-3.157247304916381836e+00 3.465856075286865234e+00 1.140289425849914551e+00
-3.183049917221069336e+00 3.244506597518920898e+00 1.059368371963500977e+00
-3.315149307250976562e+00 3.140225410461425781e+00 1.020692348480224609e+00
-3.108293533325195312e+00 3.414510726928710938e+00 9.444569945335388184e-01
-3.141244649887084961e+00 3.206368684768676758e+00 8.741365075111389160e-01
-3.282606124877929688e+00 3.114838600158691406e+00 8.370683789253234863e-01
-3.042014360427856445e+00 3.344045877456665039e+00 7.532573938369750977e-01
-3.173429727554321289e+00 3.240352153778076172e+00 7.118586301803588867e-01
-3.245873928070068359e+00 3.084293127059936523e+00 6.603903174400329590e-01
-3.189283132553100586e+00 3.262229919433593750e+00 5.480477213859558105e-01
-3.224919795989990234e+00 3.067596673965454102e+00 4.921670854091644287e-01
-3.225014209747314453e+00 3.301082611083984375e+00 3.850957751274108887e-01
-3.198014259338378906e+00 3.045195102691650391e+00 3.266109526157379150e-01
-3.280347347259521484e+00 3.360066652297973633e+00 2.206278592348098755e-01
-3.153707742691040039e+00 3.006155967712402344e+00 1.635687798261642456e-01
-3.301043272018432617e+00 3.148797988891601562e+00 5.573533475399017334e-03
-3.201542139053344727e+00 3.300203561782836914e+00 1.254409313201904297e+00
-3.306618690490722656e+00 3.165329694747924805e+00 1.203433275222778320e+00
-3.112524032592773438e+00 3.459159851074218750e+00 1.131781578063964844e+00
-3.175959587097167969e+00 3.277264595031738281e+00 1.063681244850158691e+00
-3.283139944076538086e+00 3.148349285125732422e+00 1.016765713691711426e+00
-3.084663629531860352e+00 3.430604457855224609e+00 9.436553716659545898e-01
-3.128337383270263672e+00 3.232635974884033203e+00 8.760479688644409180e-01
-3.239321470260620117e+00 3.111760616302490234e+00 8.308840394020080566e-01
-3.006275177001953125e+00 3.345772981643676758e+00 7.494771480560302734e-01
-3.163791179656982422e+00 3.270413875579833984e+00 7.141845226287841797e-01
-3.245424985885620117e+00 3.121983289718627930e+00 6.641839742660522461e-01
-3.178862333297729492e+00 3.291736364364624023e+00 5.497175455093383789e-01
-3.213912248611450195e+00 3.094910621643066406e+00 4.933761060237884521e-01
-3.226150751113891602e+00 3.343038558959960938e+00 3.876736164093017578e-01
-3.395317316055297852e+00 3.278748273849487305e+00 5.766566842794418335e-03
-3.193914413452148438e+00 3.333020448684692383e+00 1.259410142898559570e+00
-3.276716709136962891e+00 3.175463438034057617e+00 1.199619412422180176e+00
-3.040892601013183594e+00 3.421542644500732422e+00 1.113348007202148438e+00
-3.159157752990722656e+00 3.300207376480102539e+00 1.064816117286682129e+00
-3.258158445358276367e+00 3.162996768951416016e+00 1.015020608901977539e+00
-3.073965311050415039e+00 3.461187601089477539e+00 9.468617439270019531e-01
-3.126756191253662109e+00 3.270927667617797852e+00 8.812090754508972168e-01
-3.218052148818969727e+00 3.129521369934082031e+00 8.303383588790893555e-01
-3.144347190856933594e+00 3.290479183197021484e+00 7.143395543098449707e-01
-3.234712839126586914e+00 3.150120735168457031e+00 6.659349203109741211e-01
-3.163401842117309570e+00 3.316208362579345703e+00 5.505524277687072754e-01
-3.251086711883544922e+00 3.169384717941284180e+00 5.020588040351867676e-01
-3.401075601577758789e+00 3.322557687759399414e+00 1.785000562667846680e-01
-3.373705387115478516e+00 3.298121690750122070e+00 5.764123518019914627e-03
-3.172740221023559570e+00 3.351854562759399414e+00 1.259146928787231445e+00
-3.259241819381713867e+00 3.197540998458862305e+00 1.200382113456726074e+00
-3.143532752990722656e+00 3.324483394622802734e+00 1.066405057907104492e+00
-3.240081310272216797e+00 3.184297084808349609e+00 1.015456795692443848e+00
-3.136278629302978516e+00 3.321453332901000977e+00 8.896197676658630371e-01
-3.205095767974853516e+00 3.155416965484619141e+00 8.319754004478454590e-01
-3.136982202529907227e+00 3.323360204696655273e+00 7.172855734825134277e-01
-3.215323209762573242e+00 3.169909238815307617e+00 6.659349203109741211e-01
-3.146399021148681641e+00 3.339169502258300781e+00 5.511487722396850586e-01
-3.307981729507446289e+00 3.264676332473754883e+00 5.139288306236267090e-01
-3.355672836303710938e+00 3.315213203430175781e+00 3.488866090774536133e-01
-3.364993095397949219e+00 3.327904701232910156e+00 1.776747107505798340e-01
-3.340610980987548828e+00 3.306098699569702148e+00 5.742132198065519333e-03
-3.163314580917358398e+00 3.383238554000854492e+00 1.263621330261230469e+00
-3.245736360549926758e+00 3.223612785339355469e+00 1.202670454978942871e+00
-3.150995016098022461e+00 3.373601675033569336e+00 1.075938701629638672e+00
-3.208028793334960938e+00 3.191728115081787109e+00 1.011530280113220215e+00
-3.151992321014404297e+00 3.379395723342895508e+00 8.999419212341308594e-01
-3.182191848754882812e+00 3.171552896499633789e+00 8.310659527778625488e-01
-3.111815452575683594e+00 3.337487936019897461e+00 7.162002325057983398e-01
-3.198613405227661133e+00 3.192373991012573242e+00 6.665185689926147461e-01
-3.280153512954711914e+00 3.277184963226318359e+00 5.127198696136474609e-01
-3.302126646041870117e+00 3.302595138549804688e+00 3.454198539257049561e-01
-3.345216274261474609e+00 3.349196195602416992e+00 1.777122169733047485e-01
-3.309665679931640625e+00 3.315917491912841797e+00 5.723806563764810562e-03
-3.154278039932250977e+00 3.415341854095458984e+00 1.268358945846557617e+00
-3.227259874343872070e+00 3.244839191436767578e+00 1.203179121017456055e+00
-3.159292936325073242e+00 3.424367427825927734e+00 1.085926294326782227e+00
-3.194572925567626953e+00 3.217585086822509766e+00 1.013493537902832031e+00
-3.135187864303588867e+00 3.403003692626953125e+00 9.010888338088989258e-01
-3.170285940170288086e+00 3.198701381683349609e+00 8.330667614936828613e-01
-3.082578182220458984e+00 3.347072124481201172e+00 7.141845226287841797e-01
-3.181052923202514648e+00 3.214049577713012695e+00 6.669563055038452148e-01
-3.236223220825195312e+00 3.273218154907226562e+00 5.089829564094543457e-01
-3.270587682723999023e+00 3.311441659927368164e+00 3.442397117614746094e-01
-3.321795940399169922e+00 3.366813898086547852e+00 1.775621622800827026e-01
-3.128711223602294922e+00 3.429642677307128906e+00 1.266516566276550293e+00
-3.206611394882202148e+00 3.263890266418457031e+00 1.202924847602844238e+00
-3.132973909378051758e+00 3.437929153442382812e+00 1.084110379219055176e+00
-3.187753438949584961e+00 3.250364542007446289e+00 1.017638325691223145e+00
-3.109623908996582031e+00 3.417095184326171875e+00 8.997508287429809570e-01
-3.159542083740234375e+00 3.227227926254272461e+00 8.354313969612121582e-01
-3.699232339859008789e+00 4.719025135040283203e+00 1.059436917304992676e+00
-3.042039394378662109e+00 3.344000339508056641e+00 7.095327973365783691e-01
-3.166113138198852539e+00 3.238459348678588867e+00 6.679776906967163086e-01
-3.201494455337524414e+00 3.278080940246582031e+00 5.066749453544616699e-01
-3.241153955459594727e+00 3.322167634963989258e+00 3.432808220386505127e-01
-3.298982381820678711e+00 3.384985446929931641e+00 1.774496138095855713e-01
-3.650092601776123047e+00 4.666394710540771484e+00 1.758318245410919189e-01
-3.046902894973754883e+00 3.381405591964721680e+00 1.241775751113891602e+00
-3.193933010101318359e+00 3.291138648986816406e+00 1.205721616744995117e+00
-3.109865665435791016e+00 3.454916477203369141e+00 1.083429455757141113e+00
-3.179972171783447266e+00 3.282479524612426758e+00 1.021564841270446777e+00
-3.077443361282348633e+00 3.423700809478759766e+00 8.965011835098266602e-01
-3.145149469375610352e+00 3.252208471298217773e+00 8.368865251541137695e-01
-3.669604539871215820e+00 4.740855693817138672e+00 1.059262871742248535e+00
-3.158553123474121094e+00 3.270634651184082031e+00 6.706040501594543457e-01
