-1.074939632415771484e+01 -6.549394607543945312e+00 3.735870122909545898e-01
-1.014196109771728516e+01 -6.693265914916992188e+00 2.460508793592453003e-01
-9.450526237487792969e+00 -6.739284515380859375e+00 1.235823407769203186e-01
-5.785782814025878906e+00 -4.449723720550537109e+00 8.917408995330333710e-03
-9.180050849914550781e+00 -6.976011753082275391e+00 4.328570067882537842e-01
-1.086734771728515625e+01 -6.530164718627929688e+00 3.762866556644439697e-01
-1.031437683105468750e+01 -6.716565608978271484e+00 2.492292672395706177e-01
-9.498241424560546875e+00 -6.685774326324462891e+00 1.236675083637237549e-01
-5.799438476562500000e+00 -4.403858184814453125e+00 8.896639570593833923e-03
-9.276237487792968750e+00 -6.959734439849853516e+00 4.353705644607543945e-01
-1.099062252044677734e+01 -6.512788295745849609e+00 3.791642785072326660e-01
-1.040165805816650391e+01 -6.682874202728271484e+00 2.503426969051361084e-01
-9.505416870117187500e+00 -6.603976726531982422e+00 1.232310160994529724e-01
-5.852754116058349609e+00 -4.387986183166503906e+00 8.936956524848937988e-03
-1.019282627105712891e+01 -6.997071743011474609e+00 5.808787941932678223e-01
-9.357311248779296875e+00 -6.931236267089843750e+00 4.371713399887084961e-01
-1.108992671966552734e+01 -6.480024337768554688e+00 3.812112510204315186e-01
-1.047708988189697266e+01 -6.640870571136474609e+00 2.511727213859558105e-01
-9.535037994384765625e+00 -6.538176536560058594e+00 1.230926066637039185e-01
-5.962356090545654297e+00 -4.413270473480224609e+00 9.062794968485832214e-03
-1.023556804656982422e+01 -6.934398174285888672e+00 5.808787941932678223e-01
-9.426282882690429688e+00 -6.893155574798583984e+00 4.384093582630157471e-01
-1.121175861358642578e+01 -6.459258556365966797e+00 3.840295374393463135e-01
-1.056680774688720703e+01 -6.607202529907226562e+00 2.523469030857086182e-01
-9.663587570190429688e+00 -6.539512634277343750e+00 1.242317631840705872e-01
-5.905353069305419922e+00 -4.315243244171142578e+00 8.935734629631042480e-03
-1.043570041656494141e+01 -6.976947307586669922e+00 5.897958278656005859e-01
-9.514584541320800781e+00 -6.868526935577392578e+00 4.405477643013000488e-01
-1.131115341186523438e+01 -6.424405097961425781e+00 3.860765397548675537e-01
-1.067012119293212891e+01 -6.581080436706542969e+00 2.538450062274932861e-01
-9.686899185180664062e+00 -6.468987941741943359e+00 1.240188330411911011e-01
-5.690039157867431641e+00 -4.104587554931640625e+00 8.571659214794635773e-03
-1.048581790924072266e+01 -6.917734146118164062e+00 5.902182459831237793e-01
-9.606192588806152344e+00 -6.845392227172851562e+00 4.428362250328063965e-01
-1.146286869049072266e+01 -6.417872428894042969e+00 3.899034559726715088e-01
-1.077948760986328125e+01 -6.557575225830078125e+00 2.554847896099090576e-01
-9.752293586730957031e+00 -6.426485061645507812e+00 1.243488714098930359e-01
-6.215271949768066406e+00 -4.425745010375976562e+00 9.321802295744419098e-03
-1.054732227325439453e+01 -6.865798473358154297e+00 5.912976861000061035e-01
-9.728932380676269531e+00 -6.843237876892089844e+00 4.465502798557281494e-01
-1.160967540740966797e+01 -6.406819820404052734e+00 3.935524225234985352e-01
-1.090268230438232422e+01 -6.541203498840332031e+00 2.574485242366790771e-01
-9.847709655761718750e+00 -6.403045654296875000e+00 1.250621825456619263e-01
-6.115500926971435547e+00 -4.298394680023193359e+00 9.132433682680130005e-03
-1.067498016357421875e+01 -6.856011390686035156e+00 5.960847735404968262e-01
-9.798646926879882812e+00 -6.802789211273193359e+00 4.478257894515991211e-01
-1.174799251556396484e+01 -6.389429092407226562e+00 3.969047069549560547e-01
-1.101489257812500000e+01 -6.516946792602539062e+00 2.591490447521209717e-01
-9.912061691284179688e+00 -6.358698368072509766e+00 1.253815591335296631e-01
-6.068634033203125000e+00 -4.210059165954589844e+00 9.023698978126049042e-03
-1.081894397735595703e+01 -6.855072498321533203e+00 6.017635464668273926e-01
-9.903678894042968750e+00 -6.786031246185302734e+00 4.507145285606384277e-01
-1.180988216400146484e+01 -6.329500675201416016e+00 3.976760208606719971e-01
-1.111512279510498047e+01 -6.484504222869873047e+00 2.605661451816558838e-01
-9.887520790100097656e+00 -6.257653236389160156e+00 1.245830953121185303e-01
-6.093527317047119141e+00 -4.172178745269775391e+00 9.022478014230728149e-03
-1.097346019744873047e+01 -6.858976364135742188e+00 6.080055236816406250e-01
-9.995626449584960938e+00 -6.759282112121582031e+00 4.530029892921447754e-01
-1.191390514373779297e+01 -6.291458129882812500e+00 3.998713493347167969e-01
-1.118936824798583984e+01 -6.436120986938476562e+00 2.613759338855743408e-01
-9.966445922851562500e+00 -6.222285747528076172e+00 1.250941157341003418e-01
-6.149669647216796875e+00 -4.155426502227783203e+00 9.067681618034839630e-03
-1.105615234375000000e+01 -6.816678524017333984e+00 6.102582216262817383e-01
-1.007930374145507812e+01 -6.726111412048339844e+00 4.549162685871124268e-01
-1.205869197845458984e+01 -6.273596763610839844e+00 4.034312665462493896e-01
-1.125560951232910156e+01 -6.382631778717041016e+00 2.620035111904144287e-01
-1.005978012084960938e+01 -6.195097446441650391e+00 1.257861256599426270e-01
-6.323977947235107422e+00 -4.216921329498291016e+00 9.286371059715747833e-03
-1.119762802124023438e+01 -6.809435367584228516e+00 6.157493591308593750e-01
-1.017129516601562500e+01 -6.697663307189941406e+00 4.572047293186187744e-01
-1.217701816558837891e+01 -6.240516662597656250e+00 4.061012566089630127e-01
-1.133557796478271484e+01 -6.336376190185546875e+00 2.629549801349639893e-01
-9.948895454406738281e+00 -6.042930603027343750e+00 1.239336729049682617e-01
-6.169291019439697266e+00 -4.059309959411621094e+00 9.022478014230728149e-03
-1.137197875976562500e+01 -6.820233345031738281e+00 6.230238080024719238e-01
-1.028929233551025391e+01 -6.685215950012207031e+00 4.606561958789825439e-01
-1.236320686340332031e+01 -6.240450859069824219e+00 4.110258221626281738e-01
-1.134184360504150391e+01 -6.248852252960205078e+00 2.622059583663940430e-01
-9.991791725158691406e+00 -5.985368728637695312e+00 1.240081936120986938e-01
-6.274601459503173828e+00 -4.073654651641845703e+00 9.139764122664928436e-03
-1.142908859252929688e+01 -6.759480476379394531e+00 6.238685846328735352e-01
-1.038059520721435547e+01 -6.654314041137695312e+00 4.629071652889251709e-01
-1.244333267211914062e+01 -6.185385704040527344e+00 4.124201238155364990e-01
-1.156096935272216797e+01 -6.277420997619628906e+00 2.663763165473937988e-01
-9.797595024108886719e+00 -5.787647724151611328e+00 1.211549788713455200e-01
-6.323898315429687500e+00 -4.050719738006591797e+00 9.175193496048450470e-03
-1.161703968048095703e+01 -6.774772167205810547e+00 6.318470239639282227e-01
-1.050991058349609375e+01 -6.646576881408691406e+00 4.668462872505187988e-01
-1.253222560882568359e+01 -6.133965492248535156e+00 4.141111075878143311e-01
-1.175177478790283203e+01 -6.287966251373291016e+00 2.698785960674285889e-01
-1.019150543212890625e+01 -5.936286926269531250e+00 1.255732029676437378e-01
-6.245500564575195312e+00 -3.946668386459350586e+00 9.026142768561840057e-03
-1.166618442535400391e+01 -6.707845687866210938e+00 6.322694420814514160e-01
-1.055812644958496094e+01 -6.586724758148193359e+00 4.671839475631713867e-01
-1.261645126342773438e+01 -6.079517364501953125e+00 4.156537652015686035e-01
-1.187769317626953125e+01 -6.261900424957275391e+00 2.718827724456787109e-01
-1.015836715698242188e+01 -5.833802700042724609e+00 1.247214898467063904e-01
-6.215287685394287109e+00 -3.874416112899780273e+00 8.947952650487422943e-03
-1.174970436096191406e+01 -6.660273551940917969e+00 6.345691084861755371e-01
-1.065706539154052734e+01 -6.557953357696533203e+00 4.697725176811218262e-01
-1.271221923828125000e+01 -6.029833793640136719e+00 4.175820648670196533e-01
-1.196114253997802734e+01 -6.212404727935791016e+00 2.729152739048004150e-01
-1.015829467773437500e+01 -5.751163959503173828e+00 1.242849975824356079e-01
-6.062610626220703125e+00 -3.727783203125000000e+00 8.695053867995738983e-03
-1.180691719055175781e+01 -6.597311019897460938e+00 6.354607939720153809e-01
-1.080730438232421875e+01 -6.559323787689208984e+00 4.746120870113372803e-01
-1.280332183837890625e+01 -5.977089405059814453e+00 4.193620383739471436e-01
-1.206045055389404297e+01 -6.170316219329833984e+00 2.743121087551116943e-01
-1.018553447723388672e+01 -5.684340000152587891e+00 1.241891831159591675e-01
-6.146078109741210938e+00 -3.727330684661865234e+00 8.781796321272850037e-03
-1.189004898071289062e+01 -6.548353195190429688e+00 6.377604603767395020e-01
-1.089193534851074219e+01 -6.519576072692871094e+00 4.765629172325134277e-01
-1.300325012207031250e+01 -5.973524570465087891e+00 4.247019886970520020e-01
-1.210344123840332031e+01 -6.098897933959960938e+00 2.744335830211639404e-01
-1.000118446350097656e+01 -5.501252651214599609e+00 1.215276047587394714e-01
-6.345624923706054688e+00 -3.795287370681762695e+00 9.033473208546638489e-03
-1.203096580505371094e+01 -6.530072212219238281e+00 6.431576609611511230e-01
-1.101865005493164062e+01 -6.503925800323486328e+00 4.803519845008850098e-01
-1.310068416595458984e+01 -5.921208381652832031e+00 4.266895949840545654e-01
-1.231527519226074219e+01 -6.111179351806640625e+00 2.783812582492828369e-01
-9.972336769104003906e+00 -5.405948162078857422e+00 1.207717210054397583e-01
-6.375683784484863281e+00 -3.760343790054321289e+00 9.043247438967227936e-03
-1.206023693084716797e+01 -6.450475692749023438e+00 6.425944566726684570e-01
-1.108685111999511719e+01 -6.452782154083251953e+00 4.815900027751922607e-01
-1.325916004180908203e+01 -5.895128250122070312e+00 4.306648969650268555e-01
-1.241093063354492188e+01 -6.064028739929199219e+00 2.796971499919891357e-01
-1.040309715270996094e+01 -5.557143211364746094e+00 1.255732029676437378e-01
-6.352820873260498047e+00 -3.694508314132690430e+00 8.978495374321937561e-03
-1.221446990966796875e+01 -6.436894893646240234e+00 6.486956477165222168e-01
-1.125971221923828125e+01 -6.461226463317871094e+00 4.873674213886260986e-01
-1.338025379180908203e+01 -5.850903987884521484e+00 4.334238469600677490e-01
-1.254340934753417969e+01 -6.033701896667480469e+00 2.818430662155151367e-01
-1.023171043395996094e+01 -5.385158538818359375e+00 1.231032609939575195e-01
-6.374503135681152344e+00 -3.654961347579956055e+00 8.977274410426616669e-03
-1.232554626464843750e+01 -6.399108886718750000e+00 6.524971723556518555e-01
-1.135741996765136719e+01 -6.424983024597167969e+00 4.898809790611267090e-01
-1.356007099151611328e+01 -5.830685138702392578e+00 4.380814731121063232e-01
-1.271935176849365234e+01 -6.022513389587402344e+00 2.849606871604919434e-01
-1.046962070465087891e+01 -5.428602218627929688e+00 1.255625486373901367e-01
-6.435984134674072266e+00 -3.637922525405883789e+00 9.032251313328742981e-03
-1.241882801055908203e+01 -6.351104259490966797e+00 6.553600430488586426e-01
-1.144375896453857422e+01 -6.381455421447753906e+00 4.919068217277526855e-01
-1.365451431274414062e+01 -5.772281169891357422e+00 4.399800896644592285e-01
-1.287296962738037109e+01 -5.998833179473876953e+00 2.875722348690032959e-01
-9.651400566101074219e+00 -4.929442405700683594e+00 1.153846830129623413e-01
-6.438093185424804688e+00 -3.587168931961059570e+00 9.004151448607444763e-03
-1.267702579498291016e+01 -6.385325431823730469e+00 6.669053435325622559e-01
-1.159917259216308594e+01 -6.375133991241455078e+00 4.968964457511901855e-01
-1.381244087219238281e+01 -5.739401817321777344e+00 4.439257085323333740e-01
-1.295951938629150391e+01 -5.942653179168701172e+00 2.886856794357299805e-01
-1.042200183868408203e+01 -5.242647171020507812e+00 1.242104768753051758e-01
-6.460858821868896484e+00 -3.548079490661621094e+00 9.005373343825340271e-03
-1.275086593627929688e+01 -6.324731349945068359e+00 6.687356829643249512e-01
-1.169167041778564453e+01 -6.332875251770019531e+00 4.991849064826965332e-01
-1.394548702239990234e+01 -5.694597244262695312e+00 4.470703303813934326e-01
-1.307958221435546875e+01 -5.900849342346191406e+00 2.905481457710266113e-01
-1.015201282501220703e+01 -5.029016971588134766e+00 1.206226721405982971e-01
-6.464918613433837891e+00 -3.498850107192993164e+00 8.980939164757728577e-03
-1.293394184112548828e+01 -6.316952705383300781e+00 6.762917637825012207e-01
-1.182287406921386719e+01 -6.310423851013183594e+00 5.031240582466125488e-01
-1.410169315338134766e+01 -5.657679557800292969e+00 4.509566128253936768e-01
-1.320784187316894531e+01 -5.861444473266601562e+00 2.925928533077239990e-01
-9.858235359191894531e+00 -4.808382034301757812e+00 1.167793571949005127e-01
-6.467735767364501953e+00 -3.449234485626220703e+00 8.955283090472221375e-03
-1.302107143402099609e+01 -6.260846614837646484e+00 6.788260936737060547e-01
-1.191532325744628906e+01 -6.266134262084960938e+00 5.054125189781188965e-01
-1.421332740783691406e+01 -5.601465225219726562e+00 4.534188807010650635e-01
-1.321423625946044922e+01 -5.767494201660156250e+00 2.919450104236602783e-01
-1.000383472442626953e+01 -4.803638935089111328e+00 1.181527227163314819e-01
-6.481696605682373047e+00 -3.405763149261474609e+00 8.945508860051631927e-03
-1.319828605651855469e+01 -6.246641159057617188e+00 6.860536336898803711e-01
-1.205026149749755859e+01 -6.243010520935058594e+00 5.095017552375793457e-01
-1.439844322204589844e+01 -5.572594642639160156e+00 4.582248330116271973e-01
-1.336881446838378906e+01 -5.737564563751220703e+00 2.945767939090728760e-01
-1.018590450286865234e+01 -4.814379215240478516e+00 1.199519485235214233e-01
-6.459844112396240234e+00 -3.343862295150756836e+00 8.886865340173244476e-03
-1.343104553222656250e+01 -6.256222724914550781e+00 6.961440443992614746e-01
-1.215064811706542969e+01 -6.200750827789306641e+00 5.121278762817382812e-01
-1.453794956207275391e+01 -5.524263858795166016e+00 4.615771174430847168e-01
-1.334941959381103516e+01 -5.632495880126953125e+00 2.933823764324188232e-01
-1.008378982543945312e+01 -4.690636634826660156e+00 1.184082403779029846e-01
-6.244157791137695312e+00 -3.183788299560546875e+00 8.563106879591941833e-03
-1.359085941314697266e+01 -6.229465961456298828e+00 7.024329304695129395e-01
-1.224114513397216797e+01 -6.152555942535400391e+00 5.143412947654724121e-01
-1.475513267517089844e+01 -5.503421783447265625e+00 4.673916995525360107e-01
-1.351209831237792969e+01 -5.603716850280761719e+00 2.961963713169097900e-01
-1.020421218872070312e+01 -4.670708656311035156e+00 1.194835156202316284e-01
-6.671972751617431641e+00 -3.350502014160156250e+00 9.121438488364219666e-03
-1.379273223876953125e+01 -6.219870567321777344e+00 7.108806967735290527e-01
-1.241569232940673828e+01 -6.145151615142822266e+00 5.200812220573425293e-01
-1.490126323699951172e+01 -5.454009532928466797e+00 4.709516465663909912e-01
-1.359900188446044922e+01 -5.542210102081298828e+00 2.973502874374389648e-01
-1.026550292968750000e+01 -4.622789859771728516e+00 1.198667809367179871e-01
-6.609041213989257812e+00 -3.268275499343872070e+00 9.007817134261131287e-03
-1.404886722564697266e+01 -6.231927394866943359e+00 7.220975160598754883e-01
-1.253221511840820312e+01 -6.107378005981445312e+00 5.233825445175170898e-01
-1.372092723846435547e+01 -5.493969917297363281e+00 2.992735207080841064e-01
-1.028910255432128906e+01 -4.557690143585205078e+00 1.198135465383529663e-01
-6.747650623321533203e+00 -3.285447359085083008e+00 9.169085882604122162e-03
-1.412071704864501953e+01 -6.160386562347412109e+00 7.238339781761169434e-01
-1.262170982360839844e+01 -6.055438041687011719e+00 5.255584716796875000e-01
-1.376275253295898438e+01 -5.412970066070556641e+00 2.994557023048400879e-01
-1.018486499786376953e+01 -4.436962604522705078e+00 1.182804778218269348e-01
-6.884008884429931641e+00 -3.299741744995117188e+00 9.326688945293426514e-03
-1.429778575897216797e+01 -6.133485794067382812e+00 7.309676408767700195e-01
-1.278603649139404297e+01 -6.038045406341552734e+00 5.308482050895690918e-01
-1.393467140197753906e+01 -5.382094860076904297e+00 3.024721443653106689e-01
-1.030473327636718750e+01 -4.414153099060058594e+00 1.193557530641555786e-01
-6.447408199310302734e+00 -3.041955947875976562e+00 8.709714747965335846e-03
-1.286724853515625000e+01 -5.980115413665771484e+00 5.326864719390869141e-01
-1.373278808593750000e+01 -5.207513809204101562e+00 2.973907887935638428e-01
-1.069471931457519531e+01 -4.503747463226318359e+00 1.235504001379013062e-01
-6.855958938598632812e+00 -3.183430194854736328e+00 9.235058911144733429e-03
-1.301638793945312500e+01 -5.952584743499755859e+00 5.373384356498718262e-01
-1.409992694854736328e+01 -5.248005867004394531e+00 3.046382963657379150e-01
-9.791760444641113281e+00 -4.052939414978027344e+00 1.128295734524726868e-01
-6.316893100738525391e+00 -2.886142015457153320e+00 8.484915830194950104e-03
-1.313468551635742188e+01 -5.909506797790527344e+00 5.407148599624633789e-01
-1.422107982635498047e+01 -5.193975925445556641e+00 3.065614998340606689e-01
-1.066396713256835938e+01 -4.337506771087646484e+00 1.225709393620491028e-01
-6.409275054931640625e+00 -2.880946636199951172e+00 8.585098199546337128e-03
-1.330776882171630859e+01 -5.889464378356933594e+00 5.463422536849975586e-01
-1.425550556182861328e+01 -5.107631206512451172e+00 3.066222369670867920e-01
-1.076745033264160156e+01 -4.302790164947509766e+00 1.234545856714248657e-01
-6.710354804992675781e+00 -2.966922998428344727e+00 8.963834494352340698e-03
-1.343711471557617188e+01 -5.848376274108886719e+00 5.501688718795776367e-01
-1.457992935180664062e+01 -5.123144149780273438e+00 3.129182755947113037e-01
-1.084670543670654297e+01 -4.257466793060302734e+00 1.240614280104637146e-01
-6.854986667633056641e+00 -2.980721950531005859e+00 9.132433682680130005e-03
-1.350949478149414062e+01 -5.781544208526611328e+00 5.516694784164428711e-01
-1.469427490234375000e+01 -5.062244415283203125e+00 3.146997690200805664e-01
-1.092114162445068359e+01 -4.209533691406250000e+00 1.246150359511375427e-01
-6.873147010803222656e+00 -2.938604593276977539e+00 9.132433682680130005e-03
-1.372617149353027344e+01 -5.774884700775146484e+00 5.590600967407226562e-01
-1.474400424957275391e+01 -4.978383541107177734e+00 3.151046633720397949e-01
-1.082238101959228516e+01 -4.095374107360839844e+00 1.231990754604339600e-01
-6.697453975677490234e+00 -2.815006494522094727e+00 8.875870145857334137e-03
-1.384445762634277344e+01 -5.724921703338623047e+00 5.624365210533142090e-01
-1.494892597198486328e+01 -4.945602893829345703e+00 3.188296258449554443e-01
-1.085011863708496094e+01 -4.029936790466308594e+00 1.232310160994529724e-01
-6.900372982025146484e+00 -2.850602865219116211e+00 9.121438488364219666e-03
-1.399134445190429688e+01 -5.685385227203369141e+00 5.669758915901184082e-01
-1.087276268005371094e+01 -3.962600946426391602e+00 1.232097223401069641e-01
-6.941824436187744141e+00 -2.817988872528076172e+00 9.153203107416629791e-03
-1.409742736816406250e+01 -5.627957820892333984e+00 5.698646306991577148e-01
-1.056261157989501953e+01 -3.776308774948120117e+00 1.194302812218666077e-01
-6.968273162841796875e+00 -2.779045820236206055e+00 9.165420196950435638e-03
-1.435497283935546875e+01 -5.628904342651367188e+00 5.788683891296386719e-01
-1.073845100402832031e+01 -3.765023708343505859e+00 1.211549788713455200e-01
-6.915360450744628906e+00 -2.708882093429565430e+00 9.073791094124317169e-03
-1.442654323577880859e+01 -5.555081367492675781e+00 5.803689956665039062e-01
-1.142897033691406250e+01 -3.928547859191894531e+00 1.286712735891342163e-01
-7.117584705352783203e+00 -2.737843036651611328e+00 9.316914714872837067e-03
-1.461926174163818359e+01 -5.526527881622314453e+00 5.867466926574707031e-01
-1.075446891784667969e+01 -3.623066663742065430e+00 1.208249479532241821e-01
-6.821787357330322266e+00 -2.576122999191284180e+00 8.908856660127639771e-03
-1.468475151062011719e+01 -5.448541164398193359e+00 5.880222320556640625e-01
-1.100723934173583984e+01 -3.633171319961547852e+00 1.234120056033134460e-01
-7.172212600708007812e+00 -2.658286333084106445e+00 9.345014579594135284e-03
-1.495359611511230469e+01 -5.444141864776611328e+00 5.974387526512145996e-01
-1.489165401458740234e+01 -4.226548671722412109e+00 3.134446144104003906e-01
-1.060116767883300781e+01 -3.427148818969726562e+00 1.186211556196212769e-01
-7.133881568908691406e+00 -2.594405651092529297e+00 9.274153970181941986e-03
-1.498571300506591797e+01 -4.154057502746582031e+00 3.148819804191589355e-01
-1.060388278961181641e+01 -3.356303691864013672e+00 1.184188798069953918e-01
-7.150607585906982422e+00 -2.550920009613037109e+00 9.275375865399837494e-03
-1.499258327484130859e+01 -4.057066917419433594e+00 3.144973218441009521e-01
-1.090127468109130859e+01 -3.376984119415283203e+00 1.215063035488128662e-01
-7.203881740570068359e+00 -2.520205259323120117e+00 9.324245154857635498e-03
-1.085097599029541016e+01 -3.288570165634155273e+00 1.207184866070747375e-01
-7.205966949462890625e+00 -2.471413850784301758e+00 9.307141415774822235e-03
-1.098503684997558594e+01 -3.255741119384765625e+00 1.219853907823562622e-01
-7.426686763763427734e+00 -2.496290206909179688e+00 9.572256356477737427e-03
-1.082040214538574219e+01 -3.134851455688476562e+00 1.199413090944290161e-01
-7.456110954284667969e+00 -2.455365657806396484e+00 9.590581990778446198e-03
-1.071531677246093750e+01 -3.033265352249145508e+00 1.185679286718368530e-01
-7.475795269012451172e+00 -2.411104440689086914e+00 9.596691466867923737e-03
-1.103442955017089844e+01 -3.050592899322509766e+00 1.218895763158798218e-01
-7.450397968292236328e+00 -2.352541923522949219e+00 9.545378386974334717e-03
-1.060885238647460938e+01 -2.862984895706176758e+00 1.169922724366188049e-01
-7.316602706909179688e+00 -2.261019229888916016e+00 9.356009773910045624e-03
-1.080414581298828125e+01 -2.844683170318603516e+00 1.189511939883232117e-01
-7.274819850921630859e+00 -2.199298620223999023e+00 9.285150095820426941e-03
-1.102188301086425781e+01 -2.829810380935668945e+00 1.211549788713455200e-01
-7.257490634918212891e+00 -2.145547628402709961e+00 9.246054105460643768e-03
-1.102642822265625000e+01 -2.758972883224487305e+00 1.210165843367576599e-01
-7.478028297424316406e+00 -2.160940647125244141e+00 9.509948082268238068e-03
-1.085856342315673828e+01 -2.646279573440551758e+00 1.189937889575958252e-01
-7.552739143371582031e+00 -2.132405281066894531e+00 9.588139131665229797e-03
-1.100886154174804688e+01 -2.611452579498291016e+00 1.204629763960838318e-01
-7.391191959381103516e+00 -2.037912130355834961e+00 9.367005899548530579e-03
-1.120785427093505859e+01 -2.586120605468750000e+00 1.224644780158996582e-01
-7.407420158386230469e+00 -1.993561744689941406e+00 9.371892549097537994e-03
-1.043416786193847656e+01 -2.340261220932006836e+00 1.138516142964363098e-01
-7.405972003936767578e+00 -1.944517850875854492e+00 9.354788810014724731e-03
-1.104920387268066406e+01 -2.407095909118652344e+00 1.203991025686264038e-01
-7.457482814788818359e+00 -1.909207582473754883e+00 9.404879063367843628e-03
-1.090429973602294922e+01 -2.305537462234497070e+00 1.186637505888938904e-01
-7.028559207916259766e+00 -1.753516077995300293e+00 8.850214071571826935e-03
-1.132476043701171875e+01 -2.321936130523681641e+00 1.230819672346115112e-01
-7.140245914459228516e+00 -1.734911799430847168e+00 8.977274410426616669e-03
-5.136085987091064453e+00 -6.393066048622131348e-01 1.536118239164352417e-01
-1.116617679595947266e+01 -2.218115091323852539e+00 1.212082132697105408e-01
-7.543911933898925781e+00 -1.784043788909912109e+00 9.470853023231029510e-03
-5.138918876647949219e+00 -6.076627373695373535e-01 1.535821408033370972e-01
-1.060709571838378906e+01 -2.039484977722167969e+00 1.150014102458953857e-01
-7.554716587066650391e+00 -1.737721681594848633e+00 9.470853023231029510e-03
-1.030088710784912109e+01 -1.915142893791198730e+00 1.115520149469375610e-01
-7.665755271911621094e+00 -1.713806629180908203e+00 9.596691466867923737e-03
-1.129467582702636719e+01 -2.028290271759033203e+00 1.221770346164703369e-01
-7.729874134063720703e+00 -1.678408503532409668e+00 9.663886390626430511e-03
-1.137587738037109375e+01 -1.970898151397705078e+00 1.229222714900970459e-01
-7.770361423492431641e+00 -1.637339115142822266e+00 9.701759554445743561e-03
-5.186280727386474609e+00 -6.742706298828125000e-01 1.058986559510231018e-01
-1.100901889801025391e+01 -1.837834000587463379e+00 1.188340857625007629e-01
-7.720496177673339844e+00 -1.577419400215148926e+00 9.627234190702438354e-03
-5.160553455352783203e+00 -6.387510895729064941e-01 1.052913144230842590e-01
-1.091346168518066406e+01 -1.753121018409729004e+00 1.176842898130416870e-01
-7.700600624084472656e+00 -1.524192571640014648e+00 9.590581990778446198e-03
-5.129622459411621094e+00 -6.029892563819885254e-01 1.045827642083168030e-01
-1.137465095520019531e+01 -1.755680203437805176e+00 1.225389987230300903e-01
-7.774629116058349609e+00 -1.489331245422363281e+00 9.671216830611228943e-03
-1.139015483856201172e+01 -1.686585903167724609e+00 1.225922331213951111e-01
-6.804277420043945312e+00 -1.260215401649475098e+00 8.454373106360435486e-03
-1.157849693298339844e+01 -1.641936898231506348e+00 1.245085746049880981e-01
-7.829726696014404297e+00 -1.400503396987915039e+00 9.717642329633235931e-03
-1.120190906524658203e+01 -1.518477201461791992e+00 1.203565075993537903e-01
-7.528745174407958984e+00 -1.299044609069824219e+00 9.334019385278224945e-03
-5.168670177459716797e+00 -6.683692932128906250e-01 5.548855662345886230e-02
-7.514872074127197266e+00 -1.249217033386230469e+00 9.307141415774822235e-03
-5.176846504211425781e+00 -6.399077177047729492e-01 2.450794875621795654e-01
-5.133968353271484375e+00 -6.318785548210144043e-01 5.507335066795349121e-02
-7.721860408782958984e+00 -1.234984278678894043e+00 9.553929790854454041e-03
-5.172739028930664062e+00 -6.071995496749877930e-01 2.447040379047393799e-01
-5.100007534027099609e+00 -5.959550142288208008e-01 5.466879159212112427e-02
-7.882494926452636719e+00 -1.211119532585144043e+00 9.743298403918743134e-03
-5.102574348449707031e+00 -5.645407438278198242e-01 5.465814471244812012e-02
-7.460415363311767578e+00 -1.099454760551452637e+00 9.213067591190338135e-03
-1.180413436889648438e+01 -1.232723832130432129e+00 1.263610273599624634e-01
-7.437315464019775391e+00 -1.049466133117675781e+00 9.176415391266345978e-03
-1.149203205108642578e+01 -1.128891944885253906e+00 1.229435577988624573e-01
-5.250469207763671875e+00 -7.080542445182800293e-01 6.472726818174123764e-03
-5.168522834777832031e+00 -6.665733456611633301e-01 1.956447660923004150e-01
-1.143700790405273438e+01 -1.052674770355224609e+00 1.222834959626197815e-01
-5.139662265777587891e+00 -6.610274314880371094e-01 6.331006065011024475e-03
-5.178466796875000000e+00 -6.355777382850646973e-01 1.958698630332946777e-01
-1.117027091979980469e+01 -9.590415954589843750e-01 1.193664073944091797e-01
-5.119799613952636719e+00 -6.265632510185241699e-01 6.301684770733118057e-03
-5.146536350250244141e+00 -5.996280312538146973e-01 1.945192962884902954e-01
-1.175707054138183594e+01 -9.367873072624206543e-01 1.255732029676437378e-01
-5.121560573577880859e+00 -5.949061512947082520e-01 6.299240980297327042e-03
-1.175661373138427734e+01 -8.641898036003112793e-01 1.255093216896057129e-01
-5.117162704467773438e+00 -5.625953674316406250e-01 6.289467215538024902e-03
-1.147635650634765625e+01 -7.728215456008911133e-01 1.224644780158996582e-01
-7.760350704193115234e+00 -8.050343990325927734e-01 9.531939402222633362e-03
-1.082913875579833984e+01 -6.625163555145263672e-01 1.155124381184577942e-01
-7.705427646636962891e+00 -7.515779137611389160e-01 9.458635933697223663e-03
-1.156884574890136719e+01 -6.365454792976379395e-01 1.233587712049484253e-01
-8.018608093261718750e+00 -7.324845790863037109e-01 9.837371297180652618e-03
-1.147265815734863281e+01 -5.606675148010253906e-01 1.222941353917121887e-01
-8.007009506225585938e+00 -6.819118261337280273e-01 9.817823767662048340e-03
-1.087546348571777344e+01 -4.646115303039550781e-01 1.158957108855247498e-01
-8.151604652404785156e+00 -6.438714861869812012e-01 9.990087710320949554e-03
-1.148067283630371094e+01 -4.199112355709075928e-01 1.223154291510581970e-01
-7.817297458648681641e+00 -5.692227482795715332e-01 9.575921110808849335e-03
-1.134810256958007812e+01 -3.453529477119445801e-01 1.208781749010086060e-01
-7.900465965270996094e+00 -5.265661478042602539e-01 9.673659689724445343e-03
-1.158392620086669922e+01 -2.813981771469116211e-01 1.233694106340408325e-01
-7.974418640136718750e+00 -4.823668301105499268e-01 9.760403074324131012e-03
-1.158043575286865234e+01 -2.102244943380355835e-01 1.233161762356758118e-01
-7.949269771575927734e+00 -4.319085478782653809e-01 9.726194664835929871e-03
-1.158150768280029297e+01 -1.391643136739730835e-01 1.233161762356758118e-01
-8.017693519592285156e+00 -3.863008916378021240e-01 9.806828573346138000e-03
-1.162814044952392578e+01 -6.836934387683868408e-02 1.238059177994728088e-01
-8.106836318969726562e+00 -3.407515585422515869e-01 9.913118556141853333e-03
-1.195232295989990234e+01 3.063921118155121803e-03 1.272553205490112305e-01
-8.131759643554687500e+00 -2.918274104595184326e-01 9.941218420863151550e-03
-1.167110061645507812e+01 7.460582256317138672e-02 1.242637112736701965e-01
-8.242348670959472656e+00 -2.451671361923217773e-01 1.007438730448484421e-02
-1.165642547607421875e+01 1.460415720939636230e-01 1.241146624088287354e-01
-8.256694793701171875e+00 -1.948952078819274902e-01 1.009027007967233658e-02
-1.499937725067138672e+01 8.226757645606994629e-01 3.041726648807525635e-01
-1.146735286712646484e+01 2.140528410673141479e-01 1.221131458878517151e-01
-8.217741012573242188e+00 -1.435308754444122314e-01 1.004140172153711319e-02
-1.173272609710693359e+01 2.910317182540893555e-01 1.249557137489318848e-01
-8.207467079162597656e+00 -9.298044443130493164e-02 1.002796180546283722e-02
-1.497219181060791016e+01 1.005607247352600098e+00 3.038487732410430908e-01
-1.178169250488281250e+01 3.645942807197570801e-01 1.254986673593521118e-01
-8.236883163452148438e+00 -4.276920109987258911e-02 1.006339211016893387e-02
-1.490990161895751953e+01 1.093361258506774902e+00 3.027150630950927734e-01
-1.183918857574462891e+01 4.391022026538848877e-01 1.261374503374099731e-01
-8.247990608215332031e+00 7.782547269016504288e-03 1.007683109492063522e-02
-1.489693164825439453e+01 1.184350728988647461e+00 3.025935888290405273e-01
-1.184526252746582031e+01 5.121265649795532227e-01 1.262332648038864136e-01
-8.108791351318359375e+00 5.740707740187644958e-02 9.907010011374950409e-03
-1.487842655181884766e+01 1.274795413017272949e+00 3.023709058761596680e-01
-1.152130603790283203e+01 5.689660906791687012e-01 1.228158026933670044e-01
-8.233275413513183594e+00 1.088124811649322510e-01 1.005972642451524734e-02
-1.472795391082763672e+01 1.352984786033630371e+00 2.994759678840637207e-01
-1.157450771331787109e+01 6.428093314170837402e-01 1.234226450324058533e-01
-8.279443740844726562e+00 1.602383106946945190e-01 1.011714804917573929e-02
-1.476614093780517578e+01 1.447914123535156250e+00 3.004274666309356689e-01
-1.222905540466308594e+01 7.544553279876708984e-01 1.304492056369781494e-01
-8.243315696716308594e+00 2.101450562477111816e-01 1.007438730448484421e-02
-1.475498962402343750e+01 1.538282752037048340e+00 3.003869652748107910e-01
-1.181116962432861328e+01 8.014511466026306152e-01 1.260416358709335327e-01
-8.314834594726562500e+00 2.630292475223541260e-01 1.016357354819774628e-02
-1.474427986145019531e+01 1.628679037094116211e+00 3.003667294979095459e-01
-1.201345062255859375e+01 8.892617821693420410e-01 1.282560676336288452e-01
-8.318060874938964844e+00 3.142319023609161377e-01 1.016968209296464920e-02
-1.472804927825927734e+01 1.718422293663024902e+00 3.002452552318572998e-01
-1.196590423583984375e+01 9.596009254455566406e-01 1.278089135885238647e-01
-8.240049362182617188e+00 3.619296848773956299e-01 1.007683109492063522e-02
-1.472814464569091797e+01 1.810101151466369629e+00 3.004679381847381592e-01
-1.218095493316650391e+01 1.052106857299804688e+00 1.301724016666412354e-01
-8.043916702270507812e+00 4.027809500694274902e-01 9.839816018939018250e-03
-1.470882797241210938e+01 1.899412870407104492e+00 3.003059923648834229e-01
-1.211652088165283203e+01 1.121482849121093750e+00 1.295549273490905762e-01
-8.295890808105468750e+00 4.664448797702789307e-01 1.015135645866394043e-02
-1.470977687835693359e+01 1.991372466087341309e+00 3.005691766738891602e-01
-1.219001483917236328e+01 1.203766942024230957e+00 1.304172724485397339e-01
-8.436593055725097656e+00 5.263045430183410645e-01 1.032728515565395355e-02
-1.465174484252929688e+01 2.075143098831176758e+00 2.996379137039184570e-01
-1.208493900299072266e+01 1.268312335014343262e+00 1.293739378452301025e-01
-8.424226760864257812e+00 5.774451494216918945e-01 1.031628996133804321e-02
-1.461697673797607422e+01 2.161787271499633789e+00 2.991925179958343506e-01
-1.189009094238281250e+01 1.321671843528747559e+00 1.273724287748336792e-01
-8.193159103393554688e+00 6.121371388435363770e-01 1.003773603588342667e-02
-1.459750843048095703e+01 2.250520706176757812e+00 2.990710735321044922e-01
-1.198106956481933594e+01 1.406259775161743164e+00 1.284370571374893188e-01
-8.320818901062011719e+00 6.730400919914245605e-01 1.019900385290384293e-02
-1.456368160247802734e+01 2.336879014968872070e+00 2.986661791801452637e-01
-1.231359958648681641e+01 1.521942257881164551e+00 1.320993900299072266e-01
-8.320517539978027344e+00 7.244299650192260742e-01 1.020389050245285034e-02
-1.456188869476318359e+01 2.428333997726440430e+00 2.989293634891510010e-01
-1.205116558074951172e+01 1.564638495445251465e+00 1.293845772743225098e-01
-8.461284637451171875e+00 7.890259027481079102e-01 1.038226298987865448e-02
-1.452996730804443359e+01 2.514739751815795898e+00 2.985852062702178955e-01
-1.202152156829833984e+01 1.635856986045837402e+00 1.291716545820236206e-01
-8.486137390136718750e+00 8.438972830772399902e-01 1.041891612112522125e-02
-1.452410507202148438e+01 2.605612277984619141e+00 2.987876534461975098e-01
-1.184989356994628906e+01 1.686621427536010742e+00 1.274362951517105103e-01
-8.376379966735839844e+00 8.849200010299682617e-01 1.029063388705253601e-02
-1.451963901519775391e+01 2.696872234344482422e+00 2.990305721759796143e-01
-1.182745265960693359e+01 1.757535576820373535e+00 1.273085474967956543e-01
-8.363836288452148438e+00 9.355217218399047852e-01 1.028208155184984207e-02
-1.449103641510009766e+01 2.783648967742919922e+00 2.987876534461975098e-01
-1.151308059692382812e+01 1.783090591430664062e+00 1.240401342511177063e-01
-8.296365737915039062e+00 9.795537590980529785e-01 1.020633429288864136e-02
-1.447172164916992188e+01 2.872122764587402344e+00 2.987471520900726318e-01
-1.152166652679443359e+01 1.856881976127624512e+00 1.242530569434165955e-01
-8.292183876037597656e+00 1.030687570571899414e+00 1.020877715200185776e-02
-1.442933940887451172e+01 2.955849409103393555e+00 2.982410490512847900e-01
-1.177337455749511719e+01 1.971639513969421387e+00 1.270956248044967651e-01
-8.260914802551269531e+00 1.078312277793884277e+00 1.017823442816734314e-02
-1.444027805328369141e+01 3.050529956817626953e+00 2.988483905792236328e-01
-1.189700889587402344e+01 2.067468643188476562e+00 1.285648047924041748e-01
-8.394832611083984375e+00 1.148223161697387695e+00 1.035172026604413986e-02
-1.442128849029541016e+01 3.139076471328735352e+00 2.988483905792236328e-01
-1.148061466217041016e+01 2.067757368087768555e+00 1.241998225450515747e-01
-8.448014259338378906e+00 1.208348393440246582e+00 1.042624562978744507e-02
-1.436468315124511719e+01 3.219196557998657227e+00 2.980791032314300537e-01
-1.111383056640625000e+01 2.072180747985839844e+00 1.203671544790267944e-01
-8.452309608459472656e+00 1.261933684349060059e+00 1.044090650975704193e-02
-1.434660816192626953e+01 3.307725191116333008e+00 2.981195747852325439e-01
-1.182159233093261719e+01 2.279288291931152344e+00 1.281815469264984131e-01
-8.429585456848144531e+00 1.311466336250305176e+00 1.042257994413375854e-02
-1.433382606506347656e+01 3.397536993026733398e+00 2.982815504074096680e-01
-1.169166374206542969e+01 2.328732252120971680e+00 1.269252896308898926e-01
-8.472711563110351562e+00 1.371473670005798340e+00 1.048611011356115341e-02
-1.429619503021240234e+01 3.481402158737182617e+00 2.979373931884765625e-01
-1.184856033325195312e+01 2.435662269592285156e+00 1.287883818149566650e-01
-8.410884857177734375e+00 1.414479851722717285e+00 1.042013708502054214e-02
-1.429493331909179688e+01 3.574149131774902344e+00 2.983625233173370361e-01
-1.175024509429931641e+01 2.490693330764770508e+00 1.278834491968154907e-01
-8.296639442443847656e+00 1.447669029235839844e+00 1.028941106051206589e-02
-1.423399639129638672e+01 3.651855468750000000e+00 2.975527346134185791e-01
-1.177284049987792969e+01 2.571064949035644531e+00 1.282986551523208618e-01
-8.516882896423339844e+00 1.540007472038269043e+00 1.057407539337873459e-02
-1.424129486083984375e+01 3.747011423110961914e+00 2.981803119182586670e-01
-1.207098293304443359e+01 2.713880538940429688e+00 1.317267566919326782e-01
-8.494495391845703125e+00 1.589845418930053711e+00 1.055819261819124222e-02
-1.422382640838623047e+01 3.835885524749755859e+00 2.983017861843109131e-01
-1.176183700561523438e+01 2.720299482345581055e+00 1.285328716039657593e-01
-8.490470886230468750e+00 1.643076777458190918e+00 1.056552305817604065e-02
-1.417400264739990234e+01 3.915900707244873047e+00 2.977551817893981934e-01
-1.170114612579345703e+01 2.782009124755859375e+00 1.280537992715835571e-01
-8.470423698425292969e+00 1.693182229995727539e+00 1.055330596864223480e-02
-1.451478767395019531e+01 4.661760330200195312e+00 3.871745347976684570e+00
-1.414008808135986328e+01 4.000075340270996094e+00 2.975527346134185791e-01
-1.194613075256347656e+01 2.917813539505004883e+00 1.309282928705215454e-01
-8.596988677978515625e+00 1.773407936096191406e+00 1.072434801608324051e-02
-1.465352630615234375e+01 4.805704116821289062e+00 3.916545391082763672e+00
-1.411623764038085938e+01 4.087039947509765625e+00 2.975729703903198242e-01
-1.194740104675292969e+01 2.995923280715942383e+00 1.311412155628204346e-01
-8.550732612609863281e+00 1.818635463714599609e+00 1.068036630749702454e-02
-1.497230148315429688e+01 5.009298801422119141e+00 3.390431880950927734e+00
-1.411486053466796875e+01 4.180677413940429688e+00 2.980791032314300537e-01
-1.159953594207763672e+01 2.984459638595581055e+00 1.275214701890945435e-01
-8.523783683776855469e+00 1.867642998695373535e+00 1.066081877797842026e-02
-1.396798801422119141e+01 4.774226665496826172e+00 4.350105762481689453e+00
-1.470901584625244141e+01 5.024641513824462891e+00 3.947560548782348633e+00
-1.489964580535888672e+01 5.086857795715332031e+00 3.380983829498291016e+00
-1.409564113616943359e+01 4.269234180450439453e+00 2.982208132743835449e-01
-1.205766582489013672e+01 3.181340694427490234e+00 1.327701061964035034e-01
-8.500457763671875000e+00 1.917268514633178711e+00 1.064615789800882339e-02
-1.395201683044433594e+01 4.864579677581787109e+00 4.354345798492431641e+00
-1.497994136810302734e+01 5.220048904418945312e+00 4.028790950775146484e+00
-1.474904632568359375e+01 5.136702537536621094e+00 3.353899002075195312e+00
-7.549324989318847656e+00 2.639576435089111328e+00 2.373596280813217163e-01
-1.408637046813964844e+01 4.360965251922607422e+00 2.985852062702178955e-01
-1.212961959838867188e+01 3.280062913894653320e+00 1.337815076112747192e-01
-8.522627830505371094e+00 1.977300405502319336e+00 1.068891771137714386e-02
-1.414604377746582031e+01 5.029791355133056641e+00 4.424449443817138672e+00
-1.432020664215087891e+01 5.088901996612548828e+00 3.859683752059936523e+00
-1.462590789794921875e+01 4.592857360839843750e+00 3.728569269180297852e+00
-1.469421672821044922e+01 5.218923091888427734e+00 3.348649978637695312e+00
-1.407745933532714844e+01 4.453044891357421875e+00 2.989698350429534912e-01
-1.216708374023437500e+01 3.370443582534790039e+00 1.344202756881713867e-01
-8.286608695983886719e+00 1.976202487945556641e+00 1.040791906416416168e-02
-1.429144668579101562e+01 5.177663803100585938e+00 3.860422134399414062e+00
-1.468581867218017578e+01 5.317641735076904297e+00 3.354108810424804688e+00
-1.403655147552490234e+01 4.535035133361816406e+00 2.986864149570465088e-01
-1.205574607849121094e+01 3.419387817382812500e+00 1.334195286035537720e-01
-8.706546783447265625e+00 2.132894277572631836e+00 1.095158979296684265e-02
-1.495496654510498047e+01 5.522090435028076172e+00 4.048729419708251953e+00
-1.470978355407714844e+01 5.428639888763427734e+00 3.367126464843750000e+00
-1.403029823303222656e+01 4.628280162811279297e+00 2.991520464420318604e-01
-1.191930198669433594e+01 3.459846258163452148e+00 1.321419775485992432e-01
-8.735966682434082031e+00 2.197007894515991211e+00 1.100534573197364807e-02
-1.427280235290527344e+01 5.372791290283203125e+00 4.494270801544189453e+00
-1.425223255157470703e+01 5.362208366394042969e+00 3.867314577102661133e+00
-1.460023975372314453e+01 5.490232467651367188e+00 3.349699735641479492e+00
-1.491207313537597656e+01 4.991861343383789062e+00 3.216524124145507812e+00
-1.398363208770751953e+01 4.708220005035400391e+00 2.987673878669738770e-01
-1.213365840911865234e+01 3.602937459945678711e+00 1.347609609365463257e-01
-8.747496604919433594e+00 2.257065296173095703e+00 1.103711128234863281e-02
-1.406312751770019531e+01 5.392609596252441406e+00 4.438583374023437500e+00
-1.437020492553710938e+01 5.507483482360839844e+00 3.908422231674194336e+00
-1.467983722686767578e+01 5.008773803710937500e+00 3.772526502609252930e+00
-1.464297008514404297e+01 5.609092235565185547e+00 3.367336273193359375e+00
-7.525661468505859375e+00 2.585371732711791992e+00 1.611254811286926270e-01
-1.223092460632324219e+01 3.713634490966796875e+00 1.360917538404464722e-01
-8.751851081848144531e+00 2.315556287765502930e+00 1.106032356619834900e-02
-1.405211257934570312e+01 5.487521171569824219e+00 4.445650577545166016e+00
-1.424216270446777344e+01 4.951633930206298828e+00 4.272439956665039062e+00
-1.461946201324462891e+01 5.088531970977783203e+00 3.764964103698730469e+00
-1.494909572601318359e+01 5.834796905517578125e+00 2.835372686386108398e+00
-7.538905620574951172e+00 2.641749143600463867e+00 1.617530435323715210e-01
-1.188606929779052734e+01 3.688732385635375977e+00 1.325039565563201904e-01
-8.624556541442871094e+00 2.338593721389770508e+00 1.091738138347864151e-02
-1.395756530761718750e+01 5.549540519714355469e+00 4.426428318023681641e+00
-1.441735744476318359e+01 5.111915111541748047e+00 4.334323883056640625e+00
-1.467394351959228516e+01 4.596513748168945312e+00 4.195138454437255859e+00
-1.382055568695068359e+01 5.492271900177001953e+00 3.776976346969604492e+00
-1.494325447082519531e+01 5.304253101348876953e+00 3.856659650802612305e+00
-1.494321155548095703e+01 5.938414096832275391e+00 2.841114282608032227e+00
-1.499453735351562500e+01 5.977000713348388672e+00 4.790801703929901123e-01
-1.390966510772705078e+01 4.970198154449462891e+00 2.990913093090057373e-01
-1.176122188568115234e+01 3.729255437850952148e+00 1.313647925853729248e-01
-8.393251419067382812e+00 2.331253767013549805e+00 1.064249221235513687e-02
-1.428455257415771484e+01 5.169349670410156250e+00 3.694774150848388672e+00
-1.494090938568115234e+01 6.062128543853759766e+00 4.785462021827697754e-01
-1.393527126312255859e+01 5.075983524322509766e+00 3.003059923648834229e-01
-1.218142414093017578e+01 3.944914102554321289e+00 1.363259702920913696e-01
-8.439386367797851562e+00 2.399942159652709961e+00 1.071946043521165848e-02
-1.443394470214843750e+01 4.716607570648193359e+00 4.142761707305908203e+00
-1.418783855438232422e+01 5.233027458190917969e+00 3.677994728088378906e+00
-1.455269241333007812e+01 4.763845920562744141e+00 3.568984031677246094e+00
-1.482545661926269531e+01 5.474085330963134766e+00 3.232555627822875977e+00
-1.492468166351318359e+01 6.162464141845703125e+00 4.792285561561584473e-01
-1.388699245452880859e+01 5.155130386352539062e+00 2.999415993690490723e-01
-1.185033512115478516e+01 3.918191671371459961e+00 1.328872144222259521e-01
-8.251672744750976562e+00 2.401383638381958008e+00 1.049955002963542938e-02
-1.432622528076171875e+01 5.378454208374023438e+00 4.335959434509277344e+00
-1.409452152252197266e+01 5.297080516815185547e+00 3.662160634994506836e+00
-1.476499748229980469e+01 5.554944992065429688e+00 3.226744413375854492e+00
-1.486539268493652344e+01 6.245019912719726562e+00 4.785462021827697754e-01
-1.389156913757324219e+01 5.254035949707031250e+00 3.007311224937438965e-01
-1.211030578613281250e+01 4.086748123168945312e+00 1.360810995101928711e-01
-8.166816711425781250e+00 2.431142091751098633e+00 1.041036378592252731e-02
-1.425970458984375000e+01 5.453540802001953125e+00 4.325872898101806641e+00
-1.432400608062744141e+01 5.483864784240722656e+00 3.730459928512573242e+00
-1.474435710906982422e+01 5.650695800781250000e+00 3.229750156402587891e+00
-1.498121261596679688e+01 6.402103900909423828e+00 4.835301637649536133e-01
-1.389358997344970703e+01 5.352472782135009766e+00 3.014801740646362305e-01
-7.542962551116943359e+00 2.597112178802490234e+00 8.493623882532119751e-02
-8.337338447570800781e+00 2.537697076797485352e+00 1.064737886190414429e-02
-1.423673248291015625e+01 5.545124530792236328e+00 4.329144001007080078e+00
-1.499886322021484375e+01 5.860067367553710938e+00 2.683161020278930664e+00
-1.494164752960205078e+01 6.493906497955322266e+00 4.835301637649536133e-01
-1.386513900756835938e+01 5.439446926116943359e+00 3.015813827514648438e-01
-7.527828693389892578e+00 2.643677473068237305e+00 8.494689315557479858e-02
-8.612842559814453125e+00 2.679407119750976562e+00 1.102000661194324493e-02
-1.396811771392822266e+01 5.539447784423828125e+00 4.257718563079833984e+00
-1.418925952911376953e+01 5.025290012359619141e+00 4.106703281402587891e+00
-1.418908596038818359e+01 5.033591270446777344e+00 3.509058237075805664e+00
-1.497729015350341797e+01 5.957821846008300781e+00 2.685790777206420898e+00
-1.496734619140625000e+01 6.614554882049560547e+00 4.856660962104797363e-01
-1.384450054168701172e+01 5.529611110687255859e+00 3.018648028373718262e-01
-1.224390506744384766e+01 4.384479999542236328e+00 1.384658813476562500e-01
-8.636266708374023438e+00 2.744925975799560547e+00 1.107131876051425934e-02
-1.487137126922607422e+01 5.378591060638427734e+00 3.685884475708007812e+00
-1.496422195434570312e+01 6.059234142303466797e+00 2.690063953399658203e+00
-1.490733146667480469e+01 6.697665691375732422e+00 4.850431084632873535e-01
-1.389181518554687500e+01 5.647590160369873047e+00 3.036462962627410889e-01
-1.218671417236328125e+01 4.448552608489990234e+00 1.381251960992813110e-01
-8.604995727539062500e+00 2.793234586715698242e+00 1.105299405753612518e-02
-1.418107509613037109e+01 5.227545261383056641e+00 3.522677898406982422e+00
-1.495324134826660156e+01 6.828871726989746094e+00 4.878910779953002930e-01
-1.392988586425781250e+01 5.762917041778564453e+00 3.052456378936767578e-01
-1.182179737091064453e+01 4.397734642028808594e+00 1.342925280332565308e-01
-8.395949363708496094e+00 2.782436370849609375e+00 1.080620381981134415e-02
-1.435541343688964844e+01 5.383517265319824219e+00 4.182768344879150391e+00
-1.452161884307861328e+01 5.454521656036376953e+00 3.615517139434814453e+00
-1.483598899841308594e+01 5.584424972534179688e+00 3.087099313735961914e+00
-1.391453552246093750e+01 5.856813430786132812e+00 3.056910037994384766e-01
-1.132333087921142578e+01 4.291580200195312500e+00 1.289267838001251221e-01
-8.032959938049316406e+00 2.716956138610839844e+00 1.036027260124683380e-02
-1.430048084259033203e+01 5.463235855102539062e+00 4.176451683044433594e+00
-1.447838783264160156e+01 4.925585269927978516e+00 4.020682811737060547e+00
-1.438418579101562500e+01 5.503846168518066406e+00 3.589640378952026367e+00
-1.472651195526123047e+01 5.024340629577636719e+00 3.478076219558715820e+00
-1.482344055175781250e+01 5.683785915374755859e+00 3.091686964035034180e+00
-1.388477039337158203e+01 5.944836139678955078e+00 3.058327138423919678e-01
-1.215873622894287109e+01 4.693723201751708984e+00 1.387639790773391724e-01
