-1.352576494216918945e+00 -1.828006386756896973e+00 6.749071180820465088e-02
-1.215116858482360840e+00 -1.621918320655822754e+00 1.335411965847015381e-01
-1.355375051498413086e+00 -1.808474779129028320e+00 6.707537919282913208e-02
-1.308291196823120117e+00 -1.883787155151367188e+00 4.644073918461799622e-02
-1.316196203231811523e+00 -1.871954679489135742e+00 1.291410923004150391e-01
-1.365237355232238770e+00 -1.798531889915466309e+00 6.701605021953582764e-02
-1.311195135116577148e+00 -1.863459110260009766e+00 4.613707214593887329e-02
-1.310859084129333496e+00 -1.840260744094848633e+00 1.275071054697036743e-01
-1.319122314453125000e+00 -1.850493907928466797e+00 4.601560533046722412e-02
-1.343742847442626953e+00 -1.862139105796813965e+00 1.295918524265289307e-01
-1.339817166328430176e+00 -1.855333805084228516e+00 4.633951559662818909e-02
-1.361035346984863281e+00 -1.861919283866882324e+00 1.301552951335906982e-01
-1.339960694313049316e+00 -1.831746339797973633e+00 4.595487564802169800e-02
-1.352828025817871094e+00 -1.827054023742675781e+00 1.282959282398223877e-01
-1.345222353935241699e+00 -1.815456748008728027e+00 4.575242474675178528e-02
-1.295456767082214355e+00 -1.864655733108520508e+00 1.066766902804374695e-01
-1.361737847328186035e+00 -1.814365267753601074e+00 4.593462869524955750e-02
-1.304641008377075195e+00 -1.875778555870056152e+00 2.432681247591972351e-02
-1.300549149513244629e+00 -1.847686648368835449e+00 1.061604395508766174e-01
-1.387366175651550293e+00 -1.825078129768371582e+00 4.642049595713615417e-02
-1.322461843490600586e+00 -1.876729369163513184e+00 2.444392070174217224e-02
-1.314181685447692871e+00 -1.842925071716308594e+00 1.063481643795967102e-01
-1.317684650421142578e+00 -1.845792174339294434e+00 2.414582669734954834e-02
-1.330144524574279785e+00 -1.841304540634155273e+00 1.067236289381980896e-01
-1.327813386917114258e+00 -1.836051583290100098e+00 2.412453293800354004e-02
-1.344366908073425293e+00 -1.837138772010803223e+00 1.069582849740982056e-01
-1.333735942840576172e+00 -1.820610046386718750e+00 2.402871847152709961e-02
-1.353234767913818359e+00 -1.825645446777343750e+00 1.067705601453781128e-01
-1.337731361389160156e+00 -1.802755951881408691e+00 2.390096150338649750e-02
-1.298439145088195801e+00 -1.888733029365539551e+00 2.800205722451210022e-03
-1.307284712791442871e+00 -1.878224372863769531e+00 8.591112494468688965e-02
-1.354174852371215820e+00 -1.801707983016967773e+00 2.399677783250808716e-02
-1.300858855247497559e+00 -1.867601275444030762e+00 2.780657960101962090e-03
-1.314177513122558594e+00 -1.863634228706359863e+00 8.561099320650100708e-02
-1.312870383262634277e+00 -1.860401391983032227e+00 2.781879855319857597e-03
-1.311511278152465820e+00 -1.837865114212036133e+00 1.669935137033462524e-01
-1.331977605819702148e+00 -1.864479899406433105e+00 8.602367341518402100e-02
-1.324260830879211426e+00 -1.852310776710510254e+00 2.781879855319857597e-03
-1.322763442993164062e+00 -1.829783201217651367e+00 1.669935137033462524e-01
-1.342221021652221680e+00 -1.854652881622314453e+00 8.594863861799240112e-02
-1.338534235954284668e+00 -1.848199844360351562e+00 2.787988400086760521e-03
-1.335733532905578613e+00 -1.824046373367309570e+00 1.672147959470748901e-01
-1.349439978599548340e+00 -1.840740680694580078e+00 8.568603545427322388e-02
-1.339202046394348145e+00 -1.825438857078552246e+00 2.765997312963008881e-03
-1.357730269432067871e+00 -1.828414559364318848e+00 8.549845218658447266e-02
-1.345009446144104004e+00 -1.809963464736938477e+00 2.755001652985811234e-03
-1.367722392082214355e+00 -1.818452119827270508e+00 8.542342483997344971e-02
-1.354285717010498047e+00 -1.799279570579528809e+00 2.751336432993412018e-03
-1.366513013839721680e+00 -1.792526602745056152e+00 2.753779990598559380e-03
-7.832592487335205078e+00 -6.762329101562500000e+00 2.095299214124679565e-01
-7.868612766265869141e+00 -6.709600925445556641e+00 2.093882113695144653e-01
-7.829312324523925781e+00 -6.750111579895019531e+00 1.100615262985229492e-01
-7.859924316406250000e+00 -6.692868709564208984e+00 1.099124774336814880e-01
-7.771746158599853516e+00 -6.774652004241943359e+00 1.259603817015886307e-02
-7.835903167724609375e+00 -6.746411323547363281e+00 1.263269037008285522e-02
-7.895434379577636719e+00 -6.713751316070556641e+00 1.266201213002204895e-02
-5.281167507171630859e+00 -3.173441648483276367e+00 1.828627437353134155e-01
-5.335796833038330078e+00 -3.161869525909423828e+00 1.840790510177612305e-01
-5.331795215606689453e+00 -3.115454673767089844e+00 1.832780689001083374e-01
-5.310310363769531250e+00 -3.185988426208496094e+00 1.253940463066101074e-01
-5.315131187438964844e+00 -3.144690275192260742e+00 1.250498890876770020e-01
-1.005687522888183594e+01 -6.976865291595458984e+00 1.495397835969924927e-02
-5.296329021453857422e+00 -3.089850664138793945e+00 1.241591349244117737e-01
-1.017210674285888672e+01 -6.964742183685302734e+00 1.506149116903543472e-02
-1.019890689849853516e+01 -6.891558647155761719e+00 1.503827795386314392e-02
-1.010289001464843750e+01 -6.736754894256591797e+00 1.483547035604715347e-02
-5.273145198822021484e+00 -3.202893257141113281e+00 6.568771600723266602e-02
-1.045646762847900391e+01 -6.880214214324951172e+00 1.529239676892757416e-02
-5.312428474426269531e+00 -3.182296276092529297e+00 6.593258678913116455e-02
-1.020241260528564453e+01 -6.623704910278320312e+00 1.486112643033266068e-02
-5.328410625457763672e+00 -3.147605419158935547e+00 6.588999927043914795e-02
-1.022770595550537109e+01 -6.551270484924316406e+00 1.483913604170084000e-02
-5.338119506835937500e+00 -3.109315872192382812e+00 6.577289104461669922e-02
-1.021445274353027344e+01 -6.454736232757568359e+00 1.476216595619916916e-02
-1.053730583190917969e+01 -6.568627357482910156e+00 1.517022494226694107e-02
-1.057400417327880859e+01 -6.501752853393554688e+00 1.516533829271793365e-02
-5.262814521789550781e+00 -3.191669464111328125e+00 7.519749458879232407e-03
-5.348649024963378906e+00 -3.201536417007446289e+00 2.340234071016311646e-01
-5.292597770690917969e+00 -3.165476799011230469e+00 7.534410338848829269e-03
-5.367331981658935547e+00 -3.168149471282958984e+00 2.339859008789062500e-01
-5.312782287597656250e+00 -3.133450508117675781e+00 7.535631768405437469e-03
-5.304246425628662109e+00 -3.084705829620361328e+00 7.496536709368228912e-03
-1.034598827362060547e+01 -5.932099342346191406e+00 1.457035448402166367e-02
-1.038132095336914062e+01 -5.868013858795166016e+00 1.456913258880376816e-02
-1.040926933288574219e+01 -5.799824237823486328e+00 1.455813739448785782e-02
-1.044992065429687500e+01 -5.738733291625976562e+00 1.456546783447265625e-02
-1.041809654235839844e+01 -5.638331890106201172e+00 1.447261683642864227e-02
-1.041279029846191406e+01 -5.553126335144042969e+00 1.441763807088136673e-02
-1.035902881622314453e+01 -5.443081378936767578e+00 1.429668720811605453e-02
-1.040288925170898438e+01 -5.384933471679687500e+00 1.431134808808565140e-02
-1.035199260711669922e+01 -5.278302192687988281e+00 1.419650577008724213e-02
-1.037524795532226562e+01 -5.210196495056152344e+00 1.418428774923086166e-02
-1.038998985290527344e+01 -5.138014793395996094e+00 1.416107546538114548e-02
-1.042581653594970703e+01 -5.076354980468750000e+00 1.416718401014804840e-02
-1.130237770080566406e+01 -3.980195283889770508e+00 3.556389510631561279e-01
-1.017000961303710938e+01 -4.874835014343261719e+00 1.377867348492145538e-02
-1.029288196563720703e+01 -4.856291294097900391e+00 1.390451192855834961e-02
-1.030706691741943359e+01 -4.785884380340576172e+00 1.388374250382184982e-02
-1.031986618041992188e+01 -4.715071201324462891e+00 1.386175118386745453e-02
-1.034677886962890625e+01 -4.650840759277343750e+00 1.385930832475423813e-02
-1.034036731719970703e+01 -4.571900367736816406e+00 1.381288189440965652e-02
-1.131059932708740234e+01 -3.974355936050415039e+00 2.427510321140289307e-01
-1.020865726470947266e+01 -4.438982963562011719e+00 1.360030099749565125e-02
-1.032029533386230469e+01 -4.412427902221679688e+00 1.371270045638084412e-02
-1.042092514038085938e+01 -4.380018711090087891e+00 1.381043903529644012e-02
-1.041987609863281250e+01 -4.304539680480957031e+00 1.377378590404987335e-02
-1.041366291046142578e+01 -4.227359294891357422e+00 1.373102609068155289e-02
-1.127067756652832031e+01 -4.029454231262207031e+00 1.274362951517105103e-01
-1.018582820892333984e+01 -4.062252521514892578e+00 1.339749339967966080e-02
-1.131406211853027344e+01 -3.966839790344238281e+00 1.276492327451705933e-01
-1.032695102691650391e+01 -4.045268535614013672e+00 1.355020981281995773e-02
-1.135237312316894531e+01 -3.902218818664550781e+00 1.278089135885238647e-01
-1.038424396514892578e+01 -3.994392871856689453e+00 1.359297055751085281e-02
-1.015129089355468750e+01 -3.833449125289916992e+00 1.325699500739574432e-02
-1.015680599212646484e+01 -3.764486551284790039e+00 1.323378179222345352e-02
-1.029248714447021484e+01 -3.743107557296752930e+00 1.338038966059684753e-02
-1.022672557830810547e+01 -3.648299455642700195e+00 1.326554734259843826e-02
-1.032065582275390625e+01 -3.610577344894409180e+00 1.335839927196502686e-02
-1.010613727569580078e+01 -3.466078519821166992e+00 1.305296644568443298e-02
-1.034522724151611328e+01 -3.477282762527465820e+00 1.333396416157484055e-02
-1.022674465179443359e+01 -3.367760658264160156e+00 1.315436884760856628e-02
-1.010540962219238281e+01 -3.259211301803588867e+00 1.297233067452907562e-02
-1.012521743774414062e+01 -3.197144269943237305e+00 1.297233067452907562e-02
-1.021439075469970703e+01 -3.156510591506958008e+00 1.306151878088712692e-02
-1.000766372680664062e+01 -3.025482654571533203e+00 1.277318969368934631e-02
-9.945485115051269531e+00 -2.940205574035644531e+00 1.267056353390216827e-02
-9.957574844360351562e+00 -2.877460241317749023e+00 1.266323402523994446e-02
-9.935585975646972656e+00 -2.805167198181152344e+00 1.261314284056425095e-02
-9.985387802124023438e+00 -2.753188133239746094e+00 1.265468169003725052e-02
-9.833106040954589844e+00 -2.646387577056884766e+00 1.244087889790534973e-02
-9.844323158264160156e+00 -2.584733247756958008e+00 1.243477035313844681e-02
-9.827058792114257812e+00 -2.515848398208618164e+00 1.239323057234287262e-02
-9.823877334594726562e+00 -2.450904369354248047e+00 1.237001921981573105e-02
-9.817352294921875000e+00 -2.385385513305664062e+00 1.234314031898975372e-02
-9.706267356872558594e+00 -2.295414447784423828e+00 1.218553818762302399e-02
-1.238205051422119141e+01 -1.475100278854370117e+00 1.736956119537353516e+00
-1.212781238555908203e+01 -1.440518975257873535e+00 1.251326560974121094e+00
-9.687033653259277344e+00 -2.228193044662475586e+00 1.214399840682744980e-02
-1.238594818115234375e+01 -1.398542046546936035e+00 1.736266493797302246e+00
-1.212851524353027344e+01 -1.365186929702758789e+00 1.250511288642883301e+00
-9.587317466735839844e+00 -2.143403768539428711e+00 1.200227718800306320e-02
-1.235391712188720703e+01 -1.318208456039428711e+00 1.730609893798828125e+00
-1.216040325164794922e+01 -1.293266892433166504e+00 1.252957344055175781e+00
-1.227546215057373047e+01 -1.301170110702514648e+00 8.134111166000366211e-01
-1.253048896789550781e+01 -1.325990915298461914e+00 3.739727139472961426e-01
-9.515270233154296875e+00 -2.066076278686523438e+00 1.189598720520734787e-02
-1.234896087646484375e+01 -1.241093754768371582e+00 1.728816390037536621e+00
-1.216613006591796875e+01 -1.218429446220397949e+00 1.252753496170043945e+00
-1.231796646118164062e+01 -1.229292869567871094e+00 8.157123923301696777e-01
-1.250556564331054688e+01 -1.245810389518737793e+00 3.729937076568603516e-01
-9.720534324645996094e+00 -2.048271894454956055e+00 1.213666796684265137e-02
-1.219516754150390625e+01 -1.145803809165954590e+00 1.254995942115783691e+00
-1.236402416229248047e+01 -1.157315015792846680e+00 8.182767629623413086e-01
-9.513453483581542969e+00 -1.943748831748962402e+00 1.186299975961446762e-02
-1.224755287170410156e+01 -1.074954986572265625e+00 1.259684324264526367e+00
-1.229435157775878906e+01 -1.074737906455993652e+00 8.132139444351196289e-01
-9.527163505554199219e+00 -1.885727286338806152e+00 1.186544448137283325e-02
-1.232099151611328125e+01 -1.461420059204101562e+00 1.607030868530273438e+00
-1.226879119873046875e+01 -1.000998616218566895e+00 1.261213302612304688e+00
-1.227286529541015625e+01 -9.970186948776245117e-01 8.113728165626525879e-01
-9.565072059631347656e+00 -1.832313895225524902e+00 1.189843099564313889e-02
-1.220653820037841797e+01 -1.371946692466735840e+00 1.590974688529968262e+00
-1.243441009521484375e+01 -9.377443790435791016e-01 1.277623176574707031e+00
-1.212950134277343750e+01 -1.359000921249389648e+00 1.134408950805664062e+00
-1.236034584045410156e+01 -9.278197884559631348e-01 8.167644739151000977e-01
-1.204893970489501953e+01 -9.023295640945434570e-01 3.586055636405944824e-01
-9.421761512756347656e+00 -1.744997739791870117e+00 1.170661952346563339e-02
-1.225318717956542969e+01 -1.301106810569763184e+00 1.595984220504760742e+00
-1.215642547607421875e+01 -1.286541104316711426e+00 1.136167287826538086e+00
-1.239268398284912109e+01 -8.538123965263366699e-01 8.185397386550903320e-01
-1.237157535552978516e+01 -1.304944157600402832e+00 7.020497918128967285e-01
-1.199042797088623047e+01 -8.239958286285400391e-01 3.567069172859191895e-01
-1.252937412261962891e+01 -1.317166686058044434e+00 2.551001608371734619e-01
-9.457884788513183594e+00 -1.691732048988342285e+00 1.173838414251804352e-02
-1.224811172485351562e+01 -1.224615573883056641e+00 1.594314455986022949e+00
-1.217895317077636719e+01 -1.213407278060913086e+00 1.137555480003356934e+00
-1.238431644439697266e+01 -1.229502201080322266e+00 7.023314833641052246e-01
-1.258000278472900391e+01 -1.244495391845703125e+00 2.559706866741180420e-01
-9.514402389526367188e+00 -1.641659140586853027e+00 1.179580576717853546e-02
-1.228501605987548828e+01 -1.152217745780944824e+00 1.598167896270751953e+00
-1.218715953826904297e+01 -1.138748288154602051e+00 1.137647986412048340e+00
-9.548957824707031250e+00 -1.587348461151123047e+00 1.182634849101305008e-02
-1.232643222808837891e+01 -1.079845786094665527e+00 1.602663516998291016e+00
-1.219987010955810547e+01 -1.064467191696166992e+00 1.138203263282775879e+00
-1.225722980499267578e+01 -1.065160989761352539e+00 6.943306326866149902e-01
-9.318567276000976562e+00 -1.490351200103759766e+00 1.152946799993515015e-02
-1.217229652404785156e+01 -1.437455058097839355e+00 1.472393751144409180e+00
-1.223495292663574219e+01 -9.919235706329345703e-01 1.140887141227722168e+00
-1.230234622955322266e+01 -9.930649399757385254e-01 6.965280175209045410e-01
-1.462564945220947266e+01 -1.709061980247497559e+00 1.567775309085845947e-01
-9.353235244750976562e+00 -1.437093973159790039e+00 1.156123261898756027e-02
-1.218779468536376953e+01 -1.363512873649597168e+00 1.473228573799133301e+00
-1.236194610595703125e+01 -9.259057641029357910e-01 1.152177453041076660e+00
-1.210859107971191406e+01 -1.350372552871704102e+00 1.016666173934936523e+00
-1.239781665802001953e+01 -9.242406487464904785e-01 7.015990018844604492e-01
-1.268090152740478516e+01 -1.402994871139526367e+00 1.358362436294555664e-01
-9.395513534545898438e+00 -1.384633660316467285e+00 1.160277239978313446e-02
-1.220580577850341797e+01 -1.289747595787048340e+00 1.474421381950378418e+00
-1.215331745147705078e+01 -1.279911875724792480e+00 1.019742965698242188e+00
-1.240425109863281250e+01 -8.482198715209960938e-01 7.016553878784179688e-01
-1.242695140838623047e+01 -1.304343581199645996e+00 5.870738029479980469e-01
-1.196189403533935547e+01 -8.137759566307067871e-01 2.427712976932525635e-01
-1.254804706573486328e+01 -1.310411691665649414e+00 1.343244612216949463e-01
-9.259264945983886719e+00 -1.306558132171630859e+00 1.142439991235733032e-02
-1.225103282928466797e+01 -1.218564271926879883e+00 1.478953599929809570e+00
-1.219168472290039062e+01 -1.208363413810729980e+00 1.022320747375488281e+00
-1.255187129974365234e+01 -1.233002662658691406e+00 1.342818886041641235e-01
-9.236385345458984375e+00 -1.245576739311218262e+00 1.138652581721544266e-02
-1.229287910461425781e+01 -1.146597623825073242e+00 1.483128070831298828e+00
-1.220283794403076172e+01 -1.133902668952941895e+00 1.022653341293334961e+00
-9.362874031066894531e+00 -1.204187393188476562e+00 1.153313368558883667e-02
-1.232836818695068359e+01 -1.073646426200866699e+00 1.486586928367614746e+00
-1.220857334136962891e+01 -1.058920025825500488e+00 1.022570252418518066e+00
-9.322442054748535156e+00 -1.140884399414062500e+00 1.147449016571044922e-02
-1.234767913818359375e+01 -1.458302855491638184e+00 1.833801627159118652e+00
-1.238618469238281250e+01 -1.002144336700439453e+00 1.492789030075073242e+00
-1.209348201751708984e+01 -1.421861290931701660e+00 1.346480369567871094e+00
-1.222378063201904297e+01 -9.847099184989929199e-01 1.023318648338317871e+00
-1.221226787567138672e+01 -9.794920086860656738e-01 5.756223797798156738e-01
-9.290527343750000000e+00 -1.079161643981933594e+00 1.142684277147054672e-02
-1.234361267089843750e+01 -1.381081342697143555e+00 1.831904649734497070e+00
-1.214248085021972656e+01 -1.352140426635742188e+00 1.350986599922180176e+00
-1.238164234161376953e+01 -9.209977388381958008e-01 1.036041498184204102e+00
-1.210759830474853516e+01 -1.341838240623474121e+00 9.009830355644226074e-01
-1.235053920745849609e+01 -9.143492579460144043e-01 5.818643569946289062e-01
-1.198997020721435547e+01 -8.813431262969970703e-01 1.280005574226379395e-01
-9.192603111267089844e+00 -1.010660886764526367e+00 1.129856053739786148e-02
-1.232922649383544922e+01 -1.302925109863281250e+00 1.828548789024353027e+00
-1.217229461669921875e+01 -1.279896736145019531e+00 1.353404521942138672e+00
-1.242981243133544922e+01 -8.479244709014892578e-01 1.039617300033569336e+00
-1.204617309570312500e+01 -1.260258555412292480e+00 8.958198428153991699e-01
-1.243664264678955078e+01 -8.440291285514831543e-01 5.856658816337585449e-01
-1.246482753753662109e+01 -1.297460079193115234e+00 4.704853296279907227e-01
-1.199914360046386719e+01 -8.080261945724487305e-01 1.280431449413299561e-01
-9.309038162231445312e+00 -9.656903743743896484e-01 1.143417321145534515e-02
-1.235077095031738281e+01 -1.228620886802673340e+00 1.830591559410095215e+00
-1.218585395812988281e+01 -1.205772161483764648e+00 1.354063987731933594e+00
-1.223232650756835938e+01 -1.203903198242187500e+00 9.090967178344726562e-01
-1.247156047821044922e+01 -1.220855593681335449e+00 4.704478383064270020e-01
-1.200187969207763672e+01 -7.342634797096252441e-01 1.280218511819839478e-01
-9.151563644409179688e+00 -8.926322460174560547e-01 1.123380940407514572e-02
-1.221083736419677734e+01 -1.132630825042724609e+00 1.356042265892028809e+00
-1.222855854034423828e+01 -1.127816915512084961e+00 9.082853198051452637e-01
-1.482573413848876953e+01 -8.157473206520080566e-01 1.580870300531387329e-01
-9.212635993957519531e+00 -8.415567874908447266e-01 1.130222622305154800e-02
-1.227301120758056641e+01 -1.062485933303833008e+00 1.362197279930114746e+00
-1.222531318664550781e+01 -1.051907777786254883e+00 9.075477719306945801e-01
-1.425218296051025391e+01 -6.965026259422302246e-01 1.519228070974349976e-01
-9.164817810058593750e+00 -7.805159091949462891e-01 1.123747508972883224e-02
-1.229019737243652344e+01 -9.880362153053283691e-01 1.363406181335449219e+00
-1.225340747833251953e+01 -9.786214828491210938e-01 9.091704487800598145e-01
-1.213429546356201172e+01 -9.627148509025573730e-01 4.569796621799468994e-01
-1.486359977722167969e+01 -6.349890232086181641e-01 1.583957672119140625e-01
-9.182394027709960938e+00 -7.252905368804931641e-01 1.125335693359375000e-02
-1.228611564636230469e+01 -9.118706583976745605e-01 1.362307071685791016e+00
-1.244815158843994141e+01 -9.173434376716613770e-01 9.231849908828735352e-01
-1.213200092315673828e+01 -8.876587152481079102e-01 4.566795229911804199e-01
-9.122839927673339844e+00 -6.642868518829345703e-01 1.117516588419675827e-02
-1.240542793273925781e+01 -8.311716318130493164e-01 4.667712748050689697e-01
-1.474933624267578125e+01 -4.488615393638610840e-01 1.571075618267059326e-01
-9.138717651367187500e+00 -6.090956926345825195e-01 1.118982676416635513e-02
-1.227464199066162109e+01 -7.467846274375915527e-01 4.616691172122955322e-01
-1.470083045959472656e+01 -3.571143746376037598e-01 1.565645933151245117e-01
-9.111339569091796875e+00 -5.511383414268493652e-01 1.115195360034704208e-02
-1.475773239135742188e+01 -2.679032981395721436e-01 1.571501493453979492e-01
-9.047649383544921875e+00 -4.915869235992431641e-01 1.107009779661893845e-02
-8.324201583862304688e+00 5.020667910575866699e-01 2.475054860115051270e-01
-1.467210960388183594e+01 -1.763012409210205078e-01 1.562239229679107666e-01
-9.052493095397949219e+00 -4.361585676670074463e-01 1.107254158705472946e-02
-1.245302104949951172e+01 8.278110027313232422e-01 3.704127669334411621e-01
-1.447992992401123047e+01 -8.513686060905456543e-02 1.541691869497299194e-01
-8.987058639526367188e+00 -3.777496218681335449e-01 1.098946388810873032e-02
-1.443718242645263672e+01 3.700902918353676796e-03 1.537113934755325317e-01
-9.101134300231933594e+00 -3.266157507896423340e-01 1.112629752606153488e-02
-1.465187072753906250e+01 9.365996718406677246e-02 1.560003459453582764e-01
-9.125957489013671875e+00 -2.714498937129974365e-01 1.115439645946025848e-02
-1.441805267333984375e+01 1.806415766477584839e-01 1.535197645425796509e-01
-8.996487617492675781e+00 -2.123576551675796509e-01 1.099435053765773773e-02
-1.441067314147949219e+01 2.689937055110931396e-01 1.534558832645416260e-01
-8.930631637573242188e+00 -1.559821963310241699e-01 1.091249380260705948e-02
-8.346769332885742188e+00 5.091851353645324707e-01 1.693244725465774536e-01
-1.381496810913085938e+01 3.426819741725921631e-01 1.471319794654846191e-01
-8.980418205261230469e+00 -1.017370223999023438e-01 1.097236014902591705e-02
-1.242046451568603516e+01 8.342205286026000977e-01 2.520634829998016357e-01
-1.410644721984863281e+01 4.365357756614685059e-01 1.502619832754135132e-01
-8.992872238159179688e+00 -4.669459909200668335e-02 1.098701916635036469e-02
-1.240913009643554688e+01 9.099766612052917480e-01 2.519420087337493896e-01
-1.417145347595214844e+01 5.256032943725585938e-01 1.509859412908554077e-01
-8.828989982604980469e+00 8.330760523676872253e-03 1.078665629029273987e-02
-1.411201667785644531e+01 6.101289987564086914e-01 1.503897458314895630e-01
-8.848772048950195312e+00 6.264585256576538086e-02 1.081109046936035156e-02
-1.408603572845458984e+01 6.956222057342529297e-01 1.501555293798446655e-01
-8.953211784362792969e+00 1.183272972702980042e-01 1.093937270343303680e-02
-8.281767845153808594e+00 4.599416255950927734e-01 8.831112086772918701e-02
-9.026304244995117188e+00 1.746928691864013672e-01 1.102978084236383438e-02
-8.315718650817871094e+00 5.130271911621093750e-01 8.870504051446914673e-02
-8.969079017639160156e+00 2.286467850208282471e-01 1.096136309206485748e-02
-8.245571136474609375e+00 5.595061779022216797e-01 8.799173682928085327e-02
-8.837573051452636719e+00 2.795653939247131348e-01 1.080253813415765762e-02
-1.242031383514404297e+01 9.193786978721618652e-01 1.325997710227966309e-01
-9.311351776123046875e+00 3.517555296421051025e-01 1.138408295810222626e-02
-1.370920848846435547e+01 1.099404573440551758e+00 1.464293152093887329e-01
-8.996319770812988281e+00 3.951475322246551514e-01 1.100168004631996155e-02
-1.371814441680908203e+01 1.184878706932067871e+00 1.465996503829956055e-01
-8.723065376281738281e+00 4.367877542972564697e-01 1.067059114575386047e-02
-1.356624126434326172e+01 1.255666375160217285e+00 1.450559496879577637e-01
-8.295890808105468750e+00 4.664448797702789307e-01 1.015135645866394043e-02
-1.355430030822753906e+01 1.338490486145019531e+00 1.450133621692657471e-01
-8.295866966247558594e+00 5.175255537033081055e-01 1.015502121299505234e-02
-1.358660697937011719e+01 1.425912141799926758e+00 1.454498618841171265e-01
-8.314484596252441406e+00 5.699228048324584961e-01 1.018190011382102966e-02
-1.349014472961425781e+01 1.499529719352722168e+00 1.445129811763763428e-01
-8.743624687194824219e+00 6.532641649246215820e-01 1.071213092654943466e-02
-1.350949096679687500e+01 1.585655927658081055e+00 1.448217183351516724e-01
-9.142136573791503906e+00 7.394734025001525879e-01 1.120571047067642212e-02
-1.344492530822753906e+01 1.661772489547729492e+00 1.442361772060394287e-01
-9.119494438171386719e+00 7.939932346343994141e-01 1.118371821939945221e-02
-1.321830272674560547e+01 1.716171383857727051e+00 1.419152915477752686e-01
-9.031808853149414062e+00 8.422280550003051758e-01 1.108231488615274429e-02
-1.320752429962158203e+01 1.797245025634765625e+00 1.419152915477752686e-01
-8.770732879638671875e+00 8.721986413002014160e-01 1.076832972466945648e-02
-1.289331722259521484e+01 1.835134267807006836e+00 1.386575102806091309e-01
-8.923336029052734375e+00 9.427029490470886230e-01 1.096258591860532761e-02
-1.314491176605224609e+01 1.953307271003723145e+00 1.414894312620162964e-01
-8.958129882812500000e+00 1.001995444297790527e+00 1.101267710328102112e-02
-1.312477302551269531e+01 2.032701730728149414e+00 1.414042562246322632e-01
-8.945854187011718750e+00 1.056239008903503418e+00 1.100534573197364807e-02
-1.321571063995361328e+01 2.129901409149169922e+00 1.425221264362335205e-01
-8.954091072082519531e+00 1.112960100173950195e+00 1.102367229759693146e-02
-1.309292316436767578e+01 2.192619085311889648e+00 1.413403898477554321e-01
-8.967916488647460938e+00 1.170598506927490234e+00 1.104932837188243866e-02
-1.305557918548583984e+01 2.268805503845214844e+00 1.410848796367645264e-01
-8.891209602355957031e+00 1.216116428375244141e+00 1.096380688250064850e-02
-1.303452301025390625e+01 2.347629547119140625e+00 1.410103440284729004e-01
-8.900409698486328125e+00 1.273056030273437500e+00 1.098457630723714828e-02
-1.297662067413330078e+01 2.419499158859252930e+00 1.405419111251831055e-01
-8.892430305480957031e+00 1.327643990516662598e+00 1.098457630723714828e-02
-1.299295043945312500e+01 2.505134820938110352e+00 1.408825963735580444e-01
-8.876213073730468750e+00 1.380952119827270508e+00 1.097480300813913345e-02
-1.296360492706298828e+01 2.582076311111450195e+00 1.407335400581359863e-01
-8.851777076721191406e+00 1.432832837104797363e+00 1.095525454729795456e-02
-1.276827526092529297e+01 2.624724626541137695e+00 1.387852579355239868e-01
-8.858597755432128906e+00 1.489772915840148926e+00 1.097480300813913345e-02
-1.290453052520751953e+01 2.735366582870483398e+00 1.404460966587066650e-01
-8.814810752868652344e+00 1.538083910942077637e+00 1.093204133212566376e-02
-8.056064605712890625e+00 2.380103111267089844e+00 2.493151277303695679e-01
-1.256219005584716797e+01 2.743450641632080078e+00 1.369008719921112061e-01
-8.773717880249023438e+00 1.586447834968566895e+00 1.089294627308845520e-02
-1.265341091156005859e+01 2.844825744628906250e+00 1.380826085805892944e-01
-8.711723327636718750e+00 1.630502343177795410e+00 1.082819513976573944e-02
-1.248178958892822266e+01 2.886811494827270508e+00 1.364004909992218018e-01
-8.690754890441894531e+00 1.681835651397705078e+00 1.081475615501403809e-02
-1.237823295593261719e+01 2.942990064620971680e+00 1.354636251926422119e-01
-8.684193611145019531e+00 1.735913515090942383e+00 1.081964280456304550e-02
-1.236188507080078125e+01 3.019360542297363281e+00 1.354849189519882202e-01
-8.691987037658691406e+00 1.793004631996154785e+00 1.084285508841276169e-02
-7.993022918701171875e+00 2.314200401306152344e+00 1.684944480657577515e-01
-1.231790828704833984e+01 3.088831424713134766e+00 1.352081149816513062e-01
-8.675931930541992188e+00 1.845263838768005371e+00 1.083674747496843338e-02
-8.007431983947753906e+00 2.371719360351562500e+00 1.691017895936965942e-01
-1.230550193786621094e+01 3.166098594665527344e+00 1.352826356887817383e-01
-8.533551216125488281e+00 1.869783163070678711e+00 1.067303493618965149e-02
-1.214468288421630859e+01 3.204299688339233398e+00 1.337282806634902954e-01
-8.500457763671875000e+00 1.917268514633178711e+00 1.064615789800882339e-02
-1.175798892974853516e+01 3.179567575454711914e+00 1.296826750040054321e-01
-8.505092620849609375e+00 1.973232150077819824e+00 1.066692639142274857e-02
-1.201000785827636719e+01 3.326931715011596680e+00 1.326849311590194702e-01
-8.581342697143554688e+00 2.046491146087646484e+00 1.077810395509004593e-02
-1.172962951660156250e+01 3.326890945434570312e+00 1.298104375600814819e-01
-8.474410057067871094e+00 2.076026678085327148e+00 1.065959595143795013e-02
-7.996457576751708984e+00 2.321152210235595703e+00 8.865180611610412598e-02
-8.485756874084472656e+00 2.134082794189453125e+00 1.069013867527246475e-02
-8.001235961914062500e+00 2.375866413116455078e+00 8.886472880840301514e-02
-8.433772087097167969e+00 2.176116704940795898e+00 1.064126938581466675e-02
-1.496905899047851562e+01 5.142482757568359375e+00 3.204896748065948486e-01
-7.971198081970214844e+00 2.420268058776855469e+00 8.869438618421554565e-02
-8.432828903198242188e+00 2.231149673461914062e+00 1.065715309232473373e-02
-1.239031505584716797e+01 3.845220565795898438e+00 1.381251960992813110e-01
-8.354314804077148438e+00 2.265316009521484375e+00 1.057529635727405548e-02
-1.199379539489746094e+01 3.803000211715698242e+00 1.339624822139739990e-01
-8.358564376831054688e+00 2.321619510650634766e+00 1.059850957244634628e-02
-1.199592113494873047e+01 3.884839296340942383e+00 1.342499405145645142e-01
-8.147942543029785156e+00 2.317063093185424805e+00 1.034927740693092346e-02
-1.439059925079345703e+01 5.921370506286621094e+00 3.341721296310424805e+00
-1.144019699096679688e+01 3.782583475112915039e+00 1.282880008220672607e-01
-8.020272254943847656e+00 2.334042072296142578e+00 1.020511332899332047e-02
-1.464244937896728516e+01 6.133328437805175781e+00 2.804924011230468750e+00
-1.104442501068115234e+01 3.727055549621582031e+00 1.241040080785751343e-01
-7.998131752014160156e+00 2.380927085876464844e+00 1.019533816725015640e-02
-1.472412395477294922e+01 6.274012565612792969e+00 2.827890872955322266e+00
-1.164724922180175781e+01 4.010256290435791016e+00 1.311518549919128418e-01
-7.999635696411132812e+00 2.434908151626586914e+00 1.021610852330923080e-02
-1.469993495941162109e+01 6.367513179779052734e+00 3.440192461013793945e+00
-1.440615463256835938e+01 6.243244171142578125e+00 2.774127483367919922e+00
-1.160827255249023438e+01 4.076677322387695312e+00 1.309921741485595703e-01
-8.094353675842285156e+00 2.518107891082763672e+00 1.035660691559314728e-02
-1.463285064697265625e+01 6.445373058319091797e+00 3.433683633804321289e+00
-1.104926300048828125e+01 3.956684827804565430e+00 1.249557137489318848e-01
-8.200736999511718750e+00 2.606498479843139648e+00 1.051298901438713074e-02
-1.454037952423095703e+01 6.511460781097412109e+00 3.421295881271362305e+00
-1.063120365142822266e+01 3.880739927291870117e+00 1.204949170351028442e-01
-8.166518211364746094e+00 2.650902032852172852e+00 1.048977579921483994e-02
-1.486734294891357422e+01 6.108248710632324219e+00 4.554325103759765625e+00
-1.482840538024902344e+01 6.753103733062744141e+00 4.138082981109619141e+00
-1.480637741088867188e+01 6.101331233978271484e+00 2.668368577957153320e+00
-1.156500530242919922e+01 4.302207469940185547e+00 1.313754320144653320e-01
-8.090296745300292969e+00 2.681142568588256836e+00 1.041280757635831833e-02
-1.476066112518310547e+01 6.835042953491210938e+00 4.793624877929687500e+00
-1.463074302673339844e+01 6.116234779357910156e+00 4.493258953094482422e+00
-1.450729656219482422e+01 6.711571693420410156e+00 3.432633876800537109e+00
-1.454420471191406250e+01 6.091989994049072266e+00 3.225341558456420898e+00
-1.440842819213867188e+01 6.041031360626220703e+00 2.603282451629638672e+00
-1.126909923553466797e+01 4.271026134490966797e+00 1.283093094825744629e-01
-8.109690666198730469e+00 2.742908477783203125e+00 1.045923307538032532e-02
-1.441822242736816406e+01 6.143480777740478516e+00 3.205703020095825195e+00
-1.140033149719238281e+01 4.400950908660888672e+00 1.301085352897644043e-01
-8.087035179138183594e+00 2.790659427642822266e+00 1.045190170407295227e-02
-1.089198207855224609e+01 4.281684398651123047e+00 1.246043890714645386e-01
-8.023539543151855469e+00 2.823960304260253906e+00 1.039203722029924393e-02
-1.438388347625732422e+01 6.338520526885986328e+00 3.215121507644653320e+00
-1.459080314636230469e+01 5.803897380828857422e+00 2.464603185653686523e+00
-1.118114757537841797e+01 4.474757671356201172e+00 1.282241344451904297e-01
-7.964647293090820312e+00 2.858276605606079102e+00 1.033828221261501312e-02
-1.492119312286376953e+01 6.041621208190917969e+00 2.526625156402587891e+00
-1.429266071319580078e+01 6.433310985565185547e+00 3.173720538616180420e-01
-1.117848300933837891e+01 4.553464412689208984e+00 1.285115778446197510e-01
-7.921602249145507812e+00 2.897816896438598633e+00 1.030529476702213287e-02
-1.442656707763671875e+01 6.600335121154785156e+00 3.212387263774871826e-01
-1.114017295837402344e+01 4.617756843566894531e+00 1.283944696187973022e-01
-7.856822013854980469e+00 2.928903341293334961e+00 1.024420745670795441e-02
-1.469675731658935547e+01 6.833312511444091797e+00 3.281825780868530273e-01
-1.096052551269531250e+01 4.622301101684570312e+00 1.266484856605529785e-01
-7.843376636505126953e+00 2.978832006454467773e+00 1.025031693279743195e-02
-1.446242809295654297e+01 6.165112495422363281e+00 3.061675786972045898e+00
-1.106796360015869141e+01 4.747808933258056641e+00 1.282241344451904297e-01
-7.631892681121826172e+00 2.952221632003784180e+00 9.997419081628322601e-03
-1.498365783691406250e+01 5.826637744903564453e+00 4.226636886596679688e+00
-1.455220794677734375e+01 6.309179306030273438e+00 3.088819265365600586e+00
-1.094055461883544922e+01 4.772848606109619141e+00 1.270849704742431641e-01
-7.727145671844482422e+00 3.043706178665161133e+00 1.014646980911493301e-02
-1.446741676330566406e+01 6.378157615661621094e+00 3.079070806503295898e+00
-1.434831237792968750e+01 6.995330333709716797e+00 3.232226669788360596e-01
-1.081965827941894531e+01 4.799343585968017578e+00 1.260203421115875244e-01
-7.802067756652832031e+00 3.128653287887573242e+00 1.026986446231603622e-02
-1.445994186401367188e+01 5.857614040374755859e+00 2.885903358459472656e+00
-1.032785129547119141e+01 4.657237529754638672e+00 1.206226721405982971e-01
-7.753097057342529297e+00 3.164374828338623047e+00 1.023076940327882767e-02
-1.487386989593505859e+01 6.101450443267822266e+00 4.226636886596679688e+00
-1.497175121307373047e+01 6.808528423309326172e+00 3.833428859710693359e+00
-1.430677318572998047e+01 6.518181324005126953e+00 3.061675786972045898e+00
-1.446009159088134766e+01 5.961219310760498047e+00 2.893178939819335938e+00
-1.064086723327636719e+01 4.877176284790039062e+00 1.246256753802299500e-01
-7.713217258453369141e+00 3.203449010848999023e+00 1.020389050245285034e-02
-1.488822460174560547e+01 6.893717765808105469e+00 3.195099592208862305e+00
-1.454203033447265625e+01 6.099658012390136719e+00 2.917006731033325195e+00
-1.060620880126953125e+01 4.940264225006103516e+00 1.245724409818649292e-01
-7.698943138122558594e+00 3.253051757812500000e+00 1.021122187376022339e-02
-1.485097408294677734e+01 6.987447738647460938e+00 3.196246623992919922e+00
-1.452332210540771484e+01 6.196875572204589844e+00 2.920826673507690430e+00
-1.085769176483154297e+01 5.138711929321289062e+00 1.278940886259078979e-01
-7.688943862915039062e+00 3.304573535919189453e+00 1.022465992718935013e-02
-1.440528964996337891e+01 6.873671531677246094e+00 3.720160007476806641e+00
-1.464649200439453125e+01 6.355941772460937500e+00 2.953385353088378906e+00
-1.060787010192871094e+01 5.100378036499023438e+00 1.253176927566528320e-01
-7.664857864379882812e+00 3.350088119506835938e+00 1.021977420896291733e-02
-1.482591247558593750e+01 6.511303424835205078e+00 4.257148265838623047e+00
-1.037510776519775391e+01 5.067074775695800781e+00 1.229329183697700500e-01
-7.573792457580566406e+00 3.365785360336303711e+00 1.012569945305585861e-02
-1.425582408905029297e+01 6.365557670593261719e+00 4.104589939117431641e+00
-1.476656436920166016e+01 6.624550342559814453e+00 2.993765592575073242e+00
-3.438197612762451172e+00 2.027021646499633789e+00 1.184573173522949219e-01
-1.032232284545898438e+01 5.119976043701171875e+00 1.226774081587791443e-01
-7.515634536743164062e+00 3.395314455032348633e+00 1.007560919970273972e-02
-1.496273040771484375e+01 6.823147773742675781e+00 3.041966915130615234e+00
-3.402531147003173828e+00 2.034230947494506836e+00 1.176563277840614319e-01
-1.032643508911132812e+01 5.201208591461181641e+00 1.231032609939575195e-01
-7.482844829559326172e+00 3.435940742492675781e+00 1.005972642451524734e-02
-1.499774360656738281e+01 6.918815612792968750e+00 4.342327117919921875e+00
-3.396823406219482422e+00 2.059215784072875977e+00 1.178936585783958435e-01
-1.030946159362792969e+01 5.272212505340576172e+00 1.232842504978179932e-01
-7.423561573028564453e+00 3.464030027389526367e+00 1.000841427594423294e-02
-1.041891288757324219e+01 5.409089565277099609e+00 1.249876543879508972e-01
-7.320844173431396484e+00 3.470958232879638672e+00 9.898458607494831085e-03
-9.595554351806640625e+00 5.056620597839355469e+00 1.154804974794387817e-01
-7.339951515197753906e+00 3.535340070724487305e+00 9.953436441719532013e-03
-3.500115394592285156e+00 2.037908077239990234e+00 8.201021701097488403e-02
-9.559057235717773438e+00 5.112573146820068359e+00 1.154166236519813538e-01
-7.364830017089843750e+00 3.603162765502929688e+00 1.001696567982435226e-02
-3.435281991958618164e+00 2.026868581771850586e+00 2.250954061746597290e-01
-3.424698591232299805e+00 2.022236108779907227e+00 8.053237199783325195e-02
-9.134664535522460938e+00 4.957911968231201172e+00 1.106577217578887939e-01
-7.368554115295410156e+00 3.661188840866088867e+00 1.005239691585302353e-02
-3.433061599731445312e+00 2.054060220718383789e+00 2.257715314626693726e-01
-3.370194911956787109e+00 2.018043756484985352e+00 7.954039424657821655e-02
-9.960699081420898438e+00 5.485637187957763672e+00 1.210698112845420837e-01
-7.332558631896972656e+00 3.699575662612915039e+00 1.003407035022974014e-02
-4.621499538421630859e+00 3.039728403091430664e+00 1.641730070114135742e-01
-9.836941719055175781e+00 5.496413707733154297e+00 1.199732497334480286e-01
-7.324850559234619141e+00 3.752248525619506836e+00 1.005483977496623993e-02
-4.611078262329101562e+00 3.073572158813476562e+00 1.644696593284606934e-01
-9.797811508178710938e+00 5.553709983825683594e+00 1.199093610048294067e-01
-7.291930675506591797e+00 3.792047262191772461e+00 1.004140172153711319e-02
-9.280703544616699219e+00 5.336102485656738281e+00 1.139793694019317627e-01
-7.244647502899169922e+00 3.824114322662353516e+00 1.000841427594423294e-02
-3.484548568725585938e+00 2.032052278518676758e+00 4.294720664620399475e-02
-7.242202758789062500e+00 3.879828214645385742e+00 1.003773603588342667e-02
-3.481499433517456055e+00 2.056544542312622070e+00 1.899812072515487671e-01
-3.442750692367553711e+00 2.036087751388549805e+00 4.258522763848304749e-02
-7.166424751281738281e+00 3.896012306213378906e+00 9.965653531253337860e-03
-3.444821119308471680e+00 2.063495159149169922e+00 1.886670887470245361e-01
-4.646629333496093750e+00 3.020115137100219727e+00 1.122149154543876648e-01
-3.440483331680297852e+00 2.063345432281494141e+00 4.271298646926879883e-02
-7.127499103546142578e+00 3.931700229644775391e+00 9.944884106516838074e-03
-3.403067588806152344e+00 2.066962480545043945e+00 1.870714128017425537e-01
-4.625505924224853516e+00 3.046919584274291992e+00 1.121541857719421387e-01
-3.433738708496093750e+00 2.088053703308105469e+00 4.278751090168952942e-02
-7.098876953125000000e+00 3.972917795181274414e+00 9.938775561749935150e-03
-4.626680374145507812e+00 3.088566064834594727e+00 1.126400455832481384e-01
-3.422564744949340820e+00 2.110133171081542969e+00 4.280880466103553772e-02
-7.081323146820068359e+00 4.020350933074951172e+00 9.948549792170524597e-03
-9.388352394104003906e+00 5.868060588836669922e+00 1.178759187459945679e-01
-7.020125389099121094e+00 4.042765617370605469e+00 9.897236712276935577e-03
-9.330208778381347656e+00 5.911641120910644531e+00 1.175991147756576538e-01
-3.478165149688720703e+00 2.031533956527709961e+00 4.921129439026117325e-03
-9.552060127258300781e+00 6.134668350219726562e+00 1.208675354719161987e-01
-3.444984912872314453e+00 2.040606021881103516e+00 4.891807679086923599e-03
-3.403285980224609375e+00 2.042602300643920898e+00 1.490126550197601318e-01
-4.651945590972900391e+00 3.028120040893554688e+00 5.909765139222145081e-02
-3.434113502502441406e+00 2.062735319137573242e+00 4.894251003861427307e-03
-3.388981580734252930e+00 2.062407016754150391e+00 1.489376276731491089e-01
-4.627435207366943359e+00 3.052752494812011719e+00 5.902313068509101868e-02
-3.435911417007446289e+00 2.092610597610473633e+00 4.915020894259214401e-03
-4.597810268402099609e+00 3.073863506317138672e+00 5.888472869992256165e-02
-3.426410436630249023e+00 2.115755319595336914e+00 4.919908009469509125e-03
-4.559822082519531250e+00 3.089118242263793945e+00 5.863986536860466003e-02
-3.359963655471801758e+00 2.103311300277709961e+00 4.842938855290412903e-03
-8.931523323059082031e+00 6.131081104278564453e+00 1.153421029448509216e-01
-6.856104373931884766e+00 4.350648880004882812e+00 9.920449927449226379e-03
-9.162172317504882812e+00 6.372471809387207031e+00 1.188234388828277588e-01
-4.672001361846923828e+00 3.005060195922851562e+00 6.786711513996124268e-03
-8.804117202758789062e+00 6.203936100006103516e+00 1.146713867783546448e-01
-4.652637004852294922e+00 3.033124446868896484e+00 6.785489618778228760e-03
-4.639252662658691406e+00 3.062800645828247070e+00 2.087002545595169067e-01
-9.006781578063964844e+00 6.429812908172607422e+00 1.178226843476295471e-01
-4.624760627746582031e+00 3.055551528930664062e+00 6.772050634026527405e-03
-4.605422496795654297e+00 3.081206798553466797e+00 2.080249637365341187e-01
-8.217667579650878906e+00 5.942932128906250000e+00 1.079748496413230896e-01
-4.595953464508056641e+00 3.077194690704345703e+00 6.757389754056930542e-03
-8.790876388549804688e+00 6.439988613128662109e+00 1.160234659910202026e-01
-4.568710803985595703e+00 3.099722623825073242e+00 6.745172664523124695e-03
-8.760831832885742188e+00 6.500957489013671875e+00 1.161512210965156555e-01
-6.591612339019775391e+00 4.531507492065429688e+00 9.772620163857936859e-03
-8.679212570190429688e+00 6.523349761962890625e+00 1.155976131558418274e-01
-6.566145420074462891e+00 4.573582172393798828e+00 9.776285849511623383e-03
-8.690738677978515625e+00 6.615850448608398438e+00 1.162896156311035156e-01
-6.549397468566894531e+00 4.621857166290283203e+00 9.793389588594436646e-03
-8.845581054687500000e+00 6.819857120513916016e+00 1.189192533493041992e-01
-6.501390933990478516e+00 4.647998809814453125e+00 9.764067828655242920e-03
-8.497769355773925781e+00 6.635230064392089844e+00 1.147884875535964966e-01
-6.138258934020996094e+00 4.445552825927734375e+00 9.259493090212345123e-03
-8.648279190063476562e+00 6.838581085205078125e+00 1.173861920833587646e-01
-6.034268379211425781e+00 4.426938056945800781e+00 9.143428876996040344e-03
-8.714649200439453125e+00 6.978395462036132812e+00 1.188660338521003723e-01
-6.509447097778320312e+00 4.837262153625488281e+00 9.908232837915420532e-03
-8.612638473510742188e+00 6.983870983123779297e+00 1.180569082498550415e-01
-6.393355369567871094e+00 4.812164783477783203e+00 9.776285849511623383e-03
-8.246591567993164062e+00 6.771341800689697266e+00 1.136067509651184082e-01
-6.449596405029296875e+00 4.916779041290283203e+00 9.908232837915420532e-03
-6.405058383941650391e+00 4.945259571075439453e+00 9.886240586638450623e-03
-6.292666912078857422e+00 4.920406341552734375e+00 9.759181179106235504e-03
-6.336050987243652344e+00 5.017279624938964844e+00 9.874024428427219391e-03
-6.206847190856933594e+00 4.977237224578857422e+00 9.720085188746452332e-03
-6.190940380096435547e+00 5.027205467224121094e+00 9.743298403918743134e-03
-6.146073818206787109e+00 5.053665161132812500e+00 9.721307083964347839e-03
-6.126616954803466797e+00 6.342220783233642578e+00 2.617156207561492920e-01
-5.991221427917480469e+00 4.988265991210937500e+00 9.524608962237834930e-03
-6.083446025848388672e+00 6.375354290008544922e+00 2.615376114845275879e-01
-5.997200012207031250e+00 5.055871963500976562e+00 9.583251550793647766e-03
-5.949331760406494141e+00 5.078291893005371094e+00 9.556373581290245056e-03
-5.971021175384521484e+00 5.160472869873046875e+00 9.641895070672035217e-03
-6.024284839630126953e+00 5.271425247192382812e+00 9.779950603842735291e-03
-6.002305507659912109e+00 5.317574024200439453e+00 9.797054342925548553e-03
-6.088296890258789062e+00 6.311225891113281250e+00 1.775639653205871582e-01
-5.974775314331054688e+00 5.358977317810058594e+00 9.805606678128242493e-03
-6.066009521484375000e+00 6.365834712982177734e+00 1.780498176813125610e-01
-5.902544498443603516e+00 5.359907627105712891e+00 9.740855544805526733e-03
-6.094815731048583984e+00 5.603120803833007812e+00 1.011470425873994827e-02
-5.889029979705810547e+00 5.480989933013916016e+00 9.828818961977958679e-03
-5.869117259979248047e+00 5.530051231384277344e+00 9.852032177150249481e-03
-5.852441310882568359e+00 5.582524776458740234e+00 9.881353937089443207e-03
-6.073760032653808594e+00 6.304821968078613281e+00 9.320842474699020386e-02
-5.875625133514404297e+00 5.673901557922363281e+00 9.979092516005039215e-03
-6.039784908294677734e+00 6.347041606903076172e+00 9.328294545412063599e-02
-5.820678234100341797e+00 5.690273284912109375e+00 9.944884106516838074e-03
-6.001411914825439453e+00 6.384710788726806641e+00 9.329359978437423706e-02
-5.818349361419677734e+00 5.758239269256591797e+00 1.000108383595943451e-02
-5.784320831298828125e+00 5.795247077941894531e+00 1.000352762639522552e-02
-5.619469642639160156e+00 5.699604511260986328e+00 9.778728708624839783e-03
-5.535552978515625000e+00 5.683830261230468750e+00 9.693208150565624237e-03
-5.531077861785888672e+00 5.749397277832031250e+00 9.746963158249855042e-03
-6.004119873046875000e+00 6.313836097717285156e+00 3.271000683307647705e-01
-5.655510425567626953e+00 5.951403141021728516e+00 1.003040466457605362e-02
-5.633259296417236328e+00 6.001304149627685547e+00 1.005606073886156082e-02
-5.576612949371337891e+00 6.014491081237792969e+00 1.002063136547803879e-02
-5.553111553192138672e+00 6.063344001770019531e+00 1.004506554454565048e-02
-5.607040405273437500e+00 6.198158740997314453e+00 1.021122187376022339e-02
-5.586226940155029297e+00 6.251834392547607422e+00 1.024298649281263351e-02
-5.470341205596923828e+00 6.198270320892333984e+00 1.010004337877035141e-02
-5.429578304290771484e+00 6.228703975677490234e+00 1.009515672922134399e-02
-5.414745807647705078e+00 6.289184093475341797e+00 1.013913936913013458e-02
-5.383828163146972656e+00 6.331431865692138672e+00 1.015380024909973145e-02
-5.418191432952880859e+00 6.451644897460937500e+00 1.029307674616575241e-02
-5.349775314331054688e+00 6.450131893157958984e+00 1.023809891194105148e-02
-5.309463977813720703e+00 6.482062816619873047e+00 1.023687794804573059e-02
-5.285942077636718750e+00 6.534733772277832031e+00 1.026864256709814072e-02
-5.364953517913818359e+00 6.716278076171875000e+00 1.050199382007122040e-02
-5.124841690063476562e+00 6.497039794921875000e+00 1.010981760919094086e-02
-5.063373088836669922e+00 6.500751018524169922e+00 1.006705779582262039e-02
-5.217253684997558594e+00 6.783769130706787109e+00 1.045556738972663879e-02
-5.192464351654052734e+00 6.837953567504882812e+00 1.048977579921483994e-02
-5.143811702728271484e+00 6.860884189605712891e+00 1.047633681446313858e-02
-5.110540866851806641e+00 6.904372692108154297e+00 1.049466244876384735e-02
-5.086960315704345703e+00 6.961438179016113281e+00 1.053375843912363052e-02
-5.007292747497558594e+00 6.941425800323486328e+00 1.045678835362195969e-02
-4.607189178466796875e+00 6.554834842681884766e+00 9.788502007722854614e-03
-4.794885158538818359e+00 6.911637306213378906e+00 1.027719490230083466e-02
-1.791384458541870117e+00 6.977297782897949219e+00 7.669600099325180054e-02
