-3.479702398180961609e-02 -7.248457074165344238e-01 2.153769321739673615e-02
-3.778445720672607422e-02 -6.976699829101562500e-01 2.073670551180839539e-02
-2.181868813931941986e-02 -7.295125126838684082e-01 4.118767008185386658e-02
-2.636422216892242432e-02 -7.279909849166870117e-01 6.078708544373512268e-02
-7.278598099946975708e-02 -7.422871589660644531e-01 1.510235015302896500e-02
-8.789123594760894775e-02 -7.488168478012084961e-01 8.027316071093082428e-03
-1.197228208184242249e-01 -7.179368138313293457e-01 1.473795063793659210e-02
-1.125548362731933594e+01 -6.920781135559082031e+00 1.614272035658359528e-02
-1.152432441711425781e+01 -6.989004135131835938e+00 1.646647974848747253e-02
-1.154982662200927734e+01 -6.907894611358642578e+00 1.644204556941986084e-02
-1.148777294158935547e+01 -6.775426387786865234e+00 1.629421673715114594e-02
-1.153690910339355469e+01 -6.709335803985595703e+00 1.630521193146705627e-02
-1.167762374877929688e+01 -6.695621967315673828e+00 1.644571125507354736e-02
-1.143555927276611328e+01 -6.463918685913085938e+00 1.604864746332168579e-02
-1.175192260742187500e+01 -6.547922134399414062e+00 1.643593795597553253e-02
-1.177347183227539062e+01 -6.465581893920898438e+00 1.641028188169002533e-02
-1.168188190460205078e+01 -6.322299957275390625e+00 1.622824370861053467e-02
-1.177869129180908203e+01 -6.281559467315673828e+00 1.630887761712074280e-02
-1.168334197998046875e+01 -6.138932228088378906e+00 1.612439565360546112e-02
-1.175098419189453125e+01 -6.082758903503417969e+00 1.616593450307846069e-02
-1.169098091125488281e+01 -5.961029529571533203e+00 1.603276655077934265e-02
-1.174610328674316406e+01 -5.898606777191162109e+00 1.605842262506484985e-02
-1.170498561859130859e+01 -5.788300991058349609e+00 1.595335267484188080e-02
-1.179602527618408203e+01 -5.743513107299804688e+00 1.602910086512565613e-02
-1.154518795013427734e+01 -5.534005165100097656e+00 1.564181223511695862e-02
-1.187737560272216797e+01 -5.603872299194335938e+00 1.604498364031314850e-02
-1.196414279937744141e+01 -5.555315494537353516e+00 1.611584424972534180e-02
-1.166328620910644531e+01 -5.328869819641113281e+00 1.566624641418457031e-02
-1.206607437133789062e+01 -5.423657894134521484e+00 1.616226881742477417e-02
-1.209272384643554688e+01 -5.346689224243164062e+00 1.615371741354465485e-02
-1.211521434783935547e+01 -5.268002510070800781e+00 1.614027842879295349e-02
-1.207559013366699219e+01 -5.162901878356933594e+00 1.604498364031314850e-02
-2.437058210372924805e+00 -7.259396910667419434e-01 7.547093182802200317e-02
-1.207662010192871094e+01 -5.075923442840576172e+00 1.600466482341289520e-02
-2.434258222579956055e+00 -7.093342542648315430e-01 1.670744270086288452e-01
-2.419393539428710938e+00 -7.045447230339050293e-01 7.478860765695571899e-02
-1.185429668426513672e+01 -4.897110939025878906e+00 1.566991209983825684e-02
-2.445282459259033203e+00 -6.962975263595581055e-01 1.675346791744232178e-01
-2.405404567718505859e+00 -6.844883561134338379e-01 7.422494888305664062e-02
-1.224084854125976562e+01 -4.969093322753906250e+00 1.614027842879295349e-02
-2.464890480041503906e+00 -6.855584979057312012e-01 1.685867160558700562e-01
-2.424968004226684570e+00 -6.739989519119262695e-01 7.469960302114486694e-02
-1.221259021759033203e+01 -4.870553970336914062e+00 1.606330834329128265e-02
-2.489272832870483398e+00 -6.759122610092163086e-01 1.699674874544143677e-01
-2.442563295364379883e+00 -6.627715229988098145e-01 7.511493563652038574e-02
-1.209140586853027344e+01 -4.736440181732177734e+00 1.586538925766944885e-02
-2.432090282440185547e+00 -6.439343094825744629e-01 7.466994225978851318e-02
-1.208104038238525391e+01 -4.647080898284912109e+00 1.581407524645328522e-02
-2.417045593261718750e+00 -7.181703448295593262e-01 5.105647072196006775e-02
-1.201858234405517578e+01 -4.538597583770751953e+00 1.569556817412376404e-02
-2.454240322113037109e+00 -7.137921452522277832e-01 1.442413628101348877e-01
-2.417566299438476562e+00 -7.022106051445007324e-01 5.097549408674240112e-02
-1.212590503692626953e+01 -4.494307518005371094e+00 1.579941436648368835e-02
-2.452811717987060547e+00 -6.970821619033813477e-01 1.439033001661300659e-01
-2.448759794235229492e+00 -6.950069069862365723e-01 5.154233425855636597e-02
-1.203014278411865234e+01 -4.375047683715820312e+00 1.563936844468116760e-02
-2.434915781021118164e+00 -6.758769154548645020e-01 1.426073759794235229e-01
-2.426964759826660156e+00 -6.727575659751892090e-01 5.099573731422424316e-02
-1.225455188751220703e+01 -4.371709823608398438e+00 1.589593291282653809e-02
-2.458290338516235352e+00 -6.661464571952819824e-01 1.437342613935470581e-01
-2.461929798126220703e+00 -6.662103533744812012e-01 5.164355784654617310e-02
-1.232267665863037109e+01 -4.310964107513427734e+00 1.594968698918819427e-02
-2.464037895202636719e+00 -6.505811810493469238e-01 5.160306766629219055e-02
-2.412497520446777344e+00 -7.311478257179260254e-01 2.683934196829795837e-02
-1.246240615844726562e+01 -4.274202823638916016e+00 1.609629578888416290e-02
-2.435103416442871094e+00 -7.231022715568542480e-01 1.193483695387840271e-01
-2.420773267745971680e+00 -7.174678444862365723e-01 2.688192762434482574e-02
-1.238318252563476562e+01 -4.162289142608642578e+00 1.596068404614925385e-02
-2.452924728393554688e+00 -7.120457291603088379e-01 1.200054138898849487e-01
-2.430892705917358398e+00 -7.042703032493591309e-01 2.694580517709255219e-02
-1.242178630828857422e+01 -4.090608119964599609e+00 1.597778871655464172e-02
-2.453403711318969727e+00 -6.958911418914794922e-01 1.198176890611648560e-01
-2.432281732559204102e+00 -6.885243058204650879e-01 2.691386640071868896e-02
-1.187466526031494141e+01 -3.829834222793579102e+00 1.524352747946977615e-02
-2.451851367950439453e+00 -6.792241930961608887e-01 1.195360943675041199e-01
-2.456700086593627930e+00 -6.791825294494628906e-01 2.713743783533573151e-02
-1.214682865142822266e+01 -3.835489511489868164e+00 1.556240022182464600e-02
-2.463686943054199219e+00 -6.662532091140747070e-01 1.199115440249443054e-01
-2.458890676498413086e+00 -6.635746955871582031e-01 2.711614593863487244e-02
-2.402879953384399414e+00 -7.425519824028015137e-01 3.072651568800210953e-03
-2.476453781127929688e+00 -6.520391702651977539e-01 2.726519480347633362e-02
-2.405476570129394531e+00 -7.272154688835144043e-01 3.070208011195063591e-03
-2.442445039749145508e+00 -7.229925394058227539e-01 9.562771022319793701e-02
-2.418524265289306641e+00 -7.149935960769653320e-01 3.081203671172261238e-03
-2.442995786666870117e+00 -7.068814039230346680e-01 9.547764807939529419e-02
-2.428629875183105469e+00 -7.018060088157653809e-01 3.088534111157059669e-03
-2.431901454925537109e+00 -6.875284314155578613e-01 9.487739205360412598e-02
-2.412680625915527344e+00 -6.811850666999816895e-01 3.062877804040908813e-03
-2.426441669464111328e+00 -6.699340939521789551e-01 9.450223296880722046e-02
-2.438023328781127930e+00 -6.722159385681152344e-01 3.089755773544311523e-03
-2.425682306289672852e+00 -6.537329554557800293e-01 9.431465715169906616e-02
-2.412167310714721680e+00 -6.491875052452087402e-01 3.051882144063711166e-03
-2.464465856552124023e+00 -6.470721364021301270e-01 3.112968523055315018e-03
-1.260738945007324219e+01 -3.227647066116333008e+00 1.589959673583507538e-02
-1.263277721405029297e+01 -3.151681184768676758e+00 1.590692810714244843e-02
-1.266548156738281250e+01 -3.077414035797119141e+00 1.592403091490268707e-02
-1.274446201324462891e+01 -3.013911008834838867e+00 1.599977910518646240e-02
-1.271788597106933594e+01 -2.925343990325927734e+00 1.594357937574386597e-02
-1.275901794433593750e+01 -2.852489709854125977e+00 1.597290113568305969e-02
-1.318378353118896484e+01 -2.862630605697631836e+00 1.648236252367496490e-02
-1.287134265899658203e+01 -2.712197303771972656e+00 1.607063971459865570e-02
-1.288774204254150391e+01 -2.633169174194335938e+00 1.607063971459865570e-02
-1.319696617126464844e+01 -2.612097263336181641e+00 1.643593795597553253e-02
-1.289256668090820312e+01 -2.469738721847534180e+00 1.603765226900577545e-02
-1.311986541748046875e+01 -2.429921150207519531e+00 1.630154624581336975e-02
-1.304790401458740234e+01 -2.333878755569458008e+00 1.619403436779975891e-02
-1.325709533691406250e+01 -2.287440776824951172e+00 1.643593795597553253e-02
-1.309035778045654297e+01 -2.176044940948486328e+00 1.621235907077789307e-02
-1.322886943817138672e+01 -2.115739583969116211e+00 1.636751927435398102e-02
-1.328015041351318359e+01 -2.040451765060424805e+00 1.641516759991645813e-02
-1.331616401672363281e+01 -1.962427020072937012e+00 1.644448935985565186e-02
-1.372601032257080078e+01 -1.936852574348449707e+00 1.693562418222427368e-02
-1.256624126434326172e+01 -1.694625854492187500e+00 1.549153868108987808e-02
-1.325778961181640625e+01 -1.705124139785766602e+00 1.633086800575256348e-02
-1.368687725067138672e+01 -1.675005793571472168e+00 1.684643886983394623e-02
-1.366709804534912109e+01 -1.587531805038452148e+00 1.680978573858737946e-02
-1.344795894622802734e+01 -1.478506803512573242e+00 1.652878709137439728e-02
-1.380988311767578125e+01 -1.432593822479248047e+00 1.696250215172767639e-02
-1.375571060180664062e+01 -1.341715097427368164e+00 1.688553392887115479e-02
-1.375870513916015625e+01 -1.256831526756286621e+00 1.687942445278167725e-02
-1.357186126708984375e+01 -1.155838847160339355e+00 1.664118655025959015e-02
-1.334044075012207031e+01 -1.053722500801086426e+00 1.634919457137584686e-02
-1.381641006469726562e+01 -1.006052851676940918e+00 1.692462898790836334e-02
-1.395702457427978516e+01 -9.302359223365783691e-01 1.708956249058246613e-02
-1.383270645141601562e+01 -8.367304205894470215e-01 1.693073846399784088e-02
-1.398536205291748047e+01 -7.598682641983032227e-01 1.711155287921428680e-02
-1.333651924133300781e+01 -6.425674557685852051e-01 1.631254144012928009e-02
-1.397265243530273438e+01 -5.873072147369384766e-01 1.708589680492877960e-02
-1.399198246002197266e+01 -5.021353960037231445e-01 1.710544526576995850e-02
-1.378089523315429688e+01 -4.099101722240447998e-01 1.684399507939815521e-02
-1.394010639190673828e+01 -3.290493488311767578e-01 1.703580655157566071e-02
-1.379588603973388672e+01 -2.409586161375045776e-01 1.685743406414985657e-02
-1.385210132598876953e+01 -1.569271683692932129e-01 1.692462898790836334e-02
-1.393680191040039062e+01 -7.236547023057937622e-02 1.702725328505039215e-02
-1.395298480987548828e+01 1.316560246050357819e-02 1.704680174589157104e-02
-1.402563858032226562e+01 9.929605573415756226e-02 1.713598892092704773e-02
-1.385178089141845703e+01 1.830676794052124023e-01 1.692462898790836334e-02
-1.402236461639404297e+01 2.713853716850280762e-01 1.713476702570915222e-02
-1.399244403839111328e+01 3.567063212394714355e-01 1.710055768489837646e-02
-1.398299598693847656e+01 4.423343241214752197e-01 1.709200628101825714e-02
-1.420785522460937500e+01 5.367310643196105957e-01 1.737055927515029907e-02
-1.419730091094970703e+01 6.235915422439575195e-01 1.736200787127017975e-02
-1.388659191131591797e+01 6.953396797180175781e-01 1.698693633079528809e-02
-1.399588489532470703e+01 7.869328260421752930e-01 1.712621375918388367e-02
-1.397881603240966797e+01 8.720479607582092285e-01 1.711155287921428680e-02
-1.398716926574707031e+01 9.587613344192504883e-01 1.712865754961967468e-02
-1.375265979766845703e+01 1.027505159378051758e+00 1.684888079762458801e-02
-1.395242214202880859e+01 1.128559589385986328e+00 1.710177958011627197e-02
-1.404983901977539062e+01 1.223256230354309082e+00 1.723006181418895721e-02
-1.393553066253662109e+01 1.299506545066833496e+00 1.709933578968048096e-02
-1.367454147338867188e+01 1.359854102134704590e+00 1.678901724517345428e-02
-1.394240188598632812e+01 1.472940564155578613e+00 1.712865754961967468e-02
-1.380887603759765625e+01 1.544566750526428223e+00 1.697594113647937775e-02
-1.412189674377441406e+01 1.667375445365905762e+00 1.737300306558609009e-02
-1.434382152557373047e+01 3.373641014099121094e+00 3.742268800735473633e+00
-1.469166278839111328e+01 3.452746868133544922e+00 3.240940570831298828e+00
-1.495880031585693359e+01 3.518283128738403320e+00 2.715144157409667969e+00
-1.404292774200439453e+01 1.745483517646789551e+00 1.728870533406734467e-02
-1.394035530090332031e+01 3.369146823883056641e+00 3.642330408096313477e+00
-1.491108798980712891e+01 3.603756189346313477e+00 2.710446357727050781e+00
-1.427489185333251953e+01 1.863327741622924805e+00 1.758802868425846100e-02
-1.386109733581542969e+01 3.440144777297973633e+00 3.627068996429443359e+00
-1.437812042236328125e+01 1.966601490974426270e+00 1.772974990308284760e-02
-1.376177120208740234e+01 3.505273580551147461e+00 3.606638193130493164e+00
-6.185855388641357422e+00 1.346472859382629395e+00 1.281877756118774414e-01
-1.437766170501708984e+01 2.056486129760742188e+00 1.774441078305244446e-02
-6.051624774932861328e+00 1.356199145317077637e+00 1.255762428045272827e-01
-1.389497947692871094e+01 2.074526786804199219e+00 1.716408878564834595e-02
-1.428513908386230469e+01 2.222467422485351562e+00 1.766255311667919159e-02
-1.428315162658691406e+01 3.348685979843139648e+00 4.156850814819335938e+00
-1.450698852539062500e+01 3.406507015228271484e+00 3.624347925186157227e+00
-1.475842475891113281e+01 3.470984935760498047e+00 3.101097106933593750e+00
-1.499136638641357422e+01 3.531292676925659180e+00 2.566301584243774414e+00
-1.403332996368408203e+01 2.271568298339843750e+00 1.736811734735965729e-02
-1.396291732788085938e+01 2.348179101943969727e+00 1.729847863316535950e-02
-6.141195297241210938e+00 1.301745891571044922e+00 6.683751940727233887e-02
-1.391081142425537109e+01 2.427278041839599609e+00 1.725205220282077789e-02
-6.131138324737548828e+00 1.338976383209228516e+00 6.681623309850692749e-02
-1.414166641235351562e+01 2.557070493698120117e+00 1.755748502910137177e-02
-6.115002155303955078e+00 1.374816417694091797e+00 6.673105806112289429e-02
-1.415225028991699219e+01 2.648761272430419922e+00 1.759047247469425201e-02
-1.439688587188720703e+01 2.786086559295654297e+00 1.791545189917087555e-02
-1.429974842071533203e+01 3.347146987915039062e+00 4.006687641143798828e+00
-1.457400798797607422e+01 3.419392824172973633e+00 3.489083051681518555e+00
-1.483820056915283203e+01 3.492309570312500000e+00 2.968585014343261719e+00
-1.407945632934570312e+01 2.814391136169433594e+00 1.754160225391387939e-02
-1.468676567077636719e+01 3.029622316360473633e+00 1.832106523215770721e-02
-6.152379989624023438e+00 1.308535456657409668e+00 7.684683427214622498e-03
-6.128605842590332031e+00 1.342836499214172363e+00 7.665135432034730911e-03
-6.130006313323974609e+00 1.382615923881530762e+00 7.677352987229824066e-03
-1.406345462799072266e+01 3.262805461883544922e+00 1.763811893761157990e-02
-1.430100250244140625e+01 3.344643115997314453e+00 3.861258983612060547e+00
-1.465022945404052734e+01 3.439805507659912109e+00 3.363769054412841797e+00
-1.489230346679687500e+01 3.510358572006225586e+00 2.830244064331054688e+00
-1.394200801849365234e+01 3.324910402297973633e+00 1.751106046140193939e-02
-1.401879215240478516e+01 3.369496107101440430e+00 3.790573358535766602e+00
-1.402721309661865234e+01 3.436329603195190430e+00 1.764422841370105743e-02
-1.397907447814941406e+01 3.450814723968505859e+00 3.785488128662109375e+00
-1.448106670379638672e+01 3.641843080520629883e+00 1.824287697672843933e-02
-1.445651149749755859e+01 3.730128765106201172e+00 1.824043132364749908e-02
-1.469243717193603516e+01 3.887310743331909180e+00 1.856785640120506287e-02
-1.387109661102294922e+01 3.761220455169677734e+00 1.755870692431926727e-02
-1.440178298950195312e+01 4.000143527984619141e+00 1.826120167970657349e-02
-1.438850975036621094e+01 4.091718196868896484e+00 1.827586255967617035e-02
-1.436697292327880859e+01 4.181045055389404297e+00 1.828074827790260315e-02
-1.431996250152587891e+01 4.262844085693359375e+00 1.825387217104434967e-02
-1.453079032897949219e+01 4.422843933105468750e+00 1.855686120688915253e-02
-1.405554771423339844e+01 4.372601985931396484e+00 1.798386871814727783e-02
-1.444015884399414062e+01 4.589618206024169922e+00 1.851165667176246643e-02
-1.432517147064208984e+01 4.650039196014404297e+00 1.840047910809516907e-02
-1.430491256713867188e+01 4.740680217742919922e+00 1.841147430241107941e-02
-1.439396572113037109e+01 4.868413925170898438e+00 1.856419071555137634e-02
-1.409063148498535156e+01 4.862369537353515625e+00 1.821111142635345459e-02
-1.406619071960449219e+01 4.950728416442871094e+00 1.821844093501567841e-02
-1.421532249450683594e+01 5.101459503173828125e+00 1.845179125666618347e-02
-1.416872692108154297e+01 5.183090209960937500e+00 1.843224465847015381e-02
-1.384149932861328125e+01 5.159899711608886719e+00 1.804739795625209808e-02
-1.401431083679199219e+01 5.322487831115722656e+00 1.831495761871337891e-02
-1.409890270233154297e+01 5.453835010528564453e+00 1.846889592707157135e-02
-1.401399898529052734e+01 5.520084381103515625e+00 1.840170100331306458e-02
-1.395851802825927734e+01 5.597408771514892578e+00 1.837360113859176636e-02
-1.389706039428710938e+01 5.671992778778076172e+00 1.833817176520824432e-02
-1.404485321044921875e+01 5.833100795745849609e+00 1.858007349073886871e-02
-8.645587921142578125e+00 4.027027130126953125e+00 1.015444770455360413e-01
-1.396918773651123047e+01 5.902431964874267578e+00 1.852753944694995880e-02
-8.635177612304687500e+00 4.086843967437744141e+00 1.017148271203041077e-01
-1.390698337554931641e+01 5.976978302001953125e+00 1.849333010613918304e-02
-1.394426727294921875e+01 6.094636917114257812e+00 1.859229058027267456e-02
-1.392945480346679688e+01 6.190235137939453125e+00 1.862283423542976379e-02
-1.390396881103515625e+01 6.281352043151855469e+00 1.863993890583515167e-02
-1.394150161743164062e+01 6.401598930358886719e+00 1.874256320297718048e-02
-8.657801628112792969e+00 4.039958953857421875e+00 1.167241111397743225e-02
-8.622006416320800781e+00 4.087865352630615234e+00 1.165775023400783539e-02
-1.392851924896240234e+01 6.708771228790283203e+00 1.888795010745525360e-02
-1.389877033233642578e+01 6.799821853637695312e+00 1.890383101999759674e-02
-1.372693157196044922e+01 6.820455074310302734e+00 1.872668042778968811e-02
-1.377142524719238281e+01 6.948247432708740234e+00 1.884518936276435852e-02
-3.563682079315185547e+00 4.399406909942626953e+00 6.027939543128013611e-02
-3.516008138656616211e+00 4.395422458648681641e+00 5.992806702852249146e-02
-3.536329746246337891e+00 4.371779441833496094e+00 6.869788747280836105e-03
-9.078052043914794922e-01 2.794974565505981445e+00 8.721876144409179688e-02
-8.888209462165832520e-01 2.794777154922485352e+00 8.704076707363128662e-02
-8.692790269851684570e-01 2.792542934417724609e+00 8.680343627929687500e-02
-8.492156863212585449e-01 2.788262128829956055e+00 8.650676906108856201e-02
-9.131858944892883301e-01 2.818130970001220703e+00 5.998426675796508789e-02
-8.949699401855468750e-01 2.820822238922119141e+00 5.992353335022926331e-02
-8.726043105125427246e-01 2.810028791427612305e+00 5.957937613129615784e-02
-8.611586093902587891e-01 2.834462404251098633e+00 5.998426675796508789e-02
-9.299188852310180664e-01 2.817329168319702148e+00 3.158759698271751404e-02
-9.129221439361572266e-01 2.823933362960815430e+00 3.159824013710021973e-02
-8.961810469627380371e-01 2.831388235092163086e+00 3.161953389644622803e-02
-8.755363821983337402e-01 2.826327085494995117e+00 3.150242567062377930e-02
-8.564376831054687500e-01 2.825904369354248047e+00 3.143854439258575439e-02
-8.530336022377014160e-01 2.701520204544067383e+00 3.461161861196160316e-03
-8.919809758663177490e-02 6.860841512680053711e-01 1.400915067642927170e-02
-4.917808622121810913e-02 7.191736102104187012e-01 4.068057239055633545e-02
-4.327638074755668640e-02 6.955461502075195312e-01 3.932830691337585449e-02
-3.439408168196678162e-02 6.940059065818786621e-01 1.406988408416509628e-02
-1.840435527265071869e-02 7.266104817390441895e-01 4.101863875985145569e-02
-1.842554099857807159e-02 7.376186847686767578e-01 1.494039501994848251e-02
-9.740352630615234375e-03 7.268019914627075195e-01 6.755739450454711914e-02
-6.070606410503387451e-03 7.449797391891479492e-01 1.450840979814529419e-01
