-7.920759320259094238e-01 -4.997266292572021484e+00 1.086542367935180664e+00
-6.000130772590637207e-01 -4.953483581542968750e+00 1.020606756210327148e+00
-4.111522436141967773e-01 -4.889564990997314453e+00 9.555670619010925293e-01
-2.424836009740829468e-01 -5.110456466674804688e+00 9.463856220245361328e-01
-7.914018630981445312e-01 -4.987383365631103516e+00 8.922306895256042480e-01
-6.000192165374755859e-01 -4.939091682434082031e+00 8.290268778800964355e-01
-4.144201874732971191e-01 -4.918148517608642578e+00 7.746559977531433105e-01
-2.456443905830383301e-01 -5.101834297180175781e+00 7.533352375030517578e-01
-7.954519391059875488e-01 -5.007260322570800781e+00 7.062334418296813965e-01
-5.977894067764282227e-01 -4.906430244445800781e+00 6.401919722557067871e-01
-4.163483083248138428e-01 -4.890023708343505859e+00 5.895538926124572754e-01
-2.446492165327072144e-01 -5.026377201080322266e+00 5.564631819725036621e-01
-7.942916750907897949e-01 -4.988717555999755859e+00 5.175724029541015625e-01
-8.370050191879272461e-01 -5.067945003509521484e+00 1.513731598854064941e+00
-6.359913945198059082e-01 -5.021614551544189453e+00 1.434233427047729492e+00
-4.406383633613586426e-01 -4.948840141296386719e+00 1.355477929115295410e+00
-2.663681507110595703e-01 -5.137289047241210938e+00 1.352432250976562500e+00
-8.319137692451477051e-01 -5.042592048645019531e+00 1.297966361045837402e+00
-6.302405595779418945e-01 -4.962310791015625000e+00 1.216623902320861816e+00
-4.397034049034118652e-01 -4.909239768981933594e+00 1.148802876472473145e+00
-2.695082128047943115e-01 -5.111583709716796875e+00 1.144161343574523926e+00
-8.278110623359680176e-01 -5.023182392120361328e+00 1.093261003494262695e+00
-6.308908462524414062e-01 -4.953596115112304688e+00 1.021408200263977051e+00
-4.418523311614990234e-01 -4.894771575927734375e+00 9.570963382720947266e-01
-2.741519808769226074e-01 -5.114763736724853516e+00 9.474769830703735352e-01
-8.237522840499877930e-01 -4.993121623992919922e+00 8.941445946693420410e-01
-6.303136348724365234e-01 -4.935317516326904297e+00 8.290268778800964355e-01
-4.455684721469879150e-01 -4.926335811614990234e+00 7.763616442680358887e-01
-2.773731648921966553e-01 -5.108134269714355469e+00 7.545025944709777832e-01
-8.266450762748718262e-01 -5.005216598510742188e+00 7.066473364830017090e-01
-6.257417798042297363e-01 -4.885947227478027344e+00 6.380082964897155762e-01
-4.458032846450805664e-01 -4.881444454193115234e+00 5.888382196426391602e-01
-2.787505686283111572e-01 -5.084328174591064453e+00 5.630576014518737793e-01
-4.080867767333984375e-02 -7.303455471992492676e-01 2.746154740452766418e-02
-8.701930046081542969e-01 -5.075004100799560547e+00 1.517406463623046875e+00
-6.665380001068115234e-01 -5.015710353851318359e+00 1.433688163757324219e+00
-4.712699949741363525e-01 -4.948924541473388672e+00 1.356267571449279785e+00
-2.952527701854705811e-01 -5.090178966522216797e+00 1.340481877326965332e+00
-8.636570572853088379e-01 -5.042169094085693359e+00 1.299197196960449219e+00
-6.623452901840209961e-01 -4.970871448516845703e+00 1.219696164131164551e+00
-4.705602824687957764e-01 -4.914205074310302734e+00 1.150618791580200195e+00
-3.001215159893035889e-01 -5.097168922424316406e+00 1.141325473785400391e+00
-8.617501854896545410e-01 -5.036318778991699219e+00 1.097250342369079590e+00
-6.628305315971374512e-01 -4.961284637451171875e+00 1.023813009262084961e+00
-4.722546935081481934e-01 -4.895875930786132812e+00 9.578608870506286621e-01
-3.050611913204193115e-01 -5.105133056640625000e+00 9.460218548774719238e-01
-8.575327992439270020e-01 -5.006414890289306641e+00 8.974504470825195312e-01
-6.611081957817077637e-01 -4.935267925262451172e+00 8.296843171119689941e-01
-4.758825302124023438e-01 -4.924492359161376953e+00 7.765166759490966797e-01
-3.082929551601409912e-01 -5.099423408508300781e+00 7.534811496734619141e-01
-8.611907958984375000e-01 -5.022502899169921875e+00 7.098205089569091797e-01
-6.645545363426208496e-01 -4.947869777679443359e+00 6.466144919395446777e-01
-4.758432209491729736e-01 -4.879605293273925781e+00 5.889574885368347168e-01
-3.050416707992553711e-01 -5.002162456512451172e+00 5.541551113128662109e-01
-8.554511070251464844e-01 -4.978594779968261719e+00 5.175724029541015625e-01
-9.040027856826782227e-01 -5.084680080413818359e+00 1.521929264068603516e+00
-6.939864754676818848e-01 -4.987702369689941406e+00 1.426872730255126953e+00
-5.034767389297485352e-01 -4.964176654815673828e+00 1.361268401145935059e+00
-3.163239061832427979e-01 -4.929986953735351562e+00 1.298782467842102051e+00
-8.961043357849121094e-01 -5.045363426208496094e+00 1.301412463188171387e+00
-6.921622753143310547e-01 -4.961902141571044922e+00 1.218514442443847656e+00
-5.010995864868164062e-01 -4.915101051330566406e+00 1.151526808738708496e+00
-3.189769983291625977e-01 -4.904355049133300781e+00 1.098569393157958984e+00
-8.929778337478637695e-01 -5.032861709594726562e+00 1.097670197486877441e+00
-6.955667138099670410e-01 -4.973618984222412109e+00 1.027219772338867188e+00
-5.042910575866699219e-01 -4.912414550781250000e+00 9.616839289665222168e-01
-3.247382938861846924e-01 -4.926551342010498047e+00 9.132812619209289551e-01
-8.894408345222473145e-01 -5.007845878601074219e+00 8.986684083938598633e-01
-6.946650147438049316e-01 -4.954562187194824219e+00 8.336288928985595703e-01
-5.058875679969787598e-01 -4.919514179229736328e+00 7.762065529823303223e-01
-3.281346559524536133e-01 -4.925678730010986328e+00 7.280927896499633789e-01
-8.945926427841186523e-01 -5.031751155853271484e+00 7.118899226188659668e-01
-6.975243687629699707e-01 -4.962358474731445312e+00 6.490550041198730469e-01
-5.016779899597167969e-01 -4.837091445922851562e+00 5.841866731643676758e-01
-3.367274105548858643e-01 -5.015071868896484375e+00 5.558037161827087402e-01
-8.875533938407897949e-01 -4.982066631317138672e+00 5.184897184371948242e-01
-9.372691512107849121e-01 -5.090357780456542969e+00 1.525321483612060547e+00
-7.238851785659790039e-01 -4.978589534759521484e+00 1.425509691238403320e+00
-5.345462560653686523e-01 -4.966749191284179688e+00 1.362847685813903809e+00
-3.461606800556182861e-01 -4.922164440155029297e+00 1.297256827354431152e+00
-9.326562881469726562e-01 -5.070273876190185547e+00 1.309289455413818359e+00
-7.275000810623168945e-01 -4.991214752197265625e+00 1.226786136627197266e+00
-5.326099991798400879e-01 -4.924520969390869141e+00 1.154477715492248535e+00
-3.501032590866088867e-01 -4.916906833648681641e+00 1.101841568946838379e+00
-9.261392951011657715e-01 -5.039788722991943359e+00 1.100399613380432129e+00
-7.279125452041625977e-01 -4.981860160827636719e+00 1.029824852943420410e+00
-5.350609421730041504e-01 -4.915082454681396484e+00 9.628308415412902832e-01
-3.529107570648193359e-01 -4.896023273468017578e+00 9.080063700675964355e-01
-9.238928556442260742e-01 -5.022632598876953125e+00 9.023222327232360840e-01
-7.273398041725158691e-01 -4.965822696685791016e+00 8.362587094306945801e-01
-5.372415184974670410e-01 -4.927120208740234375e+00 7.779121398925781250e-01
-3.561974465847015381e-01 -4.893971920013427734e+00 7.237154245376586914e-01
-9.270641207695007324e-01 -5.034933567047119141e+00 7.131316065788269043e-01
-7.308410406112670898e-01 -4.977609157562255859e+00 6.516240239143371582e-01
-5.367724895477294922e-01 -4.883267879486083984e+00 5.901502370834350586e-01
-3.602986335754394531e-01 -4.914774417877197266e+00 5.449228286743164062e-01
-9.213547110557556152e-01 -4.994135856628417969e+00 5.203243494033813477e-01
-5.456198006868362427e-02 -7.389644980430603027e-01 5.480396375060081482e-02
-9.727928638458251953e-01 -5.107125282287597656e+00 1.532105565071105957e+00
-7.567280530929565430e-01 -4.989274501800537109e+00 1.429871559143066406e+00
-5.671939849853515625e-01 -4.982546329498291016e+00 1.368111610412597656e+00
-3.779051005840301514e-01 -4.940198421478271484e+00 1.302596449851989746e+00
-9.677354693412780762e-01 -5.085402965545654297e+00 1.314704775810241699e+00
-7.603024840354919434e-01 -5.001066207885742188e+00 1.230330944061279297e+00
-5.639228224754333496e-01 -4.930836200714111328e+00 1.156747579574584961e+00
-3.803415000438690186e-01 -4.915639400482177734e+00 1.102059721946716309e+00
-9.612454771995544434e-01 -5.056102752685546875e+00 1.105228781700134277e+00
-7.612712383270263672e-01 -4.995702266693115234e+00 1.033632397651672363e+00
-5.662191510200500488e-01 -4.920483112335205078e+00 9.645511507987976074e-01
-3.827154338359832764e-01 -4.890824794769287109e+00 9.074606895446777344e-01
-9.565346240997314453e-01 -5.026542663574218750e+00 9.040620923042297363e-01
-7.589873075485229492e-01 -4.969067096710205078e+00 8.375735282897949219e-01
-5.706306695938110352e-01 -4.951210498809814453e+00 7.822536826133728027e-01
-3.878548145294189453e-01 -4.912405014038085938e+00 7.267795801162719727e-01
-9.603496789932250977e-01 -5.041799068450927734e+00 7.149251103401184082e-01
-7.583676576614379883e-01 -4.953424930572509766e+00 6.490550041198730469e-01
-5.634040236473083496e-01 -4.851281642913818359e+00 5.866913795471191406e-01
-3.853295147418975830e-01 -4.848068237304687500e+00 5.377787947654724121e-01
-9.523537755012512207e-01 -4.990343093872070312e+00 5.205282568931579590e-01
-5.941329523921012878e-02 -7.425922155380249023e-01 5.509900674223899841e-02
-1.006705045700073242e+00 -5.114236831665039062e+00 1.536063194274902344e+00
-7.967842817306518555e-01 -5.044408321380615234e+00 1.447046279907226562e+00
-5.985605716705322266e-01 -4.985677719116210938e+00 1.369953989982604980e+00
-4.098837673664093018e-01 -4.958027362823486328e+00 1.307935953140258789e+00
-1.000604033470153809e+00 -5.087928771972656250e+00 1.316920161247253418e+00
-7.921896576881408691e-01 -5.003984928131103516e+00 1.232221603393554688e+00
-5.971987247467041016e-01 -4.952422142028808594e+00 1.162649393081665039e+00
-4.118774831295013428e-01 -4.929746150970458984e+00 1.105768084526062012e+00
-9.941359758377075195e-01 -5.059702873229980469e+00 1.107328295707702637e+00
-7.934451699256896973e-01 -5.000612735748291016e+00 1.035636186599731445e+00
-6.001821756362915039e-01 -4.948097705841064453e+00 9.706680178642272949e-01
-4.132968187332153320e-01 -4.895243167877197266e+00 9.087339639663696289e-01
-9.898291826248168945e-01 -5.033139705657958984e+00 9.063239693641662598e-01
-7.903921604156494141e-01 -4.970161437988281250e+00 8.385596871376037598e-01
-6.011191010475158691e-01 -4.948596477508544922e+00 7.824087142944335938e-01
-4.188286066055297852e-01 -4.919789791107177734e+00 7.282386422157287598e-01
-9.929891824722290039e-01 -5.044557571411132812e+00 7.161667943000793457e-01
-7.901518344879150391e-01 -4.957492351531982422e+00 6.502110362052917480e-01
-5.985866785049438477e-01 -4.892081260681152344e+00 5.920585393905639648e-01
-4.254186153411865234e-01 -4.966431140899658203e+00 5.511875748634338379e-01
-9.860355854034423828e-01 -5.000021457672119141e+00 5.221589803695678711e-01
-1.004148125648498535e+00 -5.082520484924316406e+00 3.413815200328826904e-01
-9.027639776468276978e-02 -7.304005026817321777e-01 7.835682481527328491e-03
-1.039403676986694336e+00 -5.114543437957763672e+00 1.538041949272155762e+00
-8.285009264945983887e-01 -5.044171810150146484e+00 1.448409438133239746e+00
-6.325252652168273926e-01 -5.008710861206054688e+00 1.377323508262634277e+00
-4.408115148544311523e-01 -4.961199283599853516e+00 1.309461474418640137e+00
-1.033347010612487793e+00 -5.089292049407958984e+00 1.318889379501342773e+00
-8.250880837440490723e-01 -5.012452602386474609e+00 1.235530257225036621e+00
-6.279425621032714844e-01 -4.951563358306884766e+00 1.163330435752868652e+00
-4.436880648136138916e-01 -4.944622516632080078e+00 1.109694719314575195e+00
-1.027495622634887695e+00 -5.065006256103515625e+00 1.109847903251647949e+00
-8.274621963500976562e-01 -5.015949726104736328e+00 1.039844512939453125e+00
-6.305318474769592285e-01 -4.944321632385253906e+00 9.706680178642272949e-01
-4.443018138408660889e-01 -4.903387546539306641e+00 9.107347726821899414e-01
-1.021869063377380371e+00 -5.032762050628662109e+00 9.073679447174072266e-01
-8.242523670196533203e-01 -4.985654830932617188e+00 8.420112133026123047e-01
-6.302204132080078125e-01 -4.935015678405761719e+00 7.808582186698913574e-01
-4.499976038932800293e-01 -4.927964687347412109e+00 7.298436760902404785e-01
-1.031615972518920898e+00 -5.076222896575927734e+00 7.215473055839538574e-01
-8.241217732429504395e-01 -4.974075317382812500e+00 6.530368924140930176e-01
-6.326448321342468262e-01 -4.919828414916992188e+00 5.958752036094665527e-01
-4.434302151203155518e-01 -4.828127861022949219e+00 5.361302495002746582e-01
-1.012727379798889160e+00 -4.974381446838378906e+00 5.201205015182495117e-01
-1.036710858345031738e+00 -5.083107471466064453e+00 3.418417870998382568e-01
-1.075489401817321777e+00 -5.130600452423095703e+00 1.544826030731201172e+00
-8.600828647613525391e-01 -5.042787075042724609e+00 1.449499964714050293e+00
-6.643869280815124512e-01 -5.013342857360839844e+00 1.379692316055297852e+00
-4.720681309700012207e-01 -4.967066287994384766e+00 1.311749935150146484e+00
-1.066144347190856934e+00 -5.090444564819335938e+00 1.320858597755432129e+00
-8.600845932960510254e-01 -5.032197952270507812e+00 1.241674780845642090e+00
-6.604966521263122559e-01 -4.964028358459472656e+00 1.167189240455627441e+00
-4.739261567592620850e-01 -4.940835475921630859e+00 1.109476566314697266e+00
-1.063560962677001953e+00 -5.082530975341796875e+00 1.115096926689147949e+00
-8.616971373558044434e-01 -5.031056880950927734e+00 1.044052720069885254e+00
-6.620290875434875488e-01 -4.949116230010986328e+00 9.723884463310241699e-01
-4.779802858829498291e-01 -4.937761306762695312e+00 9.176466464996337891e-01
-1.058382391929626465e+00 -5.053384304046630859e+00 9.122396707534790039e-01
-8.549950718879699707e-01 -4.981475830078125000e+00 8.421755433082580566e-01
-6.616696119308471680e-01 -4.939868450164794922e+00 7.822536826133728027e-01
-4.813786447048187256e-01 -4.936926364898681641e+00 7.315946221351623535e-01
-1.065182089805603027e+00 -5.081429958343505859e+00 7.232028841972351074e-01
-8.527775406837463379e-01 -4.958174228668212891e+00 6.516240239143371582e-01
-6.621570587158203125e-01 -4.910933971405029297e+00 5.952788591384887695e-01
-4.810956716537475586e-01 -4.907420158386230469e+00 5.452525615692138672e-01
-1.061425328254699707e+00 -5.054720401763916016e+00 5.291917920112609863e-01
-1.067059040069580078e+00 -5.072744369506835938e+00 3.415787518024444580e-01
-1.109380483627319336e+00 -5.135156154632568359e+00 1.548218131065368652e+00
-8.972089290618896484e-01 -5.072468757629394531e+00 1.459586620330810547e+00
-6.964617967605590820e-01 -5.018727779388427734e+00 1.382324337959289551e+00
-5.032184720039367676e-01 -4.970811843872070312e+00 1.313529849052429199e+00
-1.103084683418273926e+00 -5.110334396362304688e+00 1.327750921249389648e+00
-8.946760296821594238e-01 -5.047874450683593750e+00 1.246873974800109863e+00
-6.922866702079772949e-01 -4.969528675079345703e+00 1.169459104537963867e+00
-5.053241848945617676e-01 -4.948513984680175781e+00 1.111876130104064941e+00
-1.097406387329101562e+00 -5.088334083557128906e+00 1.117826342582702637e+00
-8.918656706809997559e-01 -5.021816730499267578e+00 1.043251276016235352e+00
-6.961948275566101074e-01 -4.972178936004638672e+00 9.777406454086303711e-01
-5.098807811737060547e-01 -4.950386047363281250e+00 9.205569624900817871e-01
-1.091862797737121582e+00 -5.058346271514892578e+00 9.143276214599609375e-01
-8.876186609268188477e-01 -4.987789630889892578e+00 8.441479206085205078e-01
-6.977283358573913574e-01 -4.976805686950683594e+00 7.887660861015319824e-01
-5.113558173179626465e-01 -4.930927753448486328e+00 7.311568856239318848e-01
-1.097595930099487305e+00 -5.080606937408447266e+00 7.240306735038757324e-01
-8.936299681663513184e-01 -5.011426925659179688e+00 6.593309640884399414e-01
-6.965773701667785645e-01 -4.937255859375000000e+00 5.989762544631958008e-01
-5.068701505661010742e-01 -4.862854957580566406e+00 5.406364202499389648e-01
-1.090106010437011719e+00 -5.037417411804199219e+00 5.280706286430358887e-01
-1.097319245338439941e+00 -5.062201023101806641e+00 3.413157761096954346e-01
-9.536247700452804565e-02 -6.725232601165771484e-01 3.191383555531501770e-02
-1.145242691040039062e+00 -5.147914886474609375e+00 1.554154396057128906e+00
-9.309170246124267578e-01 -5.081064224243164062e+00 1.463675975799560547e+00
-7.275199890136718750e-01 -5.016269207000732422e+00 1.382850766181945801e+00
-5.338125824928283691e-01 -4.968592166900634766e+00 1.313784122467041016e+00
-1.140729665756225586e+00 -5.131854057312011719e+00 1.335135579109191895e+00
-9.256323575973510742e-01 -5.042289733886718750e+00 1.246873974800109863e+00
-7.245898246765136719e-01 -4.977715492248535156e+00 1.172410011291503906e+00
-5.366240739822387695e-01 -4.954052448272705078e+00 1.113839507102966309e+00
-1.128607153892517090e+00 -5.081504821777343750e+00 1.117826342582702637e+00
-9.283335804939270020e-01 -5.047083377838134766e+00 1.049663901329040527e+00
-7.301001548767089844e-01 -4.991123199462890625e+00 9.823283553123474121e-01
-5.403529405593872070e-01 -4.948141574859619141e+00 9.207388162612915039e-01
-1.125657558441162109e+00 -5.064048290252685547e+00 9.165894985198974609e-01
-9.257152080535888672e-01 -5.022992134094238281e+00 8.510510325431823730e-01
-7.309723496437072754e-01 -4.991003036499023438e+00 7.917121052742004395e-01
-5.431149601936340332e-01 -4.941464424133300781e+00 7.331995964050292969e-01
-1.131545424461364746e+00 -5.086345195770263672e+00 7.258241772651672363e-01
-9.272439479827880859e-01 -5.021452903747558594e+00 6.613861322402954102e-01
-7.351086139678955078e-01 -4.988877296447753906e+00 6.057746410369873047e-01
-5.414992570877075195e-01 -4.903122425079345703e+00 5.454723834991455078e-01
-1.128350973129272461e+00 -5.063646793365478516e+00 5.315360426902770996e-01
-9.381712079048156738e-01 -5.070716381072998047e+00 4.792873561382293701e-01
-1.137706398963928223e+00 -5.097249031066894531e+00 3.441430628299713135e-01
-1.183015465736389160e+00 -5.167907238006591797e+00 1.562352061271667480e+00
-9.638681411743164062e-01 -5.084709167480468750e+00 1.466402053833007812e+00
-7.604503631591796875e-01 -5.026019096374511719e+00 1.386798739433288574e+00
-5.678932070732116699e-01 -4.996934413909912109e+00 1.322174787521362305e+00
-1.175654530525207520e+00 -5.139875411987304688e+00 1.339073896408081055e+00
-9.587295055389404297e-01 -5.047970771789550781e+00 1.249709963798522949e+00
-7.552650570869445801e-01 -4.974138736724853516e+00 1.172636985778808594e+00
-5.673445463180541992e-01 -4.953575134277343750e+00 1.114493846893310547e+00
-1.161725878715515137e+00 -5.083062171936035156e+00 1.119715929031372070e+00
-9.616652131080627441e-01 -5.053803920745849609e+00 1.052268981933593750e+00
-7.607113718986511230e-01 -4.986549377441406250e+00 9.823283553123474121e-01
-5.708166956901550293e-01 -4.945709705352783203e+00 9.209207296371459961e-01
-1.161319732666015625e+00 -5.077204704284667969e+00 9.202433228492736816e-01
-9.561487436294555664e-01 -5.015279293060302734e+00 8.507222533226013184e-01
-7.612844705581665039e-01 -4.984470367431640625e+00 7.914019823074340820e-01
-5.758213996887207031e-01 -4.958675384521484375e+00 7.362636923789978027e-01
-1.169805645942687988e+00 -5.110201358795166016e+00 7.302390336990356445e-01
-9.597122073173522949e-01 -5.024435997009277344e+00 6.625422239303588867e-01
-7.577156424522399902e-01 -4.932260990142822266e+00 5.994532704353332520e-01
-5.709981918334960938e-01 -4.894771099090576172e+00 5.449228286743164062e-01
-1.159844398498535156e+00 -5.058567523956298828e+00 5.317399501800537109e-01
-9.623422026634216309e-01 -5.028679370880126953e+00 4.758631885051727295e-01
-1.176554679870605469e+00 -5.123238086700439453e+00 3.463786244392395020e-01
-7.897491008043289185e-02 -6.708918809890747070e-01 2.536066435277462006e-02
-1.217779755592346191e+00 -5.173622608184814453e+00 1.566309452056884766e+00
-9.978240132331848145e-01 -5.092861652374267578e+00 1.470491290092468262e+00
-7.926267385482788086e-01 -5.029835224151611328e+00 1.389167547225952148e+00
-5.972769856452941895e-01 -4.982792854309082031e+00 1.319377899169921875e+00
-1.210054755210876465e+00 -5.144830226898193359e+00 1.342273950576782227e+00
-9.908081293106079102e-01 -5.047713756561279297e+00 1.251127958297729492e+00
-7.918557524681091309e-01 -5.007888793945312500e+00 1.181716680526733398e+00
-5.994833707809448242e-01 -4.964533805847167969e+00 1.117766022682189941e+00
-1.196919441223144531e+00 -5.092970371246337891e+00 1.123495221138000488e+00
-9.943580627441406250e-01 -5.056459903717041016e+00 1.054072499275207520e+00
-7.923717498779296875e-01 -4.988573551177978516e+00 9.836664199829101562e-01
-6.028145551681518555e-01 -4.955780029296875000e+00 9.234672188758850098e-01
-1.197862029075622559e+00 -5.092989921569824219e+00 9.244191646575927734e-01
-9.901453256607055664e-01 -5.025771141052246094e+00 8.535163998603820801e-01
-7.937160134315490723e-01 -4.991413116455078125e+00 7.932626605033874512e-01
-6.077982783317565918e-01 -4.967814445495605469e+00 7.381605505943298340e-01
-1.205904722213745117e+00 -5.123173236846923828e+00 7.331362366676330566e-01
-1.001469492912292480e+00 -5.073910713195800781e+00 6.698638200759887695e-01
-7.929820418357849121e-01 -4.958891868591308594e+00 6.032699346542358398e-01
-5.987179875373840332e-01 -4.872431755065917969e+00 5.428345799446105957e-01
-1.191317796707153320e+00 -5.053292274475097656e+00 5.319437980651855469e-01
-9.862260818481445312e-01 -4.987515449523925781e+00 4.725316166877746582e-01
-1.207280278205871582e+00 -5.113008975982666016e+00 3.461813628673553467e-01
-1.041093111038208008e+00 -5.255346775054931641e+00 3.023434281349182129e-01
-1.251305580139160156e+00 -5.173511981964111328e+00 1.568570852279663086e+00
-1.023712635040283203e+00 -5.060238838195800781e+00 1.462858080863952637e+00
-8.245664834976196289e-01 -5.031541347503662109e+00 1.391009926795959473e+00
-6.301384568214416504e-01 -4.997265338897705078e+00 1.324208855628967285e+00
-1.245243191719055176e+00 -5.152382373809814453e+00 1.346212387084960938e+00
-1.022726774215698242e+00 -5.046300888061523438e+00 1.252309560775756836e+00
-8.246227502822875977e-01 -5.015428543090820312e+00 1.184667587280273438e+00
-6.321467757225036621e-01 -4.978188514709472656e+00 1.121692538261413574e+00
-1.235032200813293457e+00 -5.114041805267333984e+00 1.129794001579284668e+00
-1.027314543724060059e+00 -5.059864997863769531e+00 1.056076526641845703e+00
-8.248852491378784180e-01 -4.995239257812500000e+00 9.859602451324462891e-01
-6.339596509933471680e-01 -4.957839965820312500e+00 9.245585799217224121e-01
-1.233253598213195801e+00 -5.102773666381835938e+00 9.275510311126708984e-01
-1.022930264472961426e+00 -5.029266834259033203e+00 8.551599383354187012e-01
-8.261002302169799805e-01 -4.997170925140380859e+00 7.949682474136352539e-01
-6.396566033363342285e-01 -4.974785327911376953e+00 7.397655844688415527e-01
-1.240111351013183594e+00 -5.127229690551757812e+00 7.347918152809143066e-01
-1.039711713790893555e+00 -5.102653503417968750e+00 6.744880080223083496e-01
-8.313710689544677734e-01 -5.001924991607666016e+00 6.091142296791076660e-01
-6.307670474052429199e-01 -4.885424137115478516e+00 5.447030067443847656e-01
-1.227220058441162109e+00 -5.066190719604492188e+00 5.340842008590698242e-01
-1.017606854438781738e+00 -4.985272407531738281e+00 4.729017615318298340e-01
-1.239806652069091797e+00 -5.110353469848632812e+00 3.465101420879364014e-01
-1.074119806289672852e+00 -5.252772808074951172e+00 3.025687932968139648e-01
-1.286263108253479004e+00 -5.178769588470458984e+00 1.572528362274169922e+00
-1.062408328056335449e+00 -5.090593338012695312e+00 1.473490118980407715e+00
-8.589847683906555176e-01 -5.047310829162597656e+00 1.396800279617309570e+00
-6.625655293464660645e-01 -5.006727695465087891e+00 1.327768564224243164e+00
-1.282203912734985352e+00 -5.166280746459960938e+00 1.351873874664306641e+00
-1.056057095527648926e+00 -5.051343917846679688e+00 1.255145549774169922e+00
-8.566924333572387695e-01 -5.017954349517822266e+00 1.186483502388000488e+00
-6.640981435775756836e-01 -4.984857559204101562e+00 1.124092221260070801e+00
-1.268035650253295898e+00 -5.113010406494140625e+00 1.131263852119445801e+00
-1.059546828269958496e+00 -5.059219360351562500e+00 1.057278752326965332e+00
-8.578420281410217285e-01 -5.003628253936767578e+00 9.886363148689270020e-01
-6.652833819389343262e-01 -4.960679054260253906e+00 9.258317947387695312e-01
-1.266912460327148438e+00 -5.104667663574218750e+00 9.292908906936645508e-01
-1.055187702178955078e+00 -5.029653072357177734e+00 8.563104271888732910e-01
-8.600888252258300781e-01 -5.011481285095214844e+00 7.980693578720092773e-01
-6.696405410766601562e-01 -4.966845512390136719e+00 7.391819953918457031e-01
-1.274651765823364258e+00 -5.132019996643066406e+00 7.365853190422058105e-01
-1.063046932220458984e+00 -5.058327674865722656e+00 6.694784760475158691e-01
-8.593459129333496094e-01 -4.981074810028076172e+00 6.072058677673339844e-01
-6.661976575851440430e-01 -4.921845436096191406e+00 5.492092370986938477e-01
-1.263085126876831055e+00 -5.077872753143310547e+00 5.361226797103881836e-01
-1.059048295021057129e+00 -5.030575275421142578e+00 4.778065979480743408e-01
-1.274757862091064453e+00 -5.117173671722412109e+00 3.474963903427124023e-01
-1.123223662376403809e+00 -5.326190948486328125e+00 3.071890175342559814e-01
-1.319673657417297363e+00 -5.177286148071289062e+00 1.574507117271423340e+00
-1.098074913024902344e+00 -5.104671955108642578e+00 1.479487657546997070e+00
-8.924536705017089844e-01 -5.056195735931396484e+00 1.400748252868652344e+00
-6.944686770439147949e-01 -5.011190414428710938e+00 1.330057024955749512e+00
-1.321056604385375977e+00 -5.186493396759033203e+00 1.359258532524108887e+00
-1.093376636505126953e+00 -5.074215412139892578e+00 1.262471795082092285e+00
-8.881450891494750977e-01 -5.016439437866210938e+00 1.187391400337219238e+00
-6.969638466835021973e-01 -4.997119903564453125e+00 1.127800583839416504e+00
-1.302037358283996582e+00 -5.115555763244628906e+00 1.133573293685913086e+00
-1.094910502433776855e+00 -5.072733879089355469e+00 1.061487078666687012e+00
-8.911044597625732422e-01 -5.012766361236572266e+00 9.915035963058471680e-01
-6.969391703605651855e-01 -4.965267658233642578e+00 9.274688959121704102e-01
-1.304772973060607910e+00 -5.122563362121582031e+00 9.339886903762817383e-01
-1.095826506614685059e+00 -5.068398475646972656e+00 8.640353679656982422e-01
-8.932455778121948242e-01 -5.019726276397705078e+00 8.002401590347290039e-01
-7.016240358352661133e-01 -4.973418235778808594e+00 7.407869696617126465e-01
-1.309297561645507812e+00 -5.136579036712646484e+00 7.383788228034973145e-01
-1.097212910652160645e+00 -5.066247940063476562e+00 6.714051961898803711e-01
-8.989824652671813965e-01 -5.026530742645263672e+00 6.134079098701477051e-01
-6.889988780021667480e-01 -4.865506649017333984e+00 5.433841347694396973e-01
-1.294464588165283203e+00 -5.070990562438964844e+00 5.362246036529541016e-01
-1.091584205627441406e+00 -5.031767368316650391e+00 4.785470068454742432e-01
-1.311075091361999512e+00 -5.128590583801269531e+00 3.488114178180694580e-01
-1.155035376548767090e+00 -5.315296173095703125e+00 3.069636523723602295e-01
-1.359665274620056152e+00 -5.200644016265869141e+00 1.584118008613586426e+00
-1.135202884674072266e+00 -5.124140262603759766e+00 1.487120985984802246e+00
-9.250227808952331543e-01 -5.059165954589843750e+00 1.403117179870605469e+00
-7.282536625862121582e-01 -5.027891635894775391e+00 1.335650801658630371e+00
-1.356775283813476562e+00 -5.193293571472167969e+00 1.363196969032287598e+00
-1.131858348846435547e+00 -5.100611686706542969e+00 1.270743370056152344e+00
-9.210165739059448242e-01 -5.022390365600585938e+00 1.190115213394165039e+00
-7.295827865600585938e-01 -5.006269454956054688e+00 1.130854606628417969e+00
-1.342045426368713379e+00 -5.140581130981445312e+00 1.140921950340270996e+00
-1.128566503524780273e+00 -5.077396392822265625e+00 1.063891768455505371e+00
-9.241558313369750977e-01 -5.019753456115722656e+00 9.939885735511779785e-01
-7.315292954444885254e-01 -4.989112377166748047e+00 9.327437281608581543e-01
-1.342900753021240234e+00 -5.140186309814453125e+00 9.386865496635437012e-01
-1.128834247589111328e+00 -5.070244312286376953e+00 8.655145764350891113e-01
-9.279680848121643066e-01 -5.035524845123291016e+00 8.036513328552246094e-01
-7.350112795829772949e-01 -4.988594055175781250e+00 7.437051534652709961e-01
-1.344798684120178223e+00 -5.143780231475830078e+00 7.405862212181091309e-01
-1.127846479415893555e+00 -5.057484626770019531e+00 6.711483001708984375e-01
-9.308925271034240723e-01 -5.026777744293212891e+00 6.141235828399658203e-01
-7.364330291748046875e-01 -4.980160236358642578e+00 5.566829442977905273e-01
-1.327067017555236816e+00 -5.068727016448974609e+00 5.368361473083496094e-01
-1.126996278762817383e+00 -5.045381546020507812e+00 4.804904162883758545e-01
-1.346567869186401367e+00 -5.135892391204833984e+00 3.498634397983551025e-01
-1.191769599914550781e+00 -5.326621532440185547e+00 3.080342113971710205e-01
-1.401482701301574707e+00 -5.229263782501220703e+00 1.595425128936767578e+00
-1.170472145080566406e+00 -5.133963108062744141e+00 1.492027997970581055e+00
-9.598138928413391113e-01 -5.073301315307617188e+00 1.408644318580627441e+00
-7.608245611190795898e-01 -5.034803867340087891e+00 1.338701963424682617e+00
-1.390621185302734375e+00 -5.192361354827880859e+00 1.365166306495666504e+00
-1.163566470146179199e+00 -5.095465183258056641e+00 1.271215915679931641e+00
-9.534499645233154297e-01 -5.025256156921386719e+00 1.192158222198486328e+00
-7.597003579139709473e-01 -4.997839450836181641e+00 1.129982113838195801e+00
-1.378870368003845215e+00 -5.152083396911621094e+00 1.145331144332885742e+00
-1.161883950233459473e+00 -5.079926490783691406e+00 1.065895676612854004e+00
-9.587955474853515625e-01 -5.034237384796142578e+00 9.980027079582214355e-01
-7.659922838211059570e-01 -5.009802341461181641e+00 9.374729394912719727e-01
-1.376453042030334473e+00 -5.139459133148193359e+00 9.400784373283386230e-01
-1.160804510116577148e+00 -5.067068576812744141e+00 8.661720752716064453e-01
-9.595880508422851562e-01 -5.033617973327636719e+00 8.042715787887573242e-01
-7.680101990699768066e-01 -4.999635696411132812e+00 7.460397481918334961e-01
-1.380437374114990234e+00 -5.150738716125488281e+00 7.427936792373657227e-01
-1.170834064483642578e+00 -5.102665424346923828e+00 6.780845522880554199e-01
-9.624658823013305664e-01 -5.024871826171875000e+00 6.146006584167480469e-01
-7.721254229545593262e-01 -5.008947849273681641e+00 5.604198575019836426e-01
-1.361237525939941406e+00 -5.072018146514892578e+00 5.380592346191406250e-01
-1.170868277549743652e+00 -5.094655513763427734e+00 4.858579933643341064e-01
-9.745497107505798340e-01 -5.078364372253417969e+00 4.314968585968017578e-01
-1.384012460708618164e+00 -5.149697303771972656e+00 3.513757288455963135e-01
-1.224654674530029297e+00 -5.320181369781494141e+00 3.080905377864837646e-01
-1.436590433120727539e+00 -5.231666088104248047e+00 1.598817229270935059e+00
-1.206124186515808105e+00 -5.144482135772705078e+00 1.497207641601562500e+00
-9.955537915229797363e-01 -5.090986728668212891e+00 1.415224313735961914e+00
-7.944099307060241699e-01 -5.047237873077392578e+00 1.343278765678405762e+00
-1.427071452140808105e+00 -5.200554847717285156e+00 1.369596958160400391e+00
-1.195920348167419434e+00 -5.092959880828857422e+00 1.272397637367248535e+00
-9.878271818161010742e-01 -5.037469387054443359e+00 1.196471095085144043e+00
-7.920306324958801270e-01 -5.003687381744384766e+00 1.132381677627563477e+00
-1.409164071083068848e+00 -5.138811111450195312e+00 1.144281268119812012e+00
-1.198639392852783203e+00 -5.096544265747070312e+00 1.070905566215515137e+00
-9.919416904449462891e-01 -5.039816379547119141e+00 1.000296592712402344e+00
-7.985724210739135742e-01 -5.016661167144775391e+00 9.396556615829467773e-01
-1.412392139434814453e+00 -5.147060394287109375e+00 9.430362582206726074e-01
-1.197753787040710449e+00 -5.084814071655273438e+00 8.704453706741333008e-01
-9.925561547279357910e-01 -5.038297653198242188e+00 8.059772253036499023e-01
-8.016408681869506836e-01 -5.013390064239501953e+00 7.488120794296264648e-01
-1.414900660514831543e+00 -5.152677536010742188e+00 7.443112730979919434e-01
-1.205992579460144043e+00 -5.111793994903564453e+00 6.802682280540466309e-01
-9.948218464851379395e-01 -5.026663303375244141e+00 6.155548095703125000e-01
-7.989089488983154297e-01 -4.979580879211425781e+00 5.576721429824829102e-01
-1.389959454536437988e+00 -5.054937839508056641e+00 5.371419191360473633e-01
-1.199129819869995117e+00 -5.074778079986572266e+00 4.846549332141876221e-01
-1.005497813224792480e+00 -5.071311473846435547e+00 4.314137101173400879e-01
-1.421941637992858887e+00 -5.164196968078613281e+00 3.529537618160247803e-01
-1.267852544784545898e+00 -5.357259273529052734e+00 3.106823861598968506e-01
-1.472299575805664062e+00 -5.235680103302001953e+00 1.602774620056152344e+00
-1.241498589515686035e+00 -5.152885913848876953e+00 1.501842260360717773e+00
-1.027345657348632812e+00 -5.087618827819824219e+00 1.416013836860656738e+00
-8.258329033851623535e-01 -5.045131206512451172e+00 1.344041466712951660e+00
-1.464460968971252441e+00 -5.211295127868652344e+00 1.374766111373901367e+00
-1.233985304832458496e+00 -5.113862514495849609e+00 1.279487490653991699e+00
-1.022390007972717285e+00 -5.049449443817138672e+00 1.200783967971801758e+00
-8.271554112434387207e-01 -5.025695800781250000e+00 1.138489603996276855e+00
-1.435117602348327637e+00 -5.110301017761230469e+00 1.139872193336486816e+00
-1.233340740203857422e+00 -5.103378295898437500e+00 1.073911428451538086e+00
-1.027928709983825684e+00 -5.058644771575927734e+00 1.005266547203063965e+00
-8.325498104095458984e-01 -5.031069278717041016e+00 9.432935118675231934e-01
-1.443947434425354004e+00 -5.138297557830810547e+00 9.430362582206726074e-01
-1.230787396430969238e+00 -5.085038661956787109e+00 8.717602491378784180e-01
-1.024436235427856445e+00 -5.036952495574951172e+00 8.067524433135986328e-01
-8.333604335784912109e-01 -5.014232158660888672e+00 7.496874332427978516e-01
-1.452120661735534668e+00 -5.163921356201171875e+00 7.472085356712341309e-01
-1.238736987113952637e+00 -5.110080242156982422e+00 6.810388565063476562e-01
-1.024453759193420410e+00 -5.014627933502197266e+00 6.148391962051391602e-01
-8.269959092140197754e-01 -4.959878921508789062e+00 5.560234785079956055e-01
-1.424724698066711426e+00 -5.059719562530517578e+00 5.385688543319702148e-01
-1.239172220230102539e+00 -5.104093074798583984e+00 4.881715774536132812e-01
-1.039792776107788086e+00 -5.080667495727539062e+00 4.327442348003387451e-01
-1.455497503280639648e+00 -5.162097930908203125e+00 3.534140288829803467e-01
-1.303294897079467773e+00 -5.360050201416015625e+00 3.113021552562713623e-01
-1.085563063621520996e+00 -5.294901847839355469e+00 2.539496719837188721e-01
-1.512357234954833984e+00 -5.254201889038085938e+00 1.611255049705505371e+00
-1.279794454574584961e+00 -5.172255992889404297e+00 1.509747982025146484e+00
-1.057953119277954102e+00 -5.078386306762695312e+00 1.415224313735961914e+00
-8.582324385643005371e-01 -5.048550128936767578e+00 1.346329808235168457e+00
-1.502036094665527344e+00 -5.221772193908691406e+00 1.379935503005981445e+00
-1.273520350456237793e+00 -5.139204978942871094e+00 1.287759065628051758e+00
-1.053751826286315918e+00 -5.044987678527832031e+00 1.201237916946411133e+00
-8.604428768157958984e-01 -5.034955501556396484e+00 1.141761779785156250e+00
-1.480222582817077637e+00 -5.149321556091308594e+00 1.150580167770385742e+00
-1.263923406600952148e+00 -5.092862129211425781e+00 1.073310375213623047e+00
-1.063781261444091797e+00 -5.075298786163330078e+00 1.009854197502136230e+00
-8.640701174736022949e-01 -5.029742240905761719e+00 9.440209865570068359e-01
-1.479531645774841309e+00 -5.143536567687988281e+00 9.456462264060974121e-01
-1.262917160987854004e+00 -5.081219673156738281e+00 8.724176287651062012e-01
-1.056337356567382812e+00 -5.035406112670898438e+00 8.075277209281921387e-01
-8.668024539947509766e-01 -5.024622917175292969e+00 7.520220875740051270e-01
-1.490079641342163086e+00 -5.176805019378662109e+00 7.503816485404968262e-01
-1.271745324134826660e+00 -5.109119892120361328e+00 6.819380521774291992e-01
-1.065029025077819824e+00 -5.054881095886230469e+00 6.205641627311706543e-01
-8.575831651687622070e-01 -4.955690860748291016e+00 5.561334490776062012e-01
-1.476130723953247070e+00 -5.121617794036865234e+00 5.461112856864929199e-01
-1.274802207946777344e+00 -5.113784313201904297e+00 4.898373782634735107e-01
-1.073417067527770996e+00 -5.085892200469970703e+00 4.337420761585235596e-01
-1.495444416999816895e+00 -5.181830883026123047e+00 3.553865551948547363e-01
-1.335917234420776367e+00 -5.350984096527099609e+00 3.112457990646362305e-01
-1.127742767333984375e+00 -5.334074020385742188e+00 2.561554610729217529e-01
-1.546193838119506836e+00 -5.250344276428222656e+00 1.612951040267944336e+00
-1.315769433975219727e+00 -5.181091308593750000e+00 1.514655113220214844e+00
-1.095169901847839355e+00 -5.100096225738525391e+00 1.423120260238647461e+00
-8.912087678909301758e-01 -5.054618358612060547e+00 1.349381089210510254e+00
-1.543899059295654297e+00 -5.245930194854736328e+00 1.388796925544738770e+00
-1.307903885841369629e+00 -5.142594337463378906e+00 1.290595054626464844e+00
-1.088171839714050293e+00 -5.054612159729003906e+00 1.205096721649169922e+00
-8.931938409805297852e-01 -5.040151596069335938e+00 1.144161343574523926e+00
-1.526687502861022949e+00 -5.190793037414550781e+00 1.161917924880981445e+00
-1.300226807594299316e+00 -5.104948043823242188e+00 1.077518582344055176e+00
-1.096353411674499512e+00 -5.075391769409179688e+00 1.011192202568054199e+00
-8.966401219367980957e-01 -5.034026622772216797e+00 9.458400011062622070e-01
-1.517736434936523438e+00 -5.157033920288085938e+00 9.498219490051269531e-01
-1.301628828048706055e+00 -5.103004932403564453e+00 8.775128126144409180e-01
-1.098695874214172363e+00 -5.081938266754150391e+00 8.160557746887207031e-01
-9.007515311241149902e-01 -5.036738872528076172e+00 7.546484470367431641e-01
-1.528810858726501465e+00 -5.191317081451416016e+00 7.538307309150695801e-01
-1.306997656822204590e+00 -5.116594314575195312e+00 6.839932799339294434e-01
-1.092444062232971191e+00 -5.031756877899169922e+00 6.185365915298461914e-01
-9.023646116256713867e-01 -5.030558109283447266e+00 5.651458501815795898e-01
-1.507247209548950195e+00 -5.111509799957275391e+00 5.460093617439270020e-01
-1.300973653793334961e+00 -5.085608482360839844e+00 4.878939688205718994e-01
-1.107568144798278809e+00 -5.092843055725097656e+00 4.349062442779541016e-01
-1.532014846801757812e+00 -5.188827037811279297e+00 3.565043509006500244e-01
-1.373928427696228027e+00 -5.362996578216552734e+00 3.124290406703948975e-01
-1.163852691650390625e+00 -5.342670440673828125e+00 2.569063901901245117e-01
-1.588891744613647461e+00 -5.275659561157226562e+00 1.623692750930786133e+00
-1.349475502967834473e+00 -5.180368900299072266e+00 1.516836047172546387e+00
-1.132484555244445801e+00 -5.120597839355468750e+00 1.430753111839294434e+00
-9.251607060432434082e-01 -5.065228939056396484e+00 1.353703618049621582e+00
-1.580807328224182129e+00 -5.252136230468750000e+00 1.392981529235839844e+00
-1.351206779479980469e+00 -5.179602146148681641e+00 1.301938772201538086e+00
-1.124436020851135254e+00 -5.071610450744628906e+00 1.210771441459655762e+00
-9.270979166030883789e-01 -5.050893783569335938e+00 1.147869706153869629e+00
-1.564141392707824707e+00 -5.200053215026855469e+00 1.166117191314697266e+00
-1.335240244865417480e+00 -5.111092567443847656e+00 1.080524444580078125e+00
-1.130884885787963867e+00 -5.083899497985839844e+00 1.014250636100769043e+00
-9.300085902214050293e-01 -5.041968345642089844e+00 9.483864307403564453e-01
-1.556162476539611816e+00 -5.170255184173583984e+00 9.539977908134460449e-01
-1.336410999298095703e+00 -5.108282089233398438e+00 8.798137903213500977e-01
-1.132433414459228516e+00 -5.086672306060791016e+00 8.179163932800292969e-01
-9.363228082656860352e-01 -5.056409358978271484e+00 7.584421634674072266e-01
-1.564348459243774414e+00 -5.194167613983154297e+00 7.556242346763610840e-01
-1.343897223472595215e+00 -5.129583835601806641e+00 6.868191361427307129e-01
-1.134344458580017090e+00 -5.074375629425048828e+00 6.246194243431091309e-01
-9.330330491065979004e-01 -5.023949623107910156e+00 5.650359988212585449e-01
-1.540880084037780762e+00 -5.109784603118896484e+00 5.468247532844543457e-01
-1.337965607643127441e+00 -5.099681377410888672e+00 4.900224506855010986e-01
-1.139667391777038574e+00 -5.089841365814208984e+00 4.352388978004455566e-01
-1.572764992713928223e+00 -5.208940982818603516e+00 3.585426211357116699e-01
-1.413151979446411133e+00 -5.378606796264648438e+00 3.138376474380493164e-01
-1.198580145835876465e+00 -5.344200611114501953e+00 2.573287785053253174e-01
-1.627159833908081055e+00 -5.285062789916992188e+00 1.629629015922546387e+00
-1.387938857078552246e+00 -5.197088718414306641e+00 1.524196624755859375e+00
-1.165809512138366699e+00 -5.122018814086914062e+00 1.433121800422668457e+00
-9.612519145011901855e-01 -5.086065292358398438e+00 1.360822916030883789e+00
-1.616424560546875000e+00 -5.253454208374023438e+00 1.395935416221618652e+00
-1.385975241661071777e+00 -5.182478427886962891e+00 1.304774761199951172e+00
-1.156400322914123535e+00 -5.068413734436035156e+00 1.211679458618164062e+00
-9.602571129798889160e-01 -5.056615829467773438e+00 1.150487542152404785e+00
-1.606363892555236816e+00 -5.224000453948974609e+00 1.173675656318664551e+00
-1.374179601669311523e+00 -5.131194591522216797e+00 1.086536407470703125e+00
-1.166000008583068848e+00 -5.094087600708007812e+00 1.017691373825073242e+00
-9.622180461883544922e-01 -5.042928218841552734e+00 9.496597051620483398e-01
-1.596834778785705566e+00 -5.189786911010742188e+00 9.593915939331054688e-01
-1.369262695312500000e+00 -5.105701923370361328e+00 8.807999491691589355e-01
-1.165608763694763184e+00 -5.088294982910156250e+00 8.193119764328002930e-01
-9.671445488929748535e-01 -5.049596786499023438e+00 7.582961916923522949e-01
-1.607555747032165527e+00 -5.221388339996337891e+00 7.610048055648803711e-01
-1.379976391792297363e+00 -5.138481616973876953e+00 6.891312003135681152e-01
-1.161898136138916016e+00 -5.051837921142578125e+00 6.227110624313354492e-01
-9.638418555259704590e-01 -5.018129825592041016e+00 5.650359988212585449e-01
-1.606490850448608398e+00 -5.211459636688232422e+00 5.587499141693115234e-01
-1.387849926948547363e+00 -5.160607337951660156e+00 4.966856539249420166e-01
-1.174456000328063965e+00 -5.098290443420410156e+00 4.365693926811218262e-01
-9.827262163162231445e-01 -5.102025985717773438e+00 3.842915892601013184e-01
-1.608228206634521484e+00 -5.210634231567382812e+00 3.593316376209259033e-01
-1.452878236770629883e+00 -5.394900321960449219e+00 3.153026103973388672e-01
-1.236738920211791992e+00 -5.360105514526367188e+00 2.584551572799682617e-01
-1.667042374610900879e+00 -5.298769474029541016e+00 1.636978626251220703e+00
-1.428689599037170410e+00 -5.220955371856689453e+00 1.533738374710083008e+00
-1.198754787445068359e+00 -5.121344566345214844e+00 1.434964299201965332e+00
-9.968917369842529297e-01 -5.102852344512939453e+00 1.366925358772277832e+00
-1.653570652008056641e+00 -5.259155273437500000e+00 1.400120019912719727e+00
-1.417748212814331055e+00 -5.173876285552978516e+00 1.304774761199951172e+00
-1.189924716949462891e+00 -5.071652412414550781e+00 1.214176416397094727e+00
-9.957767128944396973e-01 -5.073612213134765625e+00 1.155722975730895996e+00
-1.641318559646606445e+00 -5.223373413085937500e+00 1.175775289535522461e+00
-1.411859989166259766e+00 -5.145340919494628906e+00 1.091345787048339844e+00
-1.202182054519653320e+00 -5.107857227325439453e+00 1.021896719932556152e+00
-9.963765740394592285e-01 -5.053329944610595703e+00 9.527519345283508301e-01
-1.636328220367431641e+00 -5.204315662384033203e+00 9.639153480529785156e-01
-1.411280155181884766e+00 -5.136201381683349609e+00 8.875386714935302734e-01
-1.199299335479736328e+00 -5.091624259948730469e+00 8.210175037384033203e-01
-9.992624521255493164e-01 -5.049390316009521484e+00 7.591716647148132324e-01
-1.640157818794250488e+00 -5.213315486907958984e+00 7.612807154655456543e-01
-1.412795066833496094e+00 -5.134698390960693359e+00 6.897734999656677246e-01
-1.201555967330932617e+00 -5.081329822540283203e+00 6.272433400154113770e-01
-9.975163936614990234e-01 -5.026745319366455078e+00 5.666845440864562988e-01
-1.635149836540222168e+00 -5.191067218780517578e+00 5.576286911964416504e-01
-1.400445818901062012e+00 -5.082878589630126953e+00 4.900224506855010986e-01
-1.213984131813049316e+00 -5.125897407531738281e+00 4.395630061626434326e-01
-1.016932606697082520e+00 -5.110571861267089844e+00 3.853980004787445068e-01
-1.645872116088867188e+00 -5.218749523162841797e+00 3.605809211730957031e-01
-1.487546682357788086e+00 -5.391658782958984375e+00 3.156406581401824951e-01
-1.258307814598083496e+00 -5.304791450500488281e+00 2.561554610729217529e-01
-1.700991034507751465e+00 -5.293006896972656250e+00 1.638391971588134766e+00
-1.463294148445129395e+00 -5.221354484558105469e+00 1.536464452743530273e+00
-1.235120296478271484e+00 -5.134528636932373047e+00 1.440754771232604980e+00
-1.031434774398803711e+00 -5.112755775451660156e+00 1.371247768402099609e+00
-1.692329406738281250e+00 -5.269211769104003906e+00 1.405535340309143066e+00
-1.456556320190429688e+00 -5.190339088439941406e+00 1.311155676841735840e+00
-1.227413058280944824e+00 -5.090765476226806641e+00 1.220532178878784180e+00
-1.026695251464843750e+00 -5.066450119018554688e+00 1.155504822731018066e+00
-1.678716182708740234e+00 -5.229960441589355469e+00 1.179554462432861328e+00
-1.445525050163269043e+00 -5.144126892089843750e+00 1.092948913574218750e+00
-1.234423637390136719e+00 -5.104200839996337891e+00 1.022661328315734863e+00
-1.028541326522827148e+00 -5.052902698516845703e+00 9.538432955741882324e-01
-1.674252986907958984e+00 -5.212928771972656250e+00 9.673951864242553711e-01
-1.444906234741210938e+00 -5.135041713714599609e+00 8.888536095619201660e-01
-1.234933853149414062e+00 -5.102413177490234375e+00 8.239635825157165527e-01
-1.033196210861206055e+00 -5.057703495025634766e+00 7.613603472709655762e-01
-1.676963806152343750e+00 -5.218240737915039062e+00 7.634881734848022461e-01
-1.452611804008483887e+00 -5.155523777008056641e+00 6.937553882598876953e-01
-1.233883738517761230e+00 -5.078685760498046875e+00 6.278396844863891602e-01
-1.039510130882263184e+00 -5.075058937072753906e+00 5.728394389152526855e-01
-1.676720976829528809e+00 -5.211239814758300781e+00 5.608903169631958008e-01
-1.446477770805358887e+00 -5.126896858215332031e+00 4.951124191284179688e-01
-1.252952575683593750e+00 -5.149337291717529297e+00 4.422239959239959717e-01
-1.051280736923217773e+00 -5.118889331817626953e+00 3.865044116973876953e-01
-1.681840300559997559e+00 -5.220899105072021484e+00 3.614357113838195801e-01
-1.522772669792175293e+00 -5.390116214752197266e+00 3.160914182662963867e-01
-1.311173081398010254e+00 -5.380433559417724609e+00 2.601916193962097168e-01
-1.238493919372558594e+00 -6.014483928680419922e+00 2.305344492197036743e-01
-1.713697314262390137e+00 -5.222317695617675781e+00 1.619735360145568848e+00
-1.504059553146362305e+00 -5.242796897888183594e+00 1.545460700988769531e+00
-1.274006128311157227e+00 -5.156823635101318359e+00 1.449177026748657227e+00
-1.063377857208251953e+00 -5.109171390533447266e+00 1.372010588645935059e+00
-1.724628806114196777e+00 -5.258728504180908203e+00 1.405535340309143066e+00
-1.492668509483337402e+00 -5.196246623992919922e+00 1.314936876296997070e+00
-1.264712214469909668e+00 -5.107717037200927734e+00 1.226433992385864258e+00
-1.062355995178222656e+00 -5.082026004791259766e+00 1.160522103309631348e+00
-1.718387961387634277e+00 -5.242788791656494141e+00 1.184803485870361328e+00
-1.481665492057800293e+00 -5.151166439056396484e+00 1.096355557441711426e+00
