-8.491370201110839844e+00 -5.439075469970703125e+00 1.231992803514003754e-02
-1.188504886627197266e+01 -6.922731876373291016e+00 1.464399695396423340e-01
-8.413842201232910156e+00 -5.316890716552734375e+00 1.215988025069236755e-02
-1.200534248352050781e+01 -6.894494056701660156e+00 1.473981291055679321e-01
-8.405573844909667969e+00 -5.239772319793701172e+00 1.210123859345912933e-02
-8.437566757202148438e+00 -5.188097953796386719e+00 1.210123859345912933e-02
-8.484631538391113281e+00 -5.145562171936035156e+00 1.212322898209095001e-02
-8.470560073852539062e+00 -5.066200256347656250e+00 1.205847784876823425e-02
-8.511822700500488281e+00 -5.020226955413818359e+00 1.207313872873783112e-02
-1.276242542266845703e+01 -6.817452907562255859e+00 1.540520638227462769e-01
-8.549380302429199219e+00 -4.971926212310791016e+00 1.208291202783584595e-02
-1.282525348663330078e+01 -6.750193119049072266e+00 1.543075889348983765e-01
-8.371522903442382812e+00 -4.799996852874755859e+00 1.178969722241163254e-02
-1.294632434844970703e+01 -6.712797641754150391e+00 1.552657485008239746e-01
-8.392112731933593750e+00 -4.743618965148925781e+00 1.177747920155525208e-02
-1.288575077056884766e+01 -6.581383228302001953e+00 1.540520638227462769e-01
-8.370394706726074219e+00 -4.663806438446044922e+00 1.170661952346563339e-02
-1.281244277954101562e+01 -6.445125579833984375e+00 1.526999920606613159e-01
-8.385705947875976562e+00 -4.605138301849365234e+00 1.168829295784235001e-02
-9.162194252014160156e+00 -3.741353988647460938e+00 2.937254905700683594e-01
-1.279261016845703125e+01 -6.337093353271484375e+00 1.519973278045654297e-01
-8.306509971618652344e+00 -4.495530128479003906e+00 1.153924223035573959e-02
-9.180340766906738281e+00 -3.683204889297485352e+00 2.935771644115447998e-01
-1.305683612823486328e+01 -6.368509292602539062e+00 1.546695679426193237e-01
-8.370997428894042969e+00 -4.464241027832031250e+00 1.159055437892675400e-02
-1.279189205169677734e+01 -6.142407417297363281e+00 1.510817557573318481e-01
-8.401772499084472656e+00 -4.414654254913330078e+00 1.159544102847576141e-02
-1.265485954284667969e+01 -5.981333732604980469e+00 1.490270197391510010e-01
-8.431366920471191406e+00 -4.364398002624511719e+00 1.159910671412944794e-02
-1.266774940490722656e+01 -5.892606735229492188e+00 1.487502157688140869e-01
-8.435715675354003906e+00 -4.301225662231445312e+00 1.156856399029493332e-02
-1.269548320770263672e+01 -5.811022281646728516e+00 1.486543864011764526e-01
-8.454798698425292969e+00 -4.245793819427490234e+00 1.155878975987434387e-02
-1.275825405120849609e+01 -5.745332717895507812e+00 1.489737927913665771e-01
-8.456488609313964844e+00 -4.181867599487304688e+00 1.152580231428146362e-02
-9.137693405151367188e+00 -3.658806324005126953e+00 1.993064731359481812e-01
-1.267898368835449219e+01 -5.616318225860595703e+00 1.476429998874664307e-01
-8.390282630920410156e+00 -4.085248947143554688e+00 1.140118669718503952e-02
-1.259953117370605469e+01 -5.488894462585449219e+00 1.463228464126586914e-01
-8.317801475524902344e+00 -3.987007856369018555e+00 1.126923877745866776e-02
-1.277360439300537109e+01 -5.471723079681396484e+00 1.479517370462417603e-01
-8.310455322265625000e+00 -3.920961141586303711e+00 1.122647896409034729e-02
-1.266870403289794922e+01 -5.335029602050781250e+00 1.463547945022583008e-01
-8.328007698059082031e+00 -3.866947412490844727e+00 1.121792662888765335e-02
-1.247483921051025391e+01 -5.163501262664794922e+00 1.437464505434036255e-01
-8.357036590576171875e+00 -3.818268537521362305e+00 1.122525800019502640e-02
-9.131941795349121094e+00 -3.714364767074584961e+00 1.049619466066360474e-01
-8.396724700927734375e+00 -3.774298429489135742e+00 1.124724838882684708e-02
-9.143418312072753906e+00 -3.653809547424316406e+00 1.048341915011405945e-01
-8.403263092041015625e+00 -3.715427398681640625e+00 1.122525800019502640e-02
-9.150773048400878906e+00 -3.591792106628417969e+00 1.046638488769531250e-01
-8.392888069152832031e+00 -3.649440526962280273e+00 1.118127536028623581e-02
-1.242892265319824219e+01 -4.790704727172851562e+00 1.418194770812988281e-01
-8.405927658081054688e+00 -3.593942642211914062e+00 1.116905733942985535e-02
-1.238513565063476562e+01 -4.686747550964355469e+00 1.409890651702880859e-01
-8.455478668212890625e+00 -3.553921699523925781e+00 1.120571047067642212e-02
-1.221587371826171875e+01 -4.537203788757324219e+00 1.387426853179931641e-01
-8.525185585021972656e+00 -3.521826744079589844e+00 1.126923877745866776e-02
-1.255257701873779297e+01 -4.574812889099121094e+00 1.422453224658966064e-01
-8.485481262207031250e+00 -3.444626092910766602e+00 1.118860486894845963e-02
-1.223202705383300781e+01 -4.373152732849121094e+00 1.383061856031417847e-01
-8.416358947753906250e+00 -3.356563091278076172e+00 1.107009779661893845e-02
-1.226051807403564453e+01 -4.298677921295166016e+00 1.383274793624877930e-01
-8.434932708740234375e+00 -3.304128170013427734e+00 1.106765400618314743e-02
-1.228666400909423828e+01 -4.223367691040039062e+00 1.383274793624877930e-01
-8.499848365783691406e+00 -3.269542932510375977e+00 1.112629752606153488e-02
-1.232277011871337891e+01 -4.151410579681396484e+00 1.384445875883102417e-01
-8.500103950500488281e+00 -3.209908485412597656e+00 1.110064052045345306e-02
-1.236320304870605469e+01 -4.080735683441162109e+00 1.386149227619171143e-01
-8.519639968872070312e+00 -3.157692432403564453e+00 1.110064052045345306e-02
-1.214348411560058594e+01 -3.925749540328979492e+00 1.358788311481475830e-01
-8.423261642456054688e+00 -3.063319206237792969e+00 1.095036789774894714e-02
-1.227220916748046875e+01 -3.884356498718261719e+00 1.370499134063720703e-01
-8.447550773620605469e+00 -3.013593673706054688e+00 1.095769926905632019e-02
-1.219074440002441406e+01 -3.776434898376464844e+00 1.358788311481475830e-01
-8.450778961181640625e+00 -2.956419944763183594e+00 1.093814987689256668e-02
-1.221368694305419922e+01 -3.701562643051147461e+00 1.358788311481475830e-01
-8.482003211975097656e+00 -2.909053087234497070e+00 1.095525454729795456e-02
-1.238860702514648438e+01 -3.671730518341064453e+00 1.375715881586074829e-01
-8.512964248657226562e+00 -2.861414670944213867e+00 1.097236014902591705e-02
-1.242915153503417969e+01 -3.600933313369750977e+00 1.377738714218139648e-01
-8.472421646118164062e+00 -2.790045976638793945e+00 1.089783292263746262e-02
-1.227975177764892578e+01 -3.476121664047241211e+00 1.358788311481475830e-01
-8.425616264343261719e+00 -2.717442035675048828e+00 1.081597805023193359e-02
-1.224880504608154297e+01 -3.386320590972900391e+00 1.353039294481277466e-01
-8.438316345214843750e+00 -2.664487600326538086e+00 1.081109046936035156e-02
-1.242285251617431641e+01 -3.352524280548095703e+00 1.369966864585876465e-01
-8.460239410400390625e+00 -2.614432573318481445e+00 1.081842090934514999e-02
-1.236002826690673828e+01 -3.254339933395385742e+00 1.360810995101928711e-01
-8.554614067077636719e+00 -2.586201667785644531e+00 1.091860327869653702e-02
-1.233811664581298828e+01 -3.167746305465698242e+00 1.356233060359954834e-01
-8.365101814270019531e+00 -2.472993373870849609e+00 1.065715309232473373e-02
-1.221181583404541016e+01 -3.055573940277099609e+00 1.340263634920120239e-01
-8.457934379577636719e+00 -2.444106101989746094e+00 1.075611356645822525e-02
-1.235760211944580078e+01 -3.011601686477661133e+00 1.354210376739501953e-01
-8.454486846923828125e+00 -2.387000799179077148e+00 1.073290035128593445e-02
-1.228731060028076172e+01 -2.914717912673950195e+00 1.344522237777709961e-01
-8.428483963012695312e+00 -2.323916196823120117e+00 1.068158727139234543e-02
-1.244137191772460938e+01 -2.870744705200195312e+00 1.359427124261856079e-01
-8.459001541137695312e+00 -2.276574134826660156e+00 1.070235669612884521e-02
-1.243826198577880859e+01 -2.789756059646606445e+00 1.357191205024719238e-01
-8.550188064575195312e+00 -2.244944095611572266e+00 1.080009527504444122e-02
-1.246393871307373047e+01 -2.715299606323242188e+00 1.358149498701095581e-01
-8.555083274841308594e+00 -2.190206766128540039e+00 1.078909914940595627e-02
-1.250090980529785156e+01 -2.643114805221557617e+00 1.360385268926620483e-01
-8.277282714843750000e+00 -2.065053224563598633e+00 1.042257994413375854e-02
-1.255999279022216797e+01 -2.575197935104370117e+00 1.365069597959518433e-01
-8.581315994262695312e+00 -2.085057735443115234e+00 1.078909914940595627e-02
-1.255299949645996094e+01 -2.493601799011230469e+00 1.362620890140533447e-01
-8.520961761474609375e+00 -2.015104293823242188e+00 1.069747004657983780e-02
-1.253664112091064453e+01 -2.410489320755004883e+00 1.359214037656784058e-01
-8.507826805114746094e+00 -1.956954360008239746e+00 1.066570542752742767e-02
-1.252760124206542969e+01 -2.329133987426757812e+00 1.356659084558486938e-01
-8.509915351867675781e+00 -1.902532577514648438e+00 1.065348740667104721e-02
-1.252590942382812500e+01 -2.249394178390502930e+00 1.354955583810806274e-01
-8.512634277343750000e+00 -1.848371267318725586e+00 1.064249221235513687e-02
-1.249809455871582031e+01 -2.165324926376342773e+00 1.350484192371368408e-01
-8.493481636047363281e+00 -1.789712071418762207e+00 1.060461811721324921e-02
-1.278139019012451172e+01 -2.133711814880371094e+00 1.379655003547668457e-01
-8.552310943603515625e+00 -1.747372150421142578e+00 1.066448260098695755e-02
-1.248127174377441406e+01 -2.004971504211425781e+00 1.345906257629394531e-01
-8.616825103759765625e+00 -1.705542325973510742e+00 1.073167845606803894e-02
-1.241230392456054688e+01 -1.915842175483703613e+00 1.337176263332366943e-01
-8.515163421630859375e+00 -1.631190180778503418e+00 1.059240102767944336e-02
-1.242283630371093750e+01 -1.839499235153198242e+00 1.337069869041442871e-01
-8.479781150817871094e+00 -1.570534348487854004e+00 1.053620129823684692e-02
-1.247646045684814453e+01 -1.769276499748229980e+00 1.341647654771804810e-01
-8.483351707458496094e+00 -1.517417311668395996e+00 1.052887085825204849e-02
-6.419618606567382812e+00 -4.016033113002777100e-01 1.909022927284240723e-01
-1.273480224609375000e+01 -1.726268768310546875e+00 1.368263512849807739e-01
-8.691561698913574219e+00 -1.499682426452636719e+00 1.077566109597682953e-02
-6.432939052581787109e+00 -3.628248572349548340e-01 1.912286132574081421e-01
-1.265987014770507812e+01 -1.637068748474121094e+00 1.359107643365859985e-01
-8.427350044250488281e+00 -1.400900602340698242e+00 1.043724082410335541e-02
-6.447023868560791016e+00 -3.239482045173645020e-01 1.915846168994903564e-01
-1.254363536834716797e+01 -1.543845534324645996e+00 1.345586925745010376e-01
-8.471335411071777344e+00 -1.354850411415100098e+00 1.048122346401214600e-02
-1.251314449310302734e+01 -1.462207794189453125e+00 1.341328322887420654e-01
-8.522977828979492188e+00 -1.309527754783630371e+00 1.053497940301895142e-02
-1.271966171264648438e+01 -1.407283306121826172e+00 1.362514495849609375e-01
-8.537777900695800781e+00 -1.258227705955505371e+00 1.054353173822164536e-02
-1.257489967346191406e+01 -1.313215970993041992e+00 1.346119195222854614e-01
-8.263134002685546875e+00 -1.165995836257934570e+00 1.019533816725015640e-02
-1.266531753540039062e+01 -1.244146823883056641e+00 1.354955583810806274e-01
-8.275088310241699219e+00 -1.115940570831298828e+00 1.020144764333963394e-02
-6.359832286834716797e+00 -3.543171882629394531e-01 1.289773136377334595e-01
-1.268167591094970703e+01 -1.167235374450683594e+00 1.355913877487182617e-01
-8.322444915771484375e+00 -1.070374608039855957e+00 1.025153882801532745e-02
-1.253317928314208984e+01 -1.076056361198425293e+00 1.339305490255355835e-01
-8.595863342285156250e+00 -1.051965475082397461e+00 1.058018393814563751e-02
-1.273591232299804688e+01 -1.014780044555664062e+00 1.360278725624084473e-01
-8.448190689086914062e+00 -9.813182353973388672e-01 1.039081532508134842e-02
-1.271696758270263672e+01 -9.347823262214660645e-01 1.357617229223251343e-01
-8.697586059570312500e+00 -9.562372565269470215e-01 1.069013867527246475e-02
-6.443041801452636719e+00 -4.338765442371368408e-01 6.875385344028472900e-02
-8.617749214172363281e+00 -8.939781785011291504e-01 1.058507058769464493e-02
-6.460554599761962891e+00 -3.952505290508270264e-01 6.891354918479919434e-02
-8.643972396850585938e+00 -8.431224822998046875e-01 1.061072666198015213e-02
-6.455868721008300781e+00 -3.552173078060150146e-01 6.883902102708816528e-02
-8.659936904907226562e+00 -7.910687923431396484e-01 1.062416564673185349e-02
-6.420973300933837891e+00 -3.137922286987304688e-01 6.844511628150939941e-02
-8.615805625915527344e+00 -7.337595820426940918e-01 1.056430116295814514e-02
-1.276063728332519531e+01 -5.451481938362121582e-01 1.359852850437164307e-01
-8.627123832702636719e+00 -6.814313530921936035e-01 1.057285349816083908e-02
-1.277473354339599609e+01 -4.672421514987945557e-01 1.361023932695388794e-01
-8.628149986267089844e+00 -6.282656192779541016e-01 1.056918781250715256e-02
-1.293327903747558594e+01 -3.935941159725189209e-01 1.377632170915603638e-01
-6.426736831665039062e+00 -4.283421039581298828e-01 7.869164459407329559e-03
-6.440546035766601562e+00 -3.918404281139373779e-01 2.422393560409545898e-01
-1.275251579284667969e+01 -3.097856938838958740e-01 1.358149498701095581e-01
-6.437229633331298828e+00 -3.893833756446838379e-01 7.878938689827919006e-03
-6.475756645202636719e+00 -3.541151881217956543e-01 2.434773743152618408e-01
-1.275317668914794922e+01 -2.315137386322021484e-01 1.358042955398559570e-01
-6.402552127838134766e+00 -3.478705585002899170e-01 7.833734154701232910e-03
-1.277335453033447266e+01 -1.534856408834457397e-01 1.360065788030624390e-01
-6.446517467498779297e+00 -3.105999529361724854e-01 7.885047234594821930e-03
-1.252607440948486328e+01 -7.364887744188308716e-02 1.333663016557693481e-01
-6.422324657440185547e+00 -2.699471414089202881e-01 7.853281684219837189e-03
-1.280327510833740234e+01 3.282058518379926682e-03 1.363153308629989624e-01
-8.591463088989257812e+00 -3.083249628543853760e-01 1.050321478396654129e-02
-1.286700916290283203e+01 8.225049078464508057e-02 1.369966864585876465e-01
-8.717138290405273438e+00 -2.592896819114685059e-01 1.065470930188894272e-02
-1.297724723815917969e+01 1.625899374485015869e-01 1.381784379482269287e-01
-8.564608573913574219e+00 -2.021633535623550415e-01 1.046656258404254913e-02
-1.289002418518066406e+01 2.406088411808013916e-01 1.372628509998321533e-01
-8.621678352355957031e+00 -1.505860388278961182e-01 1.053497940301895142e-02
-1.275835227966308594e+01 3.164725005626678467e-01 1.358788311481475830e-01
-8.575443267822265625e+00 -9.714916348457336426e-02 1.047755777835845947e-02
-1.293407630920410156e+01 4.002557694911956787e-01 1.377738714218139648e-01
-8.584877967834472656e+00 -4.457613080739974976e-02 1.048855390399694443e-02
-1.261461162567138672e+01 4.678617715835571289e-01 1.343989819288253784e-01
-8.670989990234375000e+00 8.181676268577575684e-03 1.059362292289733887e-02
-1.282229518890380859e+01 5.543683171272277832e-01 1.366453617811203003e-01
-8.614778518676757812e+00 6.098927184939384460e-02 1.052520610392093658e-02
-1.287957477569580078e+01 6.360425353050231934e-01 1.372947841882705688e-01
-8.613242149353027344e+00 1.138341873884201050e-01 1.052398420870304108e-02
-1.286045265197753906e+01 7.142264246940612793e-01 1.371350884437561035e-01
-8.568389892578125000e+00 1.658305078744888306e-01 1.047022826969623566e-02
-1.319416522979736328e+01 8.139964938163757324e-01 1.407441794872283936e-01
-8.544218063354492188e+00 2.178158760070800781e-01 1.044212747365236282e-02
-1.291556739807128906e+01 8.763904571533203125e-01 1.378270983695983887e-01
-8.531725883483886719e+00 2.698903083801269531e-01 1.042868942022323608e-02
-1.279028034210205078e+01 9.467644095420837402e-01 1.365495324134826660e-01
-8.541900634765625000e+00 3.226879239082336426e-01 1.044335030019283295e-02
-1.273140335083007812e+01 1.020989775657653809e+00 1.359852850437164307e-01
-8.520778656005859375e+00 3.742602467536926270e-01 1.042013708502054214e-02
-1.270597076416015625e+01 1.097454071044921875e+00 1.357830166816711426e-01
-8.544289588928222656e+00 4.278359711170196533e-01 1.045190170407295227e-02
-1.296385002136230469e+01 1.199910044670104980e+00 1.386149227619171143e-01
-8.546495437622070312e+00 4.805353879928588867e-01 1.045801118016242981e-02
-1.298211669921875000e+01 1.281987190246582031e+00 1.388917267322540283e-01
-8.543386459350585938e+00 5.329666733741760254e-01 1.045801118016242981e-02
-1.294814968109130859e+01 1.358906149864196777e+00 1.386149227619171143e-01
-8.535964965820312500e+00 5.851043462753295898e-01 1.045312453061342239e-02
-1.336889934539794922e+01 1.486052274703979492e+00 1.432141363620758057e-01
-8.528223991394042969e+00 6.371709108352661133e-01 1.044823694974184036e-02
-1.302285957336425781e+01 1.528538227081298828e+00 1.396050304174423218e-01
-8.497242927551269531e+00 6.873103380203247070e-01 1.041525043547153473e-02
-1.334370231628417969e+01 1.649261474609375000e+00 1.431502550840377808e-01
-8.573559761047363281e+00 7.464612126350402832e-01 1.051420997828245163e-02
-1.358123683929443359e+01 1.763292074203491211e+00 1.458118408918380737e-01
-8.463275909423828125e+00 7.892115712165832520e-01 1.038470678031444550e-02
-1.324616527557373047e+01 1.802503228187561035e+00 1.423304826021194458e-01
-8.458273887634277344e+00 8.411263823509216309e-01 1.038470678031444550e-02
-1.358035373687744141e+01 1.932921767234802246e+00 1.460460424423217773e-01
-8.432069778442382812e+00 8.908033370971679688e-01 1.035905070602893829e-02
-1.356626033782958984e+01 2.015918970108032227e+00 1.460247635841369629e-01
-8.414519309997558594e+00 9.411908388137817383e-01 1.034438982605934143e-02
-1.313860702514648438e+01 2.034844398498535156e+00 1.415533125400543213e-01
-8.421497344970703125e+00 9.943280220031738281e-01 1.036027260124683380e-02
-1.339538097381591797e+01 2.158857822418212891e+00 1.444597393274307251e-01
-8.448977470397949219e+00 1.050176382064819336e+00 1.040181051939725876e-02
-1.342626190185546875e+01 2.248441934585571289e+00 1.449388265609741211e-01
-8.432458877563476562e+00 1.100704312324523926e+00 1.038959436118602753e-02
-1.323389625549316406e+01 2.299793481826782227e+00 1.430118530988693237e-01
-8.443380355834960938e+00 1.154863357543945312e+00 1.041158474981784821e-02
-1.325102710723876953e+01 2.386623859405517578e+00 1.433525383472442627e-01
-8.449994087219238281e+00 1.208631515502929688e+00 1.042868942022323608e-02
-1.327152156829833984e+01 2.474483728408813477e+00 1.437357962131500244e-01
-8.474068641662597656e+00 1.265182256698608398e+00 1.046778541058301926e-02
-1.313531970977783203e+01 2.532584667205810547e+00 1.424262970685958862e-01
-8.536301612854003906e+00 1.328069090843200684e+00 1.055452693253755569e-02
-1.326957702636718750e+01 2.643019437789916992e+00 1.440552026033401489e-01
-8.544773101806640625e+00 1.383138298988342285e+00 1.057529635727405548e-02
-1.303860759735107422e+01 2.680295705795288086e+00 1.417236477136611938e-01
-8.431593894958496094e+00 1.417962551116943359e+00 1.044579315930604935e-02
-1.288398838043212891e+01 2.731012344360351562e+00 1.402225196361541748e-01
-8.474946022033691406e+00 1.478781461715698242e+00 1.051054522395133972e-02
-1.324114894866943359e+01 2.891728162765502930e+00 1.443000584840774536e-01
-8.474569320678710938e+00 1.532356262207031250e+00 1.052154041826725006e-02
-1.325437450408935547e+01 2.979938745498657227e+00 1.446407288312911987e-01
-8.492529869079589844e+00 1.589477539062500000e+00 1.055574882775545120e-02
-1.322317600250244141e+01 3.058280706405639648e+00 1.445023417472839355e-01
-8.475744247436523438e+00 1.640226840972900391e+00 1.054719742387533188e-02
-1.311660766601562500e+01 3.118542671203613281e+00 1.435441672801971436e-01
-8.429238319396972656e+00 1.684949636459350586e+00 1.050199382007122040e-02
-1.295054626464843750e+01 3.163139820098876953e+00 1.419365704059600830e-01
-8.398174285888671875e+00 1.732396125793457031e+00 1.047633681446313858e-02
-1.304437351226806641e+01 3.270999193191528320e+00 1.431821882724761963e-01
-8.377605438232421875e+00 1.781813383102416992e+00 1.046411972492933273e-02
-1.324291610717773438e+01 3.407287120819091797e+00 1.455882489681243896e-01
-8.352838516235351562e+00 1.830187439918518066e+00 1.044701505452394485e-02
-1.291139984130859375e+01 3.406593322753906250e+00 1.421708017587661743e-01
-8.371692657470703125e+00 1.888225674629211426e+00 1.048488914966583252e-02
-1.288446235656738281e+01 3.484185695648193359e+00 1.421069204807281494e-01
-8.579126358032226562e+00 1.990408420562744141e+00 1.075977738946676254e-02
-1.294378852844238281e+01 3.585601329803466797e+00 1.430012136697769165e-01
-8.507415771484375000e+00 2.028861045837402344e+00 1.068525202572345734e-02
-1.295617580413818359e+01 3.674777746200561523e+00 1.433844715356826782e-01
-8.536572456359863281e+00 2.091254711151123047e+00 1.073778700083494186e-02
-1.281622695922851562e+01 3.720198869705200195e+00 1.420856267213821411e-01
-8.551704406738281250e+00 2.150667905807495117e+00 1.077321730554103851e-02
-1.420144844055175781e+01 5.360085010528564453e+00 4.505116045475006104e-01
-1.277302837371826172e+01 3.792790412902832031e+00 1.418620496988296509e-01
-8.599349021911621094e+00 2.218839645385742188e+00 1.085018645972013474e-02
-1.286720371246337891e+01 3.906826019287109375e+00 1.431715488433837891e-01
-8.692880630493164062e+00 2.299953699111938477e+00 1.098579820245504379e-02
-1.279619407653808594e+01 3.971181392669677734e+00 1.426498740911483765e-01
-8.850399971008300781e+00 2.399832248687744141e+00 1.120326574891805649e-02
-1.276014900207519531e+01 4.045996189117431641e+00 1.425221264362335205e-01
-8.650512695312500000e+00 2.402709007263183594e+00 1.096869446337223053e-02
-1.269798183441162109e+01 4.112199306488037109e+00 1.421069204807281494e-01
-8.478822708129882812e+00 2.411157131195068359e+00 1.076955255120992661e-02
-1.426378536224365234e+01 5.295003414154052734e+00 3.080798387527465820e-01
-1.264307975769042969e+01 4.180304050445556641e+00 1.417768746614456177e-01
-8.575248718261718750e+00 2.495550155639648438e+00 1.091127283871173859e-02
-1.421138858795166016e+01 5.374997138977050781e+00 3.076547086238861084e-01
-1.266835403442382812e+01 4.275067329406738281e+00 1.423517763614654541e-01
-8.659451484680175781e+00 2.577792406082153320e+00 1.103833317756652832e-02
-1.270239448547363281e+01 4.373552322387695312e+00 1.430331468582153320e-01
-8.740095138549804688e+00 2.660287141799926758e+00 1.116172783076763153e-02
-1.133067989349365234e+01 4.924515724182128906e+00 3.666747808456420898e-01
-1.274607849121093750e+01 4.476260185241699219e+00 1.438316106796264648e-01
-8.698781013488769531e+00 2.706141948699951172e+00 1.112996228039264679e-02
-1.258186912536621094e+01 4.505503177642822266e+00 1.422879099845886230e-01
-8.647703170776367188e+00 2.748560905456542969e+00 1.108597964048385620e-02
-1.253520011901855469e+01 4.575761795043945312e+00 1.420749723911285400e-01
-8.499418258666992188e+00 2.758963584899902344e+00 1.091738138347864151e-02
-1.261560344696044922e+01 4.693032264709472656e+00 1.433099508285522461e-01
-8.450055122375488281e+00 2.800367355346679688e+00 1.087584253400564194e-02
-1.259218025207519531e+01 4.772478103637695312e+00 1.433738321065902710e-01
-8.421345710754394531e+00 2.848318338394165039e+00 1.086118165403604507e-02
-1.137380313873291016e+01 4.869752407073974609e+00 2.505249083042144775e-01
-1.255053234100341797e+01 4.844971179962158203e+00 1.432354301214218140e-01
-8.657050132751464844e+00 2.987359285354614258e+00 1.118860486894845963e-02
-1.133179187774658203e+01 4.934259891510009766e+00 2.502617239952087402e-01
-1.246380043029785156e+01 4.899572849273681641e+00 1.425859928131103516e-01
-8.634784698486328125e+00 3.039093732833862305e+00 1.118371821939945221e-02
-1.246878051757812500e+01 4.990075111389160156e+00 1.429905593395233154e-01
-8.535029411315917969e+00 3.062969923019409180e+00 1.107865013182163239e-02
-1.242774105072021484e+01 5.062338829040527344e+00 1.428734511137008667e-01
-8.321673393249511719e+00 3.044167757034301758e+00 1.082575134932994843e-02
-1.242138481140136719e+01 5.148837089538574219e+00 1.431608945131301880e-01
-8.479932785034179688e+00 3.161189556121826172e+00 1.105665788054466248e-02
-1.264661884307861328e+01 5.333364486694335938e+00 1.461312174797058105e-01
-8.424852371215820312e+00 3.199670076370239258e+00 1.101023238152265549e-02
-1.133170509338378906e+01 4.860945701599121094e+00 1.312796175479888916e-01
-8.372418403625488281e+00 3.238676786422729492e+00 1.096747163683176041e-02
-1.130166530609130859e+01 4.930384159088134766e+00 1.312796175479888916e-01
-8.423100471496582031e+00 3.317841529846191406e+00 1.106032356619834900e-02
-1.147960567474365234e+01 5.092080593109130859e+00 1.337069869041442871e-01
-8.386805534362792969e+00 3.363134860992431641e+00 1.103955414146184921e-02
-1.231593894958496094e+01 5.553745269775390625e+00 1.438422650098800659e-01
-8.347495079040527344e+00 3.406974554061889648e+00 1.101511996239423752e-02
-1.219254779815673828e+01 5.588379383087158203e+00 1.427989304065704346e-01
-8.285798072814941406e+00 3.441252946853637695e+00 1.096136309206485748e-02
-1.213989925384521484e+01 5.654641628265380859e+00 1.425859928131103516e-01
-8.293082237243652344e+00 3.504094600677490234e+00 1.099923718720674515e-02
-1.200103473663330078e+01 5.679831504821777344e+00 1.413616836071014404e-01
-8.269588470458984375e+00 3.554124355316162109e+00 1.099679339677095413e-02
-1.212096214294433594e+01 5.827889442443847656e+00 1.431928426027297974e-01
-8.229299545288085938e+00 3.596789121627807617e+00 1.097236014902591705e-02
-1.210294437408447266e+01 5.910928726196289062e+00 1.434057652950286865e-01
-8.180573463439941406e+00 3.635438442230224609e+00 1.093692891299724579e-02
-1.212288379669189453e+01 6.013072490692138672e+00 1.440764814615249634e-01
-8.159934997558593750e+00 3.686388254165649414e+00 1.093937270343303680e-02
-1.213755702972412109e+01 6.113433361053466797e+00 1.446939706802368164e-01
-8.127166748046875000e+00 3.731797218322753906e+00 1.092593371868133545e-02
-1.202147197723388672e+01 6.147727489471435547e+00 1.437570899724960327e-01
-7.862160682678222656e+00 3.668691873550415039e+00 1.059973146766424179e-02
-1.202523517608642578e+01 6.243028640747070312e+00 1.442574709653854370e-01
-8.063591003417968750e+00 3.823109388351440430e+00 1.090272050350904465e-02
-1.195750999450683594e+01 6.301312923431396484e+00 1.439061313867568970e-01
-8.041783332824707031e+00 3.873382568359375000e+00 1.090516429394483566e-02
-1.191862106323242188e+01 6.374564170837402344e+00 1.439061313867568970e-01
-8.021457672119140625e+00 3.924410820007324219e+00 1.091005094349384308e-02
-1.169824218750000000e+01 6.349314212799072266e+00 1.417130082845687866e-01
-7.973942756652832031e+00 3.961986541748046875e+00 1.087828539311885834e-02
-5.217766284942626953e+00 3.386232137680053711e+00 1.846130490303039551e-01
-1.120622444152832031e+01 6.171582698822021484e+00 1.362088620662689209e-01
-8.065546035766601562e+00 4.069397926330566406e+00 1.103711128234863281e-02
-4.717855453491210938e+00 3.094854116439819336e+00 1.211678385734558105e+00
-4.721629142761230469e+00 3.098508596420288086e+00 9.978437423706054688e-01
-5.163486003875732422e+00 3.396212577819824219e+00 1.834263950586318970e-01
-1.204019260406494141e+01 6.727485179901123047e+00 1.468445211648941040e-01
-8.027965545654296875e+00 4.112427711486816406e+00 1.102000661194324493e-02
-4.771240711212158203e+00 3.171918153762817383e+00 1.230364799499511719e+00
-4.719747066497802734e+00 3.138873338699340820e+00 1.001497507095336914e+00
-4.717607498168945312e+00 3.138638019561767578e+00 7.892872691154479980e-01
-5.124251842498779297e+00 3.415634393692016602e+00 1.827737390995025635e-01
-1.162723445892333984e+01 6.590684890747070312e+00 1.422985494136810303e-01
-7.999032020568847656e+00 4.159763813018798828e+00 1.101511996239423752e-02
-4.732227802276611328e+00 3.188024044036865234e+00 1.225325822830200195e+00
-4.702848434448242188e+00 3.169425249099731445e+00 1.002019524574279785e+00
-4.678551197052001953e+00 3.154237747192382812e+00 7.859761714935302734e-01
-5.082489967346191406e+00 3.433024644851684570e+00 1.820320785045623779e-01
-1.182236480712890625e+01 6.797474861145019531e+00 1.451943516731262207e-01
-7.942405223846435547e+00 4.192428112030029297e+00 1.097236014902591705e-02
-4.695619583129882812e+00 3.205424308776855469e+00 1.220916628837585449e+00
-4.754062652587890625e+00 3.246536493301391602e+00 1.017156839370727539e+00
-4.675465583801269531e+00 3.194059371948242188e+00 7.887354493141174316e-01
-5.060504913330078125e+00 3.463581085205078125e+00 1.820024102926254272e-01
-1.155239200592041016e+01 6.736902713775634766e+00 1.423837244510650635e-01
-7.880390644073486328e+00 4.221721649169921875e+00 1.092226803302764893e-02
-4.675863265991210938e+00 3.234175682067871094e+00 1.220916628837585449e+00
-4.738911628723144531e+00 3.279007673263549805e+00 1.018200755119323730e+00
-4.703012466430664062e+00 3.255381822586059570e+00 7.967372536659240723e-01
-4.767526149749755859e+00 3.302499532699584961e+00 5.942196249961853027e-01
-5.026836872100830078e+00 3.486022472381591797e+00 1.815574318170547485e-01
-1.157452869415283203e+01 6.845327854156494141e+00 1.431715488433837891e-01
-7.830616950988769531e+00 4.257099151611328125e+00 1.088928151875734329e-02
-4.684827804565429688e+00 3.284275531768798828e+00 1.453042984008789062e+00
-4.670342922210693359e+00 3.272905349731445312e+00 1.224695920944213867e+00
-4.705801486968994141e+00 3.298979043960571289e+00 1.015416979789733887e+00
-4.683760643005371094e+00 3.284746646881103516e+00 7.968752384185791016e-01
-4.730072975158691406e+00 3.319689512252807617e+00 5.920792222023010254e-01
-4.966094970703125000e+00 3.489218235015869141e+00 1.801334470510482788e-01
-1.156918239593505859e+01 6.938333034515380859e+00 1.436293274164199829e-01
-7.850756168365478516e+00 4.330666542053222656e+00 1.095403358340263367e-02
-4.730174541473388672e+00 3.359541416168212891e+00 1.473473668098449707e+00
-4.658144950866699219e+00 3.307160615921020508e+00 1.226795554161071777e+00
-4.678244590759277344e+00 3.322659015655517578e+00 1.013851046562194824e+00
-4.749944210052490234e+00 3.119388580322265625e+00 9.468722939491271973e-01
-4.653828620910644531e+00 3.306539773941040039e+00 7.952197194099426270e-01
-4.691778182983398438e+00 3.335968017578125000e+00 5.898368358612060547e-01
-4.932612419128417969e+00 3.509799957275390625e+00 3.989140391349792480e-01
-5.143996715545654297e+00 3.388460636138916016e+00 1.247259750962257385e-01
-1.147342109680175781e+01 6.976978302001953125e+00 1.429692655801773071e-01
-7.824036121368408203e+00 4.378756046295166016e+00 1.095403358340263367e-02
-4.692950248718261719e+00 3.376614570617675781e+00 1.468304395675659180e+00
-4.648083686828613281e+00 3.343101501464843750e+00 1.229525089263916016e+00
-4.750323295593261719e+00 3.159132957458496094e+00 1.166894316673278809e+00
-4.646578311920166016e+00 3.343249797821044922e+00 1.011415123939514160e+00
-4.711007118225097656e+00 3.135358810424804688e+00 9.429277181625366211e-01
-4.641490936279296875e+00 3.340818881988525391e+00 7.965992689132690430e-01
-4.670086860656738281e+00 3.110477447509765625e+00 7.267669439315795898e-01
-4.631668567657470703e+00 3.336203813552856445e+00 5.848425626754760742e-01
-4.886700153350830078e+00 3.522495269775390625e+00 3.969414830207824707e-01
-5.094836235046386719e+00 3.401086568832397461e+00 1.240376681089401245e-01
-1.107375335693359375e+01 6.827363967895507812e+00 1.385084539651870728e-01
-7.790934085845947266e+00 4.423224925994873047e+00 1.094548124819993973e-02
-4.662744045257568359e+00 3.398495674133300781e+00 1.465350627899169922e+00
-4.665413379669189453e+00 3.399194478988647461e+00 1.239603042602539062e+00
-4.725975036621093750e+00 3.184935808181762695e+00 1.165691971778869629e+00
-4.623589992523193359e+00 3.369957685470581055e+00 1.010893225669860840e+00
-4.685137271881103516e+00 3.159793376922607422e+00 9.416127800941467285e-01
-4.636910438537597656e+00 3.380905866622924805e+00 7.993585467338562012e-01
-4.678861141204833984e+00 3.157937288284301758e+00 7.311342358589172363e-01
-4.596645355224609375e+00 3.354005813598632812e+00 5.830079317092895508e-01
-4.636935234069824219e+00 3.385884523391723633e+00 3.783338069915771484e-01
-4.624174594879150391e+00 3.377804517745971680e+00 1.699579209089279175e-01
-5.075528144836425781e+00 3.433403968811035156e+00 1.240781545639038086e-01
-7.759314060211181641e+00 4.468451023101806641e+00 1.093937270343303680e-02
-4.632447242736816406e+00 3.420133829116821289e+00 1.462396860122680664e+00
-4.811687946319580078e+00 3.283349275588989258e+00 1.416794896125793457e+00
-4.662561416625976562e+00 3.441110134124755859e+00 1.244432091712951660e+00
-4.685307979583740234e+00 3.199508905410766602e+00 1.160481691360473633e+00
-4.635306358337402344e+00 3.422245025634765625e+00 1.018026828765869141e+00
-4.730813026428222656e+00 3.233005762100219727e+00 9.547615647315979004e-01
-4.635199069976806641e+00 3.423415899276733398e+00 8.026697039604187012e-01
-4.659396648406982422e+00 3.186586618423461914e+00 7.311342358589172363e-01
-4.571179389953613281e+00 3.378599405288696289e+00 5.823963880538940430e-01
-4.600027561187744141e+00 3.402405023574829102e+00 3.770187795162200928e-01
-4.614611625671386719e+00 3.414438247680664062e+00 1.703732609748840332e-01
-5.074982166290283203e+00 3.478613853454589844e+00 1.245842650532722473e-01
-7.738658428192138672e+00 4.520011901855468750e+00 1.094914693385362625e-02
-4.584983348846435547e+00 3.428757905960083008e+00 1.454027533531188965e+00
-4.784257411956787109e+00 3.307837963104248047e+00 1.414667844772338867e+00
-4.716536045074462891e+00 3.525852680206298828e+00 1.264588236808776855e+00
-4.668004512786865234e+00 3.229869604110717773e+00 1.161082863807678223e+00
-4.626838207244873047e+00 3.460057973861694336e+00 1.020810723304748535e+00
-4.723051071166992188e+00 3.270395517349243164e+00 9.572269320487976074e-01
-4.616485595703125000e+00 3.453572273254394531e+00 8.030835390090942383e-01
-4.728605747222900391e+00 3.276684522628784180e+00 7.451351881027221680e-01
-4.568678855895996094e+00 3.420296430587768555e+00 5.847406387329101562e-01
-4.583057403564453125e+00 3.433557748794555664e+00 3.773475587368011475e-01
-4.583975791931152344e+00 3.435495138168334961e+00 1.700172573328018188e-01
-7.733148097991943359e+00 4.580661296844482422e+00 1.098091155290603638e-02
-4.733629703521728516e+00 3.315946817398071289e+00 1.405687451362609863e+00
-4.706505298614501953e+00 3.563579082489013672e+00 1.267737627029418945e+00
-4.685000896453857422e+00 3.284320831298828125e+00 1.170300960540771484e+00
-4.697364330291748047e+00 3.557948350906372070e+00 1.041167736053466797e+00
-4.710969924926757812e+00 3.304978847503662109e+00 9.588704705238342285e-01
-4.614943504333496094e+00 3.496787309646606445e+00 8.065326213836669922e-01
-4.712470054626464844e+00 3.308486223220825195e+00 7.457774281501770020e-01
-4.616569519042968750e+00 3.500556707382202148e+00 5.936080813407897949e-01
-4.730281829833984375e+00 3.323457241058349609e+00 5.373126268386840820e-01
-4.568262100219726562e+00 3.466439485549926758e+00 3.778735697269439697e-01
-4.960843563079833984e+00 3.488034963607788086e+00 3.422351777553558350e-01
-4.581917285919189453e+00 3.478061437606811523e+00 1.707292348146438599e-01
-7.743471622467041016e+00 4.651195049285888672e+00 1.103588845580816269e-02
-4.702892780303955078e+00 3.337618827819824219e+00 1.402615189552307129e+00
-4.657571792602539062e+00 3.307899951934814453e+00 1.168497443199157715e+00
-4.724751472473144531e+00 3.101589918136596680e+00 1.100651144981384277e+00
-4.805926322937011719e+00 3.686800718307495117e+00 1.070224404335021973e+00
-4.685778141021728516e+00 3.330394029617309570e+00 9.578843116760253906e-01
-4.750620365142822266e+00 3.119758605957031250e+00 8.920328617095947266e-01
-4.588685989379882812e+00 3.521420240402221680e+00 8.057048320770263672e-01
-4.693696975708007812e+00 3.338488817214965820e+00 7.460343241691589355e-01
-4.670744895935058594e+00 3.586984634399414062e+00 6.033927798271179199e-01
-4.714667797088623047e+00 3.355883598327636719e+00 5.378679037094116211e-01
-4.539785861968994141e+00 3.488932371139526367e+00 3.772818148136138916e-01
-4.931215763092041016e+00 3.512615680694580078e+00 3.416717052459716797e-01
-4.576338768005371094e+00 3.518294572830200195e+00 1.713225692510604858e-01
-5.179989814758300781e+00 3.417276620864868164e+00 6.607098877429962158e-02
-7.749803543090820312e+00 4.719947338104248047e+00 1.108597964048385620e-02
-4.687058925628662109e+00 3.369815587997436523e+00 1.404033184051513672e+00
-4.645935535430908203e+00 3.342710256576538086e+00 1.170701861381530762e+00
-4.720341682434082031e+00 3.140308380126953125e+00 1.104092001914978027e+00
-4.626832008361816406e+00 3.331417083740234375e+00 9.499951004981994629e-01
-4.702604293823242188e+00 3.129692316055297852e+00 8.866059184074401855e-01
-4.648986339569091797e+00 3.349833250045776367e+00 7.421808242797851562e-01
-4.702796936035156250e+00 3.135745763778686523e+00 6.790066957473754883e-01
-4.647952079772949219e+00 3.351553678512573242e+00 5.325928926467895508e-01
-4.899854660034179688e+00 3.535796403884887695e+00 3.409956097602844238e-01
-5.143129825592041016e+00 3.438436985015869141e+00 6.586870551109313965e-02
-7.667092800140380859e+00 4.734311103820800781e+00 1.100901141762733459e-02
-4.668649673461914062e+00 3.400227546691894531e+00 1.404742121696472168e+00
-4.643547058105468750e+00 3.384426355361938477e+00 1.175310850143432617e+00
-4.712378501892089844e+00 3.176894426345825195e+00 1.106768012046813965e+00
-4.623039245605468750e+00 3.371950626373291016e+00 9.534466266632080078e-01
-4.680854797363281250e+00 3.156830787658691406e+00 8.861407041549682617e-01
-4.612323760986328125e+00 3.366602182388305664e+00 7.396118640899658203e-01
-4.685935974121093750e+00 3.166210174560546875e+00 6.793645024299621582e-01
-4.603178501129150391e+00 3.362390518188476562e+00 5.298165678977966309e-01
-4.687038898468017578e+00 3.426155805587768555e+00 3.276419937610626221e-01
-5.119451999664306641e+00 3.468247413635253906e+00 6.583677232265472412e-02
-7.609079837799072266e+00 4.763225555419921875e+00 1.096747163683176041e-02
-4.641443252563476562e+00 3.424195051193237305e+00 1.402851462364196777e+00
-4.706649780273437500e+00 3.210395336151123047e+00 1.327899098396301270e+00
-4.643186092376708984e+00 3.427984237670898438e+00 1.180521130561828613e+00
-4.700091361999511719e+00 3.210731983184814453e+00 1.108488440513610840e+00
-4.614955902099609375e+00 3.409632205963134766e+00 9.560764431953430176e-01
-4.687497138977050781e+00 3.203329086303710938e+00 8.911024928092956543e-01
-4.603541374206542969e+00 3.403683423995971680e+00 7.415385842323303223e-01
-4.674612522125244141e+00 3.200511932373046875e+00 6.805571913719177246e-01
-4.587263584136962891e+00 3.394125223159790039e+00 5.303718447685241699e-01
-4.630622863769531250e+00 3.428709030151367188e+00 3.251628577709197998e-01
-4.643071174621582031e+00 3.440436124801635742e+00 1.170128434896469116e-01
-7.132687568664550781e+00 4.896263122558593750e+00 9.211185574531555176e-02
-7.598285675048828125e+00 4.821611881256103516e+00 1.099435053765773773e-02
-4.621901988983154297e+00 3.453773021697998047e+00 1.403324127197265625e+00
-4.698078632354736328e+00 3.246966361999511719e+00 1.331076860427856445e+00
-4.691894531250000000e+00 3.508628606796264648e+00 1.198356270790100098e+00
-4.693215370178222656e+00 3.248448848724365234e+00 1.111546754837036133e+00
-4.583681583404541016e+00 3.430201768875122070e+00 9.539397358894348145e-01
-4.712425231933593750e+00 3.262961864471435547e+00 8.996304869651794434e-01
-4.689705848693847656e+00 3.785382509231567383e+00 8.395058512687683105e-01
-4.677824974060058594e+00 3.503202199935913086e+00 7.569525241851806641e-01
-4.730754852294921875e+00 3.281764984130859375e+00 6.916493773460388184e-01
-4.562366962432861328e+00 3.419222593307495117e+00 5.299091339111328125e-01
-4.578346729278564453e+00 3.433694839477539062e+00 3.229654431343078613e-01
-4.997572898864746094e+00 3.472029447555541992e+00 2.859104275703430176e-01
-4.615476608276367188e+00 3.464059591293334961e+00 1.168508902192115784e-01
-7.577809333801269531e+00 4.874094009399414062e+00 1.100778952240943909e-02
-4.685246944427490234e+00 3.280759572982788086e+00 1.333119750022888184e+00
-4.701516628265380859e+00 3.561012744903564453e+00 1.206372022628784180e+00
-4.692482471466064453e+00 3.290710687637329102e+00 1.116134405136108398e+00
-4.642730236053466797e+00 3.519037723541259766e+00 9.707043170928955078e-01
-4.691506385803222656e+00 3.291247844696044922e+00 8.994754552841186523e-01
-4.666390895843505859e+00 3.814086914062500000e+00 8.395058512687683105e-01
-4.732884407043457031e+00 3.589973688125610352e+00 7.694121003150939941e-01
-4.700781822204589844e+00 3.303879737854003906e+00 6.902180910110473633e-01
-4.561922073364257812e+00 3.462804794311523438e+00 5.323152542114257812e-01
-4.553216457366943359e+00 3.458702802658081055e+00 3.226836919784545898e-01
-4.964738845825195312e+00 3.494579076766967773e+00 2.852533757686614990e-01
-4.594134807586669922e+00 3.492314577102661133e+00 1.168508902192115784e-01
-7.587969779968261719e+00 4.946712493896484375e+00 1.106643304228782654e-02
-4.670905590057373047e+00 3.309939861297607422e+00 1.561826586723327637e+00
-4.682503700256347656e+00 3.321843147277832031e+00 1.338113665580749512e+00
-4.687406063079833984e+00 3.330242633819580078e+00 1.119766354560852051e+00
-4.740380287170410156e+00 3.114144086837768555e+00 1.049154758453369141e+00
-4.806487083435058594e+00 3.689813613891601562e+00 1.009657382965087891e+00
-4.655118465423583984e+00 3.308526277542114258e+00 8.963743448257446289e-01
-4.546761035919189453e+00 3.763078927993774414e+00 8.221224546432495117e-01
-4.669098377227783203e+00 3.324598550796508789e+00 6.885483264923095703e-01
-4.632947444915771484e+00 3.561735153198242188e+00 5.431429743766784668e-01
-4.720923423767089844e+00 3.363984346389770508e+00 4.837189018726348877e-01
-4.523995876312255859e+00 3.480487823486328125e+00 3.221202790737152100e-01
-4.932630062103271484e+00 3.517436981201171875e+00 2.846432626247406006e-01
-4.596385955810546875e+00 3.538735151290893555e+00 1.174582168459892273e-01
-7.530775070190429688e+00 4.975537776947021484e+00 1.102733612060546875e-02
-4.634833812713623047e+00 3.327285528182983398e+00 1.556562542915344238e+00
-4.697620868682861328e+00 3.376088142395019531e+00 1.348328232765197754e+00
-4.665290355682373047e+00 3.357794523239135742e+00 1.119384050369262695e+00
-4.738372325897216797e+00 3.154615640640258789e+00 1.052974581718444824e+00
-4.789207458496093750e+00 3.723474264144897461e+00 1.010807871818542480e+00
-4.617092609405517578e+00 3.324328184127807617e+00 8.929631710052490234e-01
-4.695004463195800781e+00 3.130475759506225586e+00 8.322727680206298828e-01
-4.623648643493652344e+00 3.335178852081298828e+00 6.848509311676025391e-01
-4.688073158264160156e+00 3.384138822555541992e+00 4.824715256690979004e-01
-4.906096935272216797e+00 3.544127464294433594e+00 2.843616902828216553e-01
-5.154418945312500000e+00 3.448506832122802734e+00 2.328228950500488281e-01
-5.146869659423828125e+00 3.446057558059692383e+00 7.567396853119134903e-03
-4.657243728637695312e+00 3.386869192123413086e+00 1.571038484573364258e+00
-4.672880649566650391e+00 3.401982784271240234e+00 1.347193360328674316e+00
-4.733921527862548828e+00 3.187738656997680664e+00 1.275701642036437988e+00
-4.644599437713623047e+00 3.386357069015502930e+00 1.119384050369262695e+00
-4.720556735992431641e+00 3.184730052947998047e+00 1.053338289260864258e+00
-4.736045360565185547e+00 3.728991985321044922e+00 1.004397869110107422e+00
-4.594213485717773438e+00 3.350848913192749023e+00 8.924979567527770996e-01
-4.676527500152587891e+00 3.159778594970703125e+00 8.324186801910400391e-01
-4.601493835449218750e+00 3.362314939498901367e+00 6.846123933792114258e-01
-4.601258277893066406e+00 3.364606857299804688e+00 4.756527543067932129e-01
-4.771401405334472656e+00 3.491578578948974609e+00 2.777911722660064697e-01
-5.052103519439697266e+00 3.425114393234252930e+00 2.291463464498519897e-01
-5.110733032226562500e+00 3.467467308044433594e+00 7.545405533164739609e-03
-4.633267402648925781e+00 3.413092851638793945e+00 1.569985628128051758e+00
-4.665243148803710938e+00 3.440417289733886719e+00 1.351052045822143555e+00
-4.698956489562988281e+00 3.206274509429931641e+00 1.271557092666625977e+00
-4.633998394012451172e+00 3.422372817993164062e+00 1.121869087219238281e+00
-4.710668087005615234e+00 3.220294237136840820e+00 1.055521011352539062e+00
-4.587074279785156250e+00 3.388955116271972656e+00 8.951339125633239746e-01
-4.663581848144531250e+00 3.192884683609008789e+00 8.335859775543212891e-01
-4.580776691436767578e+00 3.390485763549804688e+00 6.846123933792114258e-01
-4.571718215942382812e+00 3.386251688003540039e+00 4.747380018234252930e-01
-4.634330749511718750e+00 3.435134410858154297e+00 2.710329592227935791e-01
-5.028521537780761719e+00 3.454351663589477539e+00 2.290338128805160522e-01
-4.688771247863769531e+00 3.479293346405029297e+00 6.216379255056381226e-02
-7.119831085205078125e+00 4.894639492034912109e+00 1.055574882775545120e-02
-4.594454288482666016e+00 3.428188323974609375e+00 1.563932061195373535e+00
-4.683837890625000000e+00 3.498702049255371094e+00 1.362628698348999023e+00
-4.679194927215576172e+00 3.235046625137329102e+00 1.271557092666625977e+00
-4.623129367828369141e+00 3.458385467529296875e+00 1.124354004859924316e+00
-4.723153591156005859e+00 3.271533966064453125e+00 1.062796711921691895e+00
-4.572521209716796875e+00 3.421772241592407227e+00 8.963743448257446289e-01
-4.686171531677246094e+00 3.250761508941650391e+00 8.411732912063598633e-01
-4.557503700256347656e+00 3.416742563247680664e+00 6.842546463012695312e-01
-4.740746974945068359e+00 3.292298078536987305e+00 6.382345557212829590e-01
-4.564405918121337891e+00 3.424406290054321289e+00 4.761516749858856201e-01
-4.616361141204833984e+00 3.465904474258422852e+00 2.712206840515136719e-01
-4.983445644378662109e+00 3.468585729598999023e+00 2.279458492994308472e-01
-4.652946472167968750e+00 3.497183322906494141e+00 6.197215616703033447e-02
-7.143001556396484375e+00 4.975385189056396484e+00 1.063516177237033844e-02
-4.669648170471191406e+00 3.270975351333618164e+00 1.274392962455749512e+00
-4.697269439697265625e+00 3.559005498886108398e+00 1.147674441337585449e+00
-4.711040019989013672e+00 3.306101560592651367e+00 1.064615607261657715e+00
-4.590805053710937500e+00 3.479601383209228516e+00 9.041271805763244629e-01
-4.674231052398681641e+00 3.285142660140991211e+00 8.426323533058166504e-01
-4.642825126647949219e+00 3.798797607421875000e+00 7.769906520843505859e-01
-4.636876583099365234e+00 3.520896434783935547e+00 6.994019746780395508e-01
-4.703385829925537109e+00 3.309313774108886719e+00 6.359264850616455078e-01
-4.559970378875732422e+00 3.465009927749633789e+00 4.778979420661926270e-01
-4.574334621429443359e+00 3.478444337844848633e+00 2.700004577636718750e-01
-4.971052646636962891e+00 3.505433320999145508e+00 2.283585220575332642e-01
-4.624239921569824219e+00 3.520216464996337891e+00 6.187634170055389404e-02
-7.426082134246826172e+00 5.240526676177978516e+00 1.110430620610713959e-02
-4.713886737823486328e+00 3.339084863662719727e+00 1.518721103668212891e+00
-4.655060768127441406e+00 3.303519964218139648e+00 1.275919914245605469e+00
-4.685055255889892578e+00 3.330957174301147461e+00 1.063342332839965820e+00
-4.746469497680664062e+00 3.643657445907592773e+00 9.391695857048034668e-01
-4.641897678375244141e+00 3.305154323577880859e+00 8.404437303543090820e-01
-4.706481933593750000e+00 3.619492530822753906e+00 7.132373452186584473e-01
-4.645761013031005859e+00 3.311572074890136719e+00 6.308707594871520996e-01
-4.552049636840820312e+00 3.503256559371948242e+00 4.793116152286529541e-01
-4.562402248382568359e+00 3.513760328292846680e+00 2.705636322498321533e-01
-4.956768035888671875e+00 3.541096925735473633e+00 2.286961674690246582e-01
-4.585131645202636719e+00 3.535091876983642578e+00 6.164212524890899658e-02
-7.419004917144775391e+00 5.304022312164306641e+00 1.114218030124902725e-02
