-8.548918366432189941e-01 -6.081908702850341797e+00 7.954873442649841309e-01
-6.115800738334655762e-01 -5.896748065948486328e+00 7.121638655662536621e-01
-3.891974985599517822e-01 -5.796538829803466797e+00 6.424110531806945801e-01
-4.166778624057769775e-01 -5.780681133270263672e+00 1.072073221206665039e+00
-6.676701307296752930e-01 -6.123299598693847656e+00 9.667694568634033203e-01
-4.275805950164794922e-01 -5.874740123748779297e+00 8.687503933906555176e-01
-6.488351821899414062e-01 -5.902753829956054688e+00 7.133566141128540039e-01
-4.237397015094757080e-01 -5.780163764953613281e+00 6.408723592758178711e-01
-4.527533352375030518e-01 -5.785858631134033203e+00 1.073528409004211426e+00
-7.091882228851318359e-01 -6.153437614440917969e+00 9.721964001655578613e-01
-4.640864729881286621e-01 -5.877923011779785156e+00 8.696258664131164551e-01
-6.866450905799865723e-01 -5.912468433380126953e+00 7.150263786315917969e-01
-4.566780924797058105e-01 -5.745748519897460938e+00 6.373552680015563965e-01
-1.109036207199096680e-01 -7.193519473075866699e-01 1.473795063793659210e-02
-4.957742094993591309e-01 -5.872136592864990234e+00 1.090080618858337402e+00
-7.528880238533020020e-01 -6.198004722595214844e+00 9.799491167068481445e-01
-5.003117918968200684e-01 -5.876936435699462891e+00 8.699176311492919922e-01
-7.303866147994995117e-01 -5.969245910644531250e+00 7.224211096763610840e-01
-4.944696426391601562e-01 -5.772548198699951172e+00 6.406525373458862305e-01
-5.396931171417236328e-01 -5.956141948699951172e+00 1.106269001960754395e+00
-7.950338125228881836e-01 -6.225606441497802734e+00 9.850659370422363281e-01
-5.360027551651000977e-01 -5.869814872741699219e+00 8.693339824676513672e-01
-7.759902477264404297e-01 -6.034569263458251953e+00 7.308893203735351562e-01
-5.344251990318298340e-01 -5.818893909454345703e+00 6.461479067802429199e-01
-5.793557167053222656e-01 -5.985016822814941406e+00 1.112271428108215332e+00
-8.342677354812622070e-01 -6.228444576263427734e+00 9.863064885139465332e-01
-5.722011923789978027e-01 -5.868384838104248047e+00 8.696258664131164551e-01
-8.156564831733703613e-01 -6.049373626708984375e+00 7.332747578620910645e-01
-5.708950161933898926e-01 -5.823418617248535156e+00 6.470271348953247070e-01
-1.242962479591369629e-01 -7.181738615036010742e-01 1.475819479674100876e-02
-6.173778772354125977e-01 -5.994065284729003906e+00 1.114636063575744629e+00
-6.102390885353088379e-01 -5.884443759918212891e+00 8.725440502166748047e-01
-8.612203598022460938e-01 -6.104225158691406250e+00 7.405502200126647949e-01
-6.106347441673278809e-01 -5.858360767364501953e+00 6.513135433197021484e-01
-6.664210557937622070e-01 -6.102577686309814453e+00 1.135553717613220215e+00
-6.475227475166320801e-01 -5.891405582427978516e+00 8.741490244865417480e-01
-6.394774913787841797e-01 -5.790287971496582031e+00 6.441695690155029297e-01
-6.869688630104064941e-01 -5.915820121765136719e+00 8.783804774284362793e-01
-6.763760447502136230e-01 -5.798102378845214844e+00 6.454884409904479980e-01
-7.274596691131591797e-01 -5.945862770080566406e+00 8.834872841835021973e-01
-7.848724722862243652e-01 -6.104169368743896484e+00 9.077084064483642578e-01
-7.646586894989013672e-01 -5.922443389892578125e+00 6.603260040283203125e-01
-8.330190777778625488e-01 -6.178653717041015625e+00 9.195271730422973633e-01
-7.996504902839660645e-01 -5.907790184020996094e+00 6.592269539833068848e-01
-8.727114796638488770e-01 -6.186160564422607422e+00 9.214240312576293945e-01
-8.655688166618347168e-01 -6.112390995025634766e+00 6.826373338699340820e-01
-9.162884950637817383e-01 -6.196440696716308594e+00 6.926389336585998535e-01
-1.222267225384712219e-01 -7.267935872077941895e-01 9.004151797853410244e-04
-3.224694013595581055e+00 -6.910654544830322266e+00 9.316914714872837067e-03
-3.305593013763427734e+00 -6.972060680389404297e+00 9.426870383322238922e-03
-3.344404935836791992e+00 -6.943538188934326172e+00 9.415875189006328583e-03
-3.263017892837524414e+00 -6.669577121734619141e+00 9.071346372365951538e-03
-3.448494672775268555e+00 -6.940483093261718750e+00 9.468409232795238495e-03
-3.490565299987792969e+00 -6.918300151824951172e+00 9.467187337577342987e-03
-3.423071861267089844e+00 -6.682257652282714844e+00 9.172750636935234070e-03
-3.344051122665405273e+00 -6.430454730987548828e+00 8.855100721120834351e-03
-3.500147581100463867e+00 -6.630904197692871094e+00 9.160532616078853607e-03
-3.651269674301147461e+00 -6.815568447113037109e+00 9.446417912840843201e-03
-1.860920906066894531e+00 -2.683443784713745117e+00 9.691962599754333496e-02
-3.669138908386230469e+00 -6.749107837677001953e+00 9.385331533849239349e-03
-1.854940176010131836e+00 -2.640078067779541016e+00 9.576264023780822754e-02
-3.513896703720092773e+00 -6.370092868804931641e+00 8.888088166713714600e-03
-1.873422980308532715e+00 -2.631903886795043945e+00 9.588130563497543335e-02
-3.532404899597167969e+00 -6.311761379241943359e+00 8.836775086820125580e-03
-1.889536738395690918e+00 -2.620359182357788086e+00 9.588130563497543335e-02
-3.829281568527221680e+00 -6.744780063629150391e+00 9.475739672780036926e-03
-1.890839576721191406e+00 -2.588537216186523438e+00 9.513965249061584473e-02
-3.835162401199340820e+00 -6.659629821777343750e+00 9.388997219502925873e-03
-3.848717927932739258e+00 -6.589344024658203125e+00 9.323023259639739990e-03
-1.867765307426452637e+00 -2.689364671707153320e+00 6.630053371191024780e-02
-3.894682884216308594e+00 -6.575068473815917969e+00 9.336462244391441345e-03
-1.905383586883544922e+00 -2.709923982620239258e+00 1.869503259658813477e-01
-1.881355166435241699e+00 -2.673765420913696289e+00 6.619931012392044067e-02
-4.015279769897460938e+00 -6.684777259826660156e+00 9.527052752673625946e-03
-1.902859926223754883e+00 -2.671346187591552734e+00 1.850909590721130371e-01
-1.884958028793334961e+00 -2.644260644912719727e+00 6.575392931699752808e-02
-4.076507568359375000e+00 -6.693322658538818359e+00 9.574700146913528442e-03
-1.911620140075683594e+00 -2.649095058441162109e+00 1.843584924936294556e-01
-1.908171415328979492e+00 -2.642371654510498047e+00 6.599687039852142334e-02
-3.999812364578247070e+00 -6.477591514587402344e+00 9.301031939685344696e-03
-1.893653631210327148e+00 -2.588652849197387695e+00 6.494415551424026489e-02
-4.085645198822021484e+00 -6.526669979095458984e+00 9.407322853803634644e-03
-1.863545417785644531e+00 -2.714741230010986328e+00 3.505829349160194397e-02
-4.129365921020507812e+00 -6.507388114929199219e+00 9.415875189006328583e-03
-1.867669105529785156e+00 -2.688287258148193359e+00 1.537965387105941772e-01
-1.885306119918823242e+00 -2.710643768310546875e+00 3.515410795807838440e-02
-4.175167083740234375e+00 -6.491179943084716797e+00 9.429314173758029938e-03
-1.881254196166992188e+00 -2.672692537307739258e+00 1.535618752241134644e-01
-1.875407576560974121e+00 -2.661424636840820312e+00 3.466437757015228271e-02
-4.155937194824218750e+00 -6.374966621398925781e+00 9.297367185354232788e-03
-1.904577612876892090e+00 -2.670858860015869141e+00 1.541250646114349365e-01
-1.893445372581481934e+00 -2.652308702468872070e+00 3.469631448388099670e-02
-4.108981132507324219e+00 -6.219189167022705078e+00 9.106777608394622803e-03
-1.891098022460937500e+00 -2.617826461791992188e+00 1.517315208911895752e-01
-1.907340168952941895e+00 -2.637399911880493164e+00 3.465373069047927856e-02
-4.213826179504394531e+00 -6.293573379516601562e+00 9.253384545445442200e-03
-1.903986215591430664e+00 -2.599027633666992188e+00 3.430240228772163391e-02
-4.250679492950439453e+00 -6.265116691589355469e+00 9.249719791114330292e-03
-1.857017159461975098e+00 -2.701250791549682617e+00 4.004831425845623016e-03
-1.855316758155822754e+00 -2.665602207183837891e+00 1.219262704253196716e-01
-1.870127439498901367e+00 -2.684882164001464844e+00 3.997500985860824585e-03
-1.880275845527648926e+00 -2.666418075561523438e+00 1.224890053272247314e-01
-1.867539286613464355e+00 -2.646394252777099609e+00 3.957184031605720520e-03
-1.901248455047607422e+00 -2.661335706710815430e+00 1.227891370654106140e-01
-1.891302704811096191e+00 -2.645460844039916992e+00 3.973066806793212891e-03
-1.895865201950073242e+00 -2.619666576385498047e+00 1.214010417461395264e-01
-1.906912803649902344e+00 -2.632996320724487305e+00 3.971844911575317383e-03
-1.921258091926574707e+00 -2.618827342987060547e+00 3.968179691582918167e-03
-4.615380287170410156e+00 -6.210863590240478516e+00 9.453748352825641632e-03
-4.626942157745361328e+00 -6.147272109985351562e+00 9.399992413818836212e-03
-4.691249847412109375e+00 -6.153758049011230469e+00 9.453748352825641632e-03
-4.713030815124511719e+00 -6.104277133941650391e+00 9.421983733773231506e-03
-4.892687320709228516e+00 -6.257217407226562500e+00 9.704203344881534576e-03
-4.925401687622070312e+00 -6.220023155212402344e+00 9.693208150565624237e-03
-4.957843780517578125e+00 -6.182662963867187500e+00 9.682212024927139282e-03
-4.973623752593994141e+00 -6.124955654144287109e+00 9.639451280236244202e-03
-4.999680042266845703e+00 -6.080419063568115234e+00 9.617459960281848907e-03
-5.038814067840576172e+00 -6.051932811737060547e+00 9.621125645935535431e-03
-5.061673164367675781e+00 -6.004080772399902344e+00 9.594247676432132721e-03
-5.086731910705566406e+00 -5.959219455718994141e+00 9.572256356477737427e-03
-5.280134201049804688e+00 -6.109477996826171875e+00 9.865472093224525452e-03
-4.948093891143798828e+00 -5.654775142669677734e+00 9.180081076920032501e-03
-4.990655422210693359e+00 -5.633290290832519531e+00 9.194741956889629364e-03
-5.341617107391357422e+00 -5.955420494079589844e+00 9.773841127753257751e-03
-5.386125564575195312e+00 -5.931416511535644531e+00 9.788502007722854614e-03
-5.392640113830566406e+00 -5.865864753723144531e+00 9.734746068716049194e-03
-5.434662342071533203e+00 -5.839253425598144531e+00 9.745742194354534149e-03
-5.595199584960937500e+00 -5.938260078430175781e+00 9.968097321689128876e-03
-5.556986808776855469e+00 -5.825668334960937500e+00 9.836150333285331726e-03
-5.505101203918457031e+00 -5.700823783874511719e+00 9.682212024927139282e-03
-5.561647891998291016e+00 -5.689105033874511719e+00 9.720085188746452332e-03
-5.590120315551757812e+00 -5.648475646972656250e+00 9.709089994430541992e-03
-5.662185192108154297e+00 -5.651509761810302734e+00 9.773841127753257751e-03
-5.739481449127197266e+00 -5.658786296844482422e+00 9.847145527601242065e-03
-4.614431858062744141e+00 -3.609447002410888672e+00 1.738738566637039185e-01
-5.782691955566406250e+00 -5.631835460662841797e+00 9.861806407570838928e-03
-4.637283802032470703e+00 -3.581676721572875977e+00 1.739035397768020630e-01
-5.925237655639648438e+00 -5.700240612030029297e+00 1.004506554454565048e-02
-4.644866466522216797e+00 -3.542244911193847656e+00 1.733695417642593384e-01
-5.953577995300292969e+00 -5.657577514648437500e+00 1.003407035022974014e-02
-5.924747943878173828e+00 -5.561398029327392578e+00 9.927779436111450195e-03
-5.934561729431152344e+00 -5.502502918243408203e+00 9.887462481856346130e-03
-5.901104450225830078e+00 -5.404524803161621094e+00 9.776285849511623383e-03
-4.620361804962158203e+00 -3.608969926834106445e+00 1.187133789062500000e-01
-6.164045810699462891e+00 -5.576180458068847656e+00 1.015502121299505234e-02
-4.651127338409423828e+00 -3.587268829345703125e+00 1.189360693097114563e-01
-6.173536777496337891e+00 -5.516265869140625000e+00 1.011470425873994827e-02
-4.666687488555908203e+00 -3.553816318511962891e+00 1.187741085886955261e-01
-6.255252361297607422e+00 -5.520631313323974609e+00 1.019289530813694000e-02
-6.264132976531982422e+00 -5.460461616516113281e+00 1.015257835388183594e-02
-6.311160564422607422e+00 -5.433666706085205078e+00 1.017456874251365662e-02
-6.287246227264404297e+00 -5.346255302429199219e+00 1.008293963968753815e-02
-4.636929988861083984e+00 -3.616783380508422852e+00 6.261093169450759888e-02
-6.069523811340332031e+00 -5.097280502319335938e+00 9.683433920145034790e-03
-4.639229774475097656e+00 -3.573010206222534180e+00 6.234477832913398743e-02
-6.203826427459716797e+00 -5.145487785339355469e+00 9.847145527601242065e-03
-4.659473896026611328e+00 -3.543266534805297852e+00 6.232348456978797913e-02
-6.500629901885986328e+00 -5.324671745300292969e+00 1.026619970798492432e-02
-6.520738601684570312e+00 -5.274621486663818359e+00 1.024665124714374542e-02
-6.541260719299316406e+00 -5.225150585174560547e+00 1.022832561284303665e-02
-4.647248268127441406e+00 -3.665732622146606445e+00 7.231421303004026413e-03
-4.637515068054199219e+00 -3.614718198776245117e+00 2.207428216934204102e-01
-4.638096332550048828e+00 -3.612569093704223633e+00 7.182552013546228409e-03
-4.669110298156738281e+00 -3.593508720397949219e+00 2.211930155754089355e-01
-4.634016513824462891e+00 -3.563924312591552734e+00 7.142234593629837036e-03
-4.671976089477539062e+00 -3.550281047821044922e+00 2.202926278114318848e-01
-4.648629665374755859e+00 -3.529980897903442383e+00 7.131239399313926697e-03
-4.675802230834960938e+00 -3.505589962005615234e+00 7.139791734516620636e-03
-6.836856842041015625e+00 -5.060565948486328125e+00 1.039203722029924393e-02
-6.724060535430908203e+00 -4.913500785827636719e+00 1.017456874251365662e-02
-6.266666412353515625e+00 -4.520545959472656250e+00 9.440309368073940277e-03
-6.888117313385009766e+00 -4.904861927032470703e+00 1.033095084130764008e-02
-6.329031944274902344e+00 -4.448479175567626953e+00 9.451305493712425232e-03
-6.962578296661376953e+00 -4.830224990844726562e+00 1.035294122993946075e-02
-6.982183933258056641e+00 -4.780633449554443359e+00 1.033828221261501312e-02
-6.945099353790283203e+00 -4.692910671234130859e+00 1.024054270237684250e-02
-6.903044700622558594e+00 -4.603051185607910156e+00 1.013669557869434357e-02
-6.907767772674560547e+00 -4.545217514038085938e+00 1.010248716920614243e-02
-6.905332565307617188e+00 -4.483143806457519531e+00 1.005850546061992645e-02
-1.404909801483154297e+01 -6.983586311340332031e+00 4.656414091587066650e-01
-6.832504749298095703e+00 -4.376503467559814453e+00 9.913118556141853333e-03
-1.408809185028076172e+01 -6.895493030548095703e+00 4.655227065086364746e-01
-7.014775753021240234e+00 -4.432790279388427734e+00 1.013791747391223907e-02
-1.412923717498779297e+01 -6.808486461639404297e+00 4.654930531978607178e-01
-7.063057899475097656e+00 -4.402889728546142578e+00 1.016846019774675369e-02
-1.414455604553222656e+01 -6.709239959716796875e+00 4.646327197551727295e-01
-7.157237052917480469e+00 -4.400847911834716797e+00 1.026497781276702881e-02
-1.489395999908447266e+01 -6.956247329711914062e+00 1.083189368247985840e+00
-1.420266628265380859e+01 -6.630358219146728516e+00 4.651964008808135986e-01
-7.164439678192138672e+00 -4.344922542572021484e+00 1.023687794804573059e-02
-1.479854869842529297e+01 -6.801389694213867188e+00 1.073195099830627441e+00
-1.412863540649414062e+01 -6.490512371063232422e+00 4.614584445953369141e-01
-6.845104694366455078e+00 -4.094023704528808594e+00 9.744520299136638641e-03
-1.486455154418945312e+01 -6.721560478210449219e+00 1.074970364570617676e+00
-7.841464996337890625e+00 -3.544162034988403320e+00 2.553966939449310303e-01
-7.285264968872070312e+00 -4.296810150146484375e+00 1.033339370042085648e-02
-1.486813449859619141e+01 -6.613599300384521484e+00 1.072274565696716309e+00
-1.414150238037109375e+01 -6.915708065032958984e+00 8.883803486824035645e-01
-7.857583999633789062e+00 -3.493544578552246094e+00 2.552187144756317139e-01
-1.427939796447753906e+01 -6.976968765258789062e+00 3.218055665493011475e-01
-7.327917098999023438e+00 -4.261579513549804688e+00 1.035660691559314728e-02
-1.495140171051025391e+01 -6.541043281555175781e+00 1.075364947319030762e+00
-1.417557334899902344e+01 -6.824909210205078125e+00 8.878731727600097656e-01
-1.431439876556396484e+01 -6.259386539459228516e+00 4.636834263801574707e-01
-1.426517772674560547e+01 -6.861917018890380859e+00 3.205301761627197266e-01
-7.337444782257080078e+00 -4.207085132598876953e+00 1.033339370042085648e-02
-1.496009063720703125e+01 -6.435772895812988281e+00 1.073129415512084961e+00
-1.419913959503173828e+01 -6.729249477386474609e+00 8.867463469505310059e-01
-1.436263656616210938e+01 -6.175780296325683594e+00 4.640097320079803467e-01
-1.415339756011962891e+01 -6.701522350311279297e+00 3.170886337757110596e-01
-7.359638690948486328e+00 -4.160016059875488281e+00 1.032850705087184906e-02
-1.420758819580078125e+01 -6.626805305480957031e+00 8.847179412841796875e-01
-1.442051506042480469e+01 -6.096098899841308594e+00 4.646624028682708740e-01
-1.420331192016601562e+01 -6.618775367736816406e+00 3.172910511493682861e-01
-7.605161190032958984e+00 -4.237434387207031250e+00 1.063638366758823395e-02
-1.421259307861328125e+01 -6.523262023925781250e+00 8.825204968452453613e-01
-1.450472354888916016e+01 -6.027062416076660156e+00 4.661753773689270020e-01
-1.428455257415771484e+01 -6.550253868103027344e+00 3.182020485401153564e-01
-7.661696434020996094e+00 -4.207537651062011719e+00 1.067914348095655441e-02
-1.425690174102783203e+01 -6.437986850738525391e+00 8.828022480010986328e-01
-1.409136676788330078e+01 -6.989651679992675781e+00 7.390399575233459473e-01
-1.475797176361083984e+01 -6.026372909545898438e+00 4.731172919273376465e-01
-7.837542533874511719e+00 -3.535904645919799805e+00 1.741021573543548584e-01
-7.545776844024658203e+00 -4.083816528320312500e+00 1.048244629055261612e-02
-1.430617237091064453e+01 -6.354845046997070312e+00 8.834220170974731445e-01
-1.409000873565673828e+01 -6.881577014923095703e+00 7.367402911186218262e-01
-7.829848289489746094e+00 -3.474770307540893555e+00 1.734543442726135254e-01
-7.154216289520263672e+00 -3.815333366394042969e+00 9.905789047479629517e-03
-1.436868381500244141e+01 -6.277337074279785156e+00 8.848869800567626953e-01
-1.423909664154052734e+01 -6.846502304077148438e+00 7.423251867294311523e-01
-1.424601173400878906e+01 -6.217823505401611328e+00 3.147402703762054443e-01
-7.084541797637939453e+00 -3.722524166107177734e+00 9.777506813406944275e-03
-1.443903732299804688e+01 -6.202847003936767578e+00 8.868589997291564941e-01
-1.423479080200195312e+01 -6.737210750579833984e+00 7.399317026138305664e-01
-1.436198997497558594e+01 -6.163810729980468750e+00 3.164610564708709717e-01
-7.578816413879394531e+00 -3.923085212707519531e+00 1.042624562978744507e-02
-1.453752899169921875e+01 -6.139771461486816406e+00 8.905777335166931152e-01
-1.426499557495117188e+01 -6.644679546356201172e+00 7.393684983253479004e-01
-1.443546485900878906e+01 -6.090728759765625000e+00 3.172505795955657959e-01
-7.600963592529296875e+00 -3.875600099563598633e+00 1.042380277067422867e-02
-1.465884017944335938e+01 -6.085289478302001953e+00 8.957050442695617676e-01
-1.416747474670410156e+01 -6.493761539459228516e+00 7.322348356246948242e-01
-1.459447002410888672e+01 -6.052596092224121094e+00 3.199228346347808838e-01
-7.753285884857177734e+00 -3.893511295318603516e+00 1.059973146766424179e-02
-1.485583305358886719e+01 -6.060473918914794922e+00 9.054526686668395996e-01
-1.420067787170410156e+01 -6.403834819793701172e+00 7.319062948226928711e-01
-1.410658359527587891e+01 -6.982058525085449219e+00 5.909109711647033691e-01
-1.470632839202880859e+01 -5.993495941162109375e+00 3.215626478195190430e-01
-7.811957359313964844e+00 -3.517902612686157227e+00 9.121757000684738159e-02
-7.832606315612792969e+00 -3.873347997665405273e+00 1.067547965794801712e-02
-1.424153041839599609e+01 -6.317390918731689453e+00 7.320001721382141113e-01
-1.407370185852050781e+01 -6.858597755432128906e+00 5.877596735954284668e-01
-1.488761901855468750e+01 -5.961122989654541016e+00 3.247207701206207275e-01
-7.824253082275390625e+00 -3.465853214263916016e+00 9.111110121011734009e-02
-7.853527545928955078e+00 -3.823901653289794922e+00 1.067181397229433060e-02
-1.442102146148681641e+01 -6.291399002075195312e+00 7.392277121543884277e-01
-1.413083744049072266e+01 -6.779462337493896484e+00 5.883974432945251465e-01
-7.808702468872070312e+00 -3.401804685592651367e+00 9.068524837493896484e-02
-7.858807563781738281e+00 -3.766996145248413086e+00 1.064737886190414429e-02
-1.446577930450439453e+01 -6.205551624298095703e+00 7.395561933517456055e-01
-1.415951919555664062e+01 -6.686655521392822266e+00 5.878722071647644043e-01
-7.814848899841308594e+00 -3.687129020690917969e+00 1.055697165429592133e-02
-1.443455410003662109e+01 -6.087562561035156250e+00 7.360363006591796875e-01
-1.412868976593017578e+01 -6.566376209259033203e+00 5.849084258079528809e-01
-7.820999145507812500e+00 -3.631527662277221680e+00 1.053497940301895142e-02
-1.461558532714843750e+01 -6.058550357818603516e+00 7.433577179908752441e-01
-1.410510063171386719e+01 -6.450469017028808594e+00 5.822823643684387207e-01
-1.465807437896728516e+01 -6.067171573638916016e+00 1.689036786556243896e-01
-7.797656536102294922e+00 -3.562691926956176758e+00 1.047389302402734756e-02
-1.475424385070800781e+01 -6.010209083557128906e+00 7.485202550888061523e-01
-1.418177795410156250e+01 -6.380610942840576172e+00 5.838204622268676758e-01
-1.460888385772705078e+01 -5.942079067230224609e+00 1.679135560989379883e-01
-7.801128387451171875e+00 -3.506579875946044922e+00 1.044945884495973587e-02
-1.426635169982910156e+01 -6.313693523406982422e+00 5.856962800025939941e-01
-7.812437534332275391e+00 -3.454199075698852539e+00 1.043601986020803452e-02
-1.432223224639892578e+01 -6.233615398406982422e+00 5.864090919494628906e-01
-7.852743148803710938e+00 -3.414571762084960938e+00 1.046167593449354172e-02
-1.436847972869873047e+01 -6.149156570434570312e+00 5.867466926574707031e-01
-7.914923191070556641e+00 -3.384014368057250977e+00 1.051665470004081726e-02
-1.443173122406005859e+01 -6.071728706359863281e+00 5.877971649169921875e-01
-8.022194862365722656e+00 -3.371808290481567383e+00 1.063149701803922653e-02
-1.456937122344970703e+01 -6.024685859680175781e+00 5.918863415718078613e-01
-8.250686645507812500e+00 -3.408428907394409180e+00 1.090638525784015656e-02
-1.479492378234863281e+01 -6.011919975280761719e+00 5.995395779609680176e-01
-8.140799522399902344e+00 -3.304704904556274414e+00 1.073412131518125534e-02
-8.163709640502929688e+00 -3.255803108215332031e+00 1.073778700083494186e-02
-8.189120292663574219e+00 -3.207838296890258789e+00 1.074511650949716568e-02
-8.317849159240722656e+00 -3.199535369873046875e+00 1.088806055486202240e-02
-8.331710815429687500e+00 -3.146317958831787109e+00 1.088072918355464935e-02
-8.429623603820800781e+00 -3.124329328536987305e+00 1.098335534334182739e-02
-1.100899410247802734e+01 -2.698975563049316406e+00 3.364152014255523682e-01
-8.459913253784179688e+00 -3.076648712158203125e+00 1.099801622331142426e-02
-8.368433952331542969e+00 -2.985369443893432617e+00 1.085507310926914215e-02
-8.437564849853515625e+00 -2.951797008514404297e+00 1.092104613780975342e-02
-8.473489761352539062e+00 -2.906133413314819336e+00 1.094425935298204422e-02
-8.447560310363769531e+00 -2.839430570602416992e+00 1.088806055486202240e-02
-1.097149944305419922e+01 -2.753242015838623047e+00 2.290455549955368042e-01
-8.542708396911621094e+00 -2.813192129135131836e+00 1.098824199289083481e-02
-1.101926517486572266e+01 -2.693467140197753906e+00 2.296933829784393311e-01
-8.521739959716796875e+00 -2.748444080352783203e+00 1.093937270343303680e-02
-8.702461242675781250e+00 -2.747894287109375000e+00 1.114950980991125107e-02
-8.593998908996582031e+00 -2.655767679214477539e+00 1.098946388810873032e-02
-8.616832733154296875e+00 -2.605011463165283203e+00 1.099801622331142426e-02
-8.669095039367675781e+00 -2.562863349914550781e+00 1.104444079101085663e-02
-1.100411796569824219e+01 -2.753390312194824219e+00 1.207717210054397583e-01
-8.677932739257812500e+00 -2.507679462432861328e+00 1.103588845580816269e-02
-1.100623226165771484e+01 -2.682266950607299805e+00 1.206120178103446960e-01
-8.707592010498046875e+00 -2.458461046218872070e+00 1.105421502143144608e-02
-8.750470161437988281e+00 -2.412694454193115234e+00 1.108964532613754272e-02
-8.740967750549316406e+00 -2.352459907531738281e+00 1.105910167098045349e-02
-8.634335517883300781e+00 -2.267037868499755859e+00 1.090638525784015656e-02
-8.439801216125488281e+00 -2.160693407058715820e+00 1.064371410757303238e-02
-8.498502731323242188e+00 -2.120244026184082031e+00 1.070113573223352432e-02
-8.889353752136230469e+00 -2.159903764724731445e+00 1.117638871073722839e-02
-8.469384193420410156e+00 -2.002906560897827148e+00 1.063271798193454742e-02
-8.527318000793457031e+00 -1.961437463760375977e+00 1.069013867527246475e-02
-8.255204200744628906e+00 -1.845587611198425293e+00 1.033461652696132660e-02
-8.728601455688476562e+00 -1.895264744758605957e+00 1.091249380260705948e-02
-9.175504684448242188e+00 -1.933425188064575195e+00 1.145616453140974045e-02
-8.897186279296875000e+00 -1.817835569381713867e+00 1.109453197568655014e-02
-8.925829887390136719e+00 -1.766704201698303223e+00 1.111652236431837082e-02
-8.914895057678222656e+00 -1.707764029502868652e+00 1.108964532613754272e-02
-9.043199539184570312e+00 -1.674884557723999023e+00 1.123625319451093674e-02
-8.633962631225585938e+00 -1.544356942176818848e+00 1.071579661220312119e-02
-9.171469688415527344e+00 -1.582487940788269043e+00 1.137064304202795029e-02
-9.204682350158691406e+00 -1.530118703842163086e+00 1.139996480196714401e-02
-9.258333206176757812e+00 -1.480717658996582031e+00 1.145494263619184494e-02
-9.232649803161621094e+00 -1.418566465377807617e+00 1.141218189150094986e-02
-9.024520874023437500e+00 -1.329959869384765625e+00 1.114462316036224365e-02
-9.074099540710449219e+00 -1.280429720878601074e+00 1.119593624025583267e-02
-9.325578689575195312e+00 -1.257604837417602539e+00 1.149648148566484451e-02
-9.461065292358398438e+00 -1.216816067695617676e+00 1.165408454835414886e-02
-9.474308013916015625e+00 -1.159469842910766602e+00 1.166141498833894730e-02
-9.375952720642089844e+00 -1.089084386825561523e+00 1.153191085904836655e-02
-9.553427696228027344e+00 -1.050330996513366699e+00 1.174204889684915543e-02
-9.317990303039550781e+00 -9.666190147399902344e-01 1.144516840577125549e-02
-9.609390258789062500e+00 -9.372881650924682617e-01 1.179580576717853546e-02
-9.584089279174804688e+00 -8.754883408546447754e-01 1.175793167203664780e-02
-9.859303474426269531e+00 -8.396612405776977539e-01 1.208902057260274887e-02
-9.874238967895507812e+00 -7.799373269081115723e-01 1.210123859345912933e-02
-1.007033061981201172e+01 -7.332791090011596680e-01 1.233580987900495529e-02
-1.006765556335449219e+01 -6.710094213485717773e-01 1.232725754380226135e-02
-9.718229293823242188e+00 -5.878487229347229004e-01 1.189476530998945236e-02
-9.812520027160644531e+00 -5.331447720527648926e-01 1.200594287365674973e-02
-9.872540473937988281e+00 -4.756693542003631592e-01 1.207558158785104752e-02
-9.870278358459472656e+00 -4.148736596107482910e-01 1.206947304308414459e-02
-9.879632949829101562e+00 -3.545539975166320801e-01 1.207802537828683853e-02
-1.078180599212646484e+01 8.497299551963806152e-01 3.209887742996215820e-01
-1.005854415893554688e+01 -2.991895377635955811e-01 1.229427196085453033e-02
-7.923932552337646484e+00 6.734436750411987305e-01 2.360246479511260986e-01
-9.257414817810058594e+00 -2.185167074203491211e-01 1.131322141736745834e-02
-7.908701419830322266e+00 7.210530042648315430e-01 2.356983125209808350e-01
-1.018643951416015625e+01 -1.779161095619201660e-01 1.244698744267225266e-02
-1.001235008239746094e+01 -1.134275421500205994e-01 1.223318465054035187e-02
-1.011285686492919922e+01 -5.251001194119453430e-02 1.235535833984613419e-02
-1.012398815155029297e+01 9.552680887281894684e-03 1.236879732459783554e-02
-1.076482009887695312e+01 8.558354377746582031e-01 2.186601608991622925e-01
-9.325759887695312500e+00 6.602273881435394287e-02 1.139385625720024109e-02
-7.885486602783203125e+00 6.756347417831420898e-01 1.602549701929092407e-01
-9.322179794311523438e+00 1.232036501169204712e-01 1.139019150286912918e-02
-7.884179115295410156e+00 7.242808341979980469e-01 1.603156924247741699e-01
-1.035205364227294922e+01 2.003511041402816772e-01 1.264979410916566849e-02
-1.058255481719970703e+01 2.697787582874298096e-01 1.293323654681444168e-02
-4.879611015319824219e+00 6.876844763755798340e-01 1.462545990943908691e-01
-1.017090511322021484e+01 3.217436671257019043e-01 1.243232656270265579e-02
-4.843654632568359375e+00 7.129543423652648926e-01 1.453052759170532227e-01
-1.077989482879638672e+01 7.979512810707092285e-01 1.150865852832794189e-01
-1.061242294311523438e+01 4.009061753749847412e-01 1.297477539628744125e-02
-1.372704696655273438e+01 1.601628541946411133e+00 2.798388600349426270e-01
-1.076482868194580078e+01 8.632811307907104492e-01 1.149801239371299744e-01
-1.031304931640625000e+01 4.529826045036315918e-01 1.261192187666893005e-02
-7.901133060455322266e+00 6.824454069137573242e-01 8.443586528301239014e-02
-1.027611827850341797e+01 5.145534276962280273e-01 1.257038209587335587e-02
-7.883852958679199219e+00 7.297149300575256348e-01 8.429746329784393311e-02
-1.073403835296630859e+01 6.035321950912475586e-01 1.313482131808996201e-02
-1.076905822753906250e+01 6.718119382858276367e-01 1.318246964365243912e-02
-4.830789089202880859e+00 6.841901540756225586e-01 9.879285097122192383e-02
-1.073480319976806641e+01 7.358254194259643555e-01 1.314581651240587234e-02
-4.851226329803466797e+00 7.174752950668334961e-01 9.929896146059036255e-02
-1.075800800323486328e+01 8.037651777267456055e-01 1.318002492189407349e-02
-4.829934120178222656e+00 7.446385622024536133e-01 9.895480424165725708e-02
-1.373294448852539062e+01 1.611883401870727539e+00 1.472171545028686523e-01
-7.888231754302978516e+00 6.380497813224792480e-01 9.668773040175437927e-03
-1.370294761657714844e+01 1.693663597106933594e+00 1.470042169094085693e-01
-7.886160850524902344e+00 6.866124868392944336e-01 9.671216830611228943e-03
-7.893747806549072266e+00 7.361023426055908203e-01 9.685877710580825806e-03
-4.869841098785400391e+00 6.626751422882080078e-01 5.232660472393035889e-02
-7.886096954345703125e+00 7.842267155647277832e-01 9.682212024927139282e-03
-4.870848655700683594e+00 6.906768083572387695e-01 2.311406582593917847e-01
-4.885482788085937500e+00 6.953614950180053711e-01 5.253953114151954651e-02
-1.084364795684814453e+01 1.145573735237121582e+00 1.332174614071846008e-02
-4.882112979888916016e+00 7.254721522331237793e-01 5.255017802119255066e-02
-9.941993713378906250e+00 1.112043619155883789e+00 1.222218945622444153e-02
-4.865711688995361328e+00 7.535780668258666992e-01 5.242241919040679932e-02
-1.346545791625976562e+01 1.589869499206542969e+00 1.656544022262096405e-02
-1.130896759033203125e+01 1.405662536621093750e+00 1.392283849418163300e-02
-4.906374454498291016e+00 6.404380202293395996e-01 6.045121233910322189e-03
-4.885509014129638672e+00 6.682271361351013184e-01 6.024351809173822403e-03
-4.949355602264404297e+00 7.061603665351867676e-01 1.876914203166961670e-01
-4.891216278076171875e+00 6.996074318885803223e-01 6.036569364368915558e-03
-4.846090316772460938e+00 7.217942476272583008e-01 1.839398443698883057e-01
-4.884853363037109375e+00 7.293108105659484863e-01 6.034125573933124542e-03
-4.871393680572509766e+00 7.578864097595214844e-01 6.023129913955926895e-03
-1.233872604370117188e+01 2.075034856796264648e+00 1.528628915548324585e-02
-1.295820522308349609e+01 2.261059045791625977e+00 1.607063971459865570e-02
-1.325898170471191406e+01 2.397464990615844727e+00 1.646159403026103973e-02
-1.293439769744873047e+01 2.420825719833374023e+00 1.607674732804298401e-02
-1.344848251342773438e+01 2.602551460266113281e+00 1.673526130616664886e-02
-1.421085643768310547e+01 2.840657234191894531e+00 1.770531386137008667e-02
-1.229218482971191406e+01 2.535662174224853516e+00 1.533393654972314835e-02
-1.204164600372314453e+01 2.561109781265258789e+00 1.504072081297636032e-02
-1.304821109771728516e+01 2.943009376525878906e+00 1.634186320006847382e-02
-1.432442474365234375e+01 3.509139537811279297e+00 1.801807805895805359e-02
-1.468763446807861328e+01 3.693792581558227539e+00 1.850310340523719788e-02
-1.439227581024169922e+01 3.902540922164916992e+00 1.821844093501567841e-02
-1.402119159698486328e+01 3.894433021545410156e+00 1.777861826121807098e-02
-2.411537885665893555e+00 1.030054092407226562e+00 1.727947890758514404e-01
-2.393274307250976562e+00 1.039663195610046387e+00 1.719400286674499512e-01
-2.372475624084472656e+00 1.031120181083679199e+00 7.677624374628067017e-02
-2.404192447662353516e+00 1.061988949775695801e+00 1.731893122196197510e-01
-2.372503995895385742e+00 1.048486351966857910e+00 7.698390632867813110e-02
-2.350297212600708008e+00 1.055464386940002441e+00 1.697702258825302124e-01
-2.309496879577636719e+00 1.037626147270202637e+00 7.514460384845733643e-02
-2.304904937744140625e+00 1.052607893943786621e+00 7.520393282175064087e-02
-2.414235591888427734e+00 1.032670378684997559e+00 1.481854617595672607e-01
-2.435319900512695312e+00 1.059412598609924316e+00 1.498757898807525635e-01
-2.385158061981201172e+00 1.038581490516662598e+00 5.267602950334548950e-02
-2.415990591049194336e+00 1.068681120872497559e+00 1.490869671106338501e-01
-2.352228879928588867e+00 1.041458845138549805e+00 5.208893865346908569e-02
-2.387533903121948242e+00 1.073657751083374023e+00 1.477347165346145630e-01
-2.343970775604248047e+00 1.055051445960998535e+00 5.204844847321510315e-02
-2.345635414123535156e+00 1.073157548904418945e+00 5.223064869642257690e-02
-2.448801994323730469e+00 1.031205177307128906e+00 1.248394176363945007e-01
-2.351698637008666992e+00 1.093431234359741211e+00 5.251406878232955933e-02
-1.455745697021484375e+01 5.528769016265869141e+00 1.902478374540805817e-02
-2.438755750656127930e+00 1.044638037681579590e+00 1.246516928076744080e-01
-2.424058198928833008e+00 1.055991888046264648e+00 1.242293044924736023e-01
-2.416619777679443359e+00 1.070441246032714844e+00 1.241823732852935791e-01
-2.384767055511474609e+00 1.057826161384582520e+00 2.777621708810329437e-02
-2.395433187484741211e+00 1.078686833381652832e+00 1.234314590692520142e-01
-2.356354236602783203e+00 1.062573552131652832e+00 2.752070501446723938e-02
-2.397852182388305664e+00 1.097521901130676270e+00 1.239007785916328430e-01
-2.443627119064331055e+00 1.014885902404785156e+00 3.232698189094662666e-03
-2.414324998855590820e+00 1.020130157470703125e+00 3.202154766768217087e-03
-2.389645338058471680e+00 1.027027845382690430e+00 3.177720354869961739e-03
-2.402133464813232422e+00 1.048904657363891602e+00 9.840387850999832153e-02
-2.373219490051269531e+00 1.037265777587890625e+00 3.164281370118260384e-03
-2.386519193649291992e+00 1.059569120407104492e+00 9.802871942520141602e-02
-2.370465517044067383e+00 1.053432345390319824e+00 3.169168252497911453e-03
-2.354843854904174805e+00 1.063840389251708984e+00 3.156950930133461952e-03
-2.356451034545898438e+00 1.082025051116943359e+00 3.167946590110659599e-03
-2.354298353195190430e+00 1.098577857017517090e+00 3.174055134877562523e-03
-8.168118476867675781e+00 6.604827880859375000e+00 3.117625713348388672e-01
-8.133624076843261719e+00 6.659887790679931641e+00 3.119998872280120850e-01
-8.094915390014648438e+00 6.711583614349365234e+00 3.120889067649841309e-01
-8.052815437316894531e+00 6.760483741760253906e+00 3.120592236518859863e-01
-8.198105812072753906e+00 6.555523872375488281e+00 2.125463485717773438e-01
-8.158505439758300781e+00 6.606332302093505859e+00 2.125665992498397827e-01
-8.151060104370117188e+00 6.683526515960693359e+00 2.134370952844619751e-01
-3.891493320465087891e+00 3.467422723770141602e+00 1.119296073913574219e+00
-8.092205047607421875e+00 6.718725204467773438e+00 2.129714787006378174e-01
-3.879869937896728516e+00 3.501236915588378906e+00 1.327258586883544922e+00
-3.847639322280883789e+00 3.470933437347412109e+00 1.112787246704101562e+00
-8.048531532287597656e+00 6.766321659088134766e+00 2.129107415676116943e-01
-3.854020357131958008e+00 3.521054983139038086e+00 1.325781702995300293e+00
-3.811830997467041016e+00 3.481289863586425781e+00 1.108588099479675293e+00
-3.818298101425170898e+00 3.488418817520141602e+00 9.138056635856628418e-01
-3.861546993255615234e+00 3.534118890762329102e+00 3.449320793151855469e-01
-3.892666578292846680e+00 3.563848257064819336e+00 1.566377729177474976e-01
-3.818112373352050781e+00 3.531474113464355469e+00 1.320858597755432129e+00
-3.807627439498901367e+00 3.520543575286865234e+00 1.113627195358276367e+00
-3.798990249633789062e+00 3.513787746429443359e+00 9.143276214599609375e-01
-3.821779727935791016e+00 3.536104202270507812e+00 7.252723574638366699e-01
-3.843913078308105469e+00 3.559074163436889648e+00 5.367342233657836914e-01
-3.847108602523803711e+00 3.564527988433837891e+00 3.455895781517028809e-01
-3.872191905975341797e+00 3.589025020599365234e+00 1.566971093416213989e-01
-3.804861545562744141e+00 3.562784910202026367e+00 1.323812484741210938e+00
-3.815219640731811523e+00 3.571234226226806641e+00 1.122235536575317383e+00
-3.779515266418457031e+00 3.539051055908203125e+00 9.148496389389038086e-01
-3.786276578903198242e+00 3.546622753143310547e+00 7.226510643959045410e-01
-3.812567234039306641e+00 3.573748588562011719e+00 5.354092121124267578e-01
-3.815703630447387695e+00 3.579191684722900391e+00 3.447348177433013916e-01
-3.846452951431274414e+00 3.609297037124633789e+00 1.565487831830978394e-01
-3.804468870162963867e+00 3.607743501663208008e+00 1.545108675956726074e+00
-3.810362100601196289e+00 3.612069368362426758e+00 1.333412408828735352e+00
-3.778331995010375977e+00 3.580454111099243164e+00 1.117826342582702637e+00
-3.766304969787597656e+00 3.570304870605468750e+00 9.169375300407409668e-01
-3.749351501464843750e+00 3.555476427078247070e+00 7.197538614273071289e-01
-3.793453931808471680e+00 3.599813938140869141e+00 5.358169078826904297e-01
-3.799459218978881836e+00 3.608034133911132812e+00 3.452608585357666016e-01
-3.832930326461791992e+00 3.641091346740722656e+00 1.569047719240188599e-01
-8.129125595092773438e+00 6.674889087677001953e+00 1.119885072112083435e-01
-3.786412239074707031e+00 3.635005235671997070e+00 1.546804785728454590e+00
-3.799315690994262695e+00 3.646118640899658203e+00 1.337350845336914062e+00
-3.876811027526855469e+00 3.453050613403320312e+00 1.262708187103271484e+00
-3.747824907302856445e+00 3.595447778701782227e+00 1.115306854248046875e+00
-3.879891157150268555e+00 3.458223819732666016e+00 1.063090205192565918e+00
-3.730117082595825195e+00 3.579710245132446289e+00 9.134576916694641113e-01
-3.716747283935546875e+00 3.568125963211059570e+00 7.176843881607055664e-01
-3.740446805953979492e+00 3.593387603759765625e+00 5.314341187477111816e-01
-3.783003807067871094e+00 3.636811494827270508e+00 3.457868695259094238e-01
-3.793226003646850586e+00 3.647912979125976562e+00 1.561927795410156250e-01
-8.095705032348632812e+00 6.731035709381103516e+00 1.120949760079383850e-01
-3.766100883483886719e+00 3.660175561904907227e+00 1.547652840614318848e+00
-3.789385318756103516e+00 3.681519269943237305e+00 1.341781616210937500e+00
-3.862766265869140625e+00 3.483280181884765625e+00 1.265071392059326172e+00
-3.722887516021728516e+00 3.615651607513427734e+00 1.114466905593872070e+00
-3.856416702270507812e+00 3.479995965957641602e+00 1.062489032745361328e+00
-3.705963134765625000e+00 3.600471735000610352e+00 9.129356741905212402e-01
-3.692653179168701172e+00 3.588793754577636719e+00 7.172704935073852539e-01
-3.713335752487182617e+00 3.611415863037109375e+00 5.307206511497497559e-01
-3.891808748245239258e+00 3.788957595825195312e+00 1.612063795328140259e-01
-3.741519927978515625e+00 3.681196689605712891e+00 1.546804785728454590e+00
-3.780544996261596680e+00 3.718293905258178711e+00 1.346704721450805664e+00
-3.844191074371337891e+00 3.509536743164062500e+00 1.266016721725463867e+00
-3.716667652130126953e+00 3.654192447662353516e+00 1.119296073913574219e+00
-3.842947721481323242e+00 3.510861873626708984e+00 1.064693331718444824e+00
-3.680992841720581055e+00 3.620381116867065430e+00 9.122396707534790039e-01
-3.690331459045410156e+00 3.630833387374877930e+00 7.211334705352783203e-01
-3.854611873626708984e+00 3.526458263397216797e+00 6.766716241836547852e-01
-3.791057586669921875e+00 3.732540845870971680e+00 5.450919866561889648e-01
-3.823385477066040039e+00 3.766998767852783203e+00 3.536770343780517578e-01
-3.884045124053955078e+00 3.558370113372802734e+00 2.972724139690399170e-01
-3.862079381942749023e+00 3.806450843811035156e+00 1.609393805265426636e-01
-3.712066173553466797e+00 3.697315931320190430e+00 1.543978095054626465e+00
-3.784445285797119141e+00 3.768091678619384766e+00 1.356304645538330078e+00
-3.813308238983154297e+00 3.524484395980834961e+00 1.262944459915161133e+00
-3.699719429016113281e+00 3.682446479797363281e+00 1.120975732803344727e+00
-3.830683231353759766e+00 3.543023824691772461e+00 1.067298531532287598e+00
-3.664989948272705078e+00 3.649152755737304688e+00 9.138056635856628418e-01
-3.783909320831298828e+00 3.502213716506958008e+00 8.591045737266540527e-01
-3.696053266525268555e+00 3.681366443634033203e+00 7.266519665718078613e-01
-3.824898242950439453e+00 3.542630910873413086e+00 6.752586960792541504e-01
-3.759629249572753906e+00 3.747305154800415039e+00 5.438689589500427246e-01
-3.845627069473266602e+00 3.564324855804443359e+00 4.873386919498443604e-01
-3.816448926925659180e+00 3.806595087051391602e+00 3.551893234252929688e-01
-3.845302104949951172e+00 3.566519737243652344e+00 2.959765195846557617e-01
-3.828037261962890625e+00 3.819486379623413086e+00 1.604943871498107910e-01
-3.872833728790283203e+00 3.594570875167846680e+00 1.069918498396873474e-01
-3.685257196426391602e+00 3.715936660766601562e+00 1.542281985282897949e+00
-3.780366659164428711e+00 3.810507297515869141e+00 1.363196969032287598e+00
-3.790191650390625000e+00 3.546488523483276367e+00 1.262471795082092285e+00
-3.697027444839477539e+00 3.725203037261962891e+00 1.127064585685729980e+00
-3.810301780700683594e+00 3.567800998687744141e+00 1.067699193954467773e+00
-3.659175157546997070e+00 3.688349723815917969e+00 9.179814457893371582e-01
-3.763068675994873047e+00 3.526039838790893555e+00 8.592689037322998047e-01
-3.685251712799072266e+00 3.715930938720703125e+00 7.289973497390747070e-01
-3.785726547241210938e+00 3.549752950668334961e+00 6.721758842468261719e-01
-3.734464406967163086e+00 3.768183231353759766e+00 5.435631275177001953e-01
-3.812793016433715820e+00 3.577634334564208984e+00 4.859505295753479004e-01
-3.778274774551391602e+00 3.815051794052124023e+00 3.538085222244262695e-01
-3.813156127929687500e+00 3.580478906631469727e+00 2.951877117156982422e-01
-3.787651300430297852e+00 3.825854778289794922e+00 1.597823947668075562e-01
-3.845604658126831055e+00 3.613474130630493164e+00 1.068501397967338562e-01
-8.113042831420898438e+00 6.588002681732177734e+00 1.276830211281776428e-02
-3.756236314773559570e+00 3.832939386367797852e+00 1.362950801849365234e+00
-3.786700248718261719e+00 3.587051630020141602e+00 1.268616318702697754e+00
-3.680945158004760742e+00 3.754799365997314453e+00 1.129164218902587891e+00
-3.769851922988891602e+00 3.573589086532592773e+00 1.062489032745361328e+00
-3.656463384628295898e+00 3.731128931045532227e+00 9.230272173881530762e-01
-3.747087478637695312e+00 3.554493904113769531e+00 8.605837821960449219e-01
-3.675550937652587891e+00 3.751915931701660156e+00 7.316187024116516113e-01
-3.744454383850097656e+00 3.554480314254760742e+00 6.687077879905700684e-01
-3.712664842605590820e+00 3.792448282241821289e+00 5.437669754028320312e-01
-3.767668008804321289e+00 3.579017162322998047e+00 4.829891026020050049e-01
-3.745026111602783203e+00 3.828177213668823242e+00 3.528880178928375244e-01
-3.796903848648071289e+00 3.609311580657958984e+00 2.956384420394897461e-01
-8.114658355712890625e+00 6.667605400085449219e+00 3.942907750606536865e-01
-3.834226369857788086e+00 3.647338628768920898e+00 1.071538031101226807e-01
-8.125763893127441406e+00 6.681482791900634766e+00 1.285260170698165894e-02
-3.790689945220947266e+00 3.632681131362915039e+00 1.487666130065917969e+00
-3.743433475494384766e+00 3.867057561874389648e+00 1.366889357566833496e+00
-3.768826961517333984e+00 3.614253997802734375e+00 1.270034313201904297e+00
-3.871050119400024414e+00 3.446632385253906250e+00 1.208047628402709961e+00
-3.666678667068481445e+00 3.786445379257202148e+00 1.131893634796142578e+00
-3.736543893814086914e+00 3.585799694061279297e+00 1.059282779693603516e+00
-3.847069025039672852e+00 3.430098533630371094e+00 1.003737330436706543e+00
-3.650623798370361328e+00 3.771183013916015625e+00 9.273770451545715332e-01
-3.731610298156738281e+00 3.583568096160888672e+00 8.620630502700805664e-01
-3.682765245437622070e+00 3.805714845657348633e+00 7.376890182495117188e-01
-3.713278293609619141e+00 3.568455696105957031e+00 6.670379042625427246e-01
-3.704538822174072266e+00 3.830890178680419922e+00 5.460093617439270020e-01
-3.731282711029052734e+00 3.588264226913452148e+00 4.811382293701171875e-01
-3.737996816635131836e+00 3.597233057022094727e+00 2.927648723125457764e-01
-8.074362754821777344e+00 6.717909812927246094e+00 3.943283259868621826e-01
-3.811774492263793945e+00 3.670796155929565430e+00 1.071538031101226807e-01
-8.088456153869628906e+00 6.734415054321289062e+00 1.285871118307113647e-02
-3.775924921035766602e+00 3.663241386413574219e+00 1.490664958953857422e+00
-3.661358594894409180e+00 3.829009056091308594e+00 1.345473885536193848e+00
-3.744488000869750977e+00 3.635280847549438477e+00 1.269325375556945801e+00
-3.855616569519042969e+00 3.475536823272705078e+00 1.209863543510437012e+00
-3.688656806945800781e+00 3.856209516525268555e+00 1.145960927009582520e+00
-3.721498727798461914e+00 3.615486145019531250e+00 1.061286687850952148e+00
-3.840522289276123047e+00 3.466793298721313477e+00 1.007560372352600098e+00
-3.680499792098999023e+00 3.849026679992675781e+00 9.409484267234802246e-01
-3.710258960723876953e+00 3.607084989547729492e+00 8.622273802757263184e-01
-3.702460289001464844e+00 3.873345851898193359e+00 7.463807463645935059e-01
-3.699131965637207031e+00 3.598779916763305664e+00 6.684508919715881348e-01
-3.677527427673339844e+00 3.849951744079589844e+00 5.454996824264526367e-01
-3.700634002685546875e+00 3.602756500244140625e+00 4.800276756286621094e-01
-3.867463588714599609e+00 3.767803907394409180e+00 3.047098815441131592e-01
-3.892266511917114258e+00 3.794616937637329102e+00 1.100690066814422607e-01
-3.744453191757202148e+00 3.677576780319213867e+00 1.487120985984802246e+00
-3.730427980422973633e+00 3.666361331939697266e+00 1.272161364555358887e+00
-3.842131137847900391e+00 3.506350278854370117e+00 1.212360382080078125e+00
-3.728044748306274414e+00 3.945571660995483398e+00 1.165697097778320312e+00
-3.712515592575073242e+00 3.651304960250854492e+00 1.065094113349914551e+00
-3.811207771301269531e+00 3.483009099960327148e+00 1.005457639694213867e+00
-3.695355653762817383e+00 3.912342786788940430e+00 9.508659243583679199e-01
-3.679620027542114258e+00 3.621479749679565430e+00 8.602550625801086426e-01
-3.680663824081420898e+00 3.898150920867919922e+00 7.467945814132690430e-01
-3.696058034896850586e+00 3.640198707580566406e+00 6.719190478324890137e-01
-3.855790138244628906e+00 3.531169414520263672e+00 6.280782222747802734e-01
-3.813200235366821289e+00 3.758193731307983398e+00 4.976111352443695068e-01
-3.843560695648193359e+00 3.790761947631835938e+00 3.046535253524780273e-01
-3.913560390472412109e+00 3.589102983474731445e+00 2.494911253452301025e-01
-3.865351915359497070e+00 3.814916372299194336e+00 1.099677830934524536e-01
-3.712265491485595703e+00 3.690986156463623047e+00 1.483304381370544434e+00
-3.738857984542846680e+00 3.720022201538085938e+00 1.282796144485473633e+00
-3.817683219909667969e+00 3.527215719223022461e+00 1.211452484130859375e+00
-3.675079822540283203e+00 3.937637567520141602e+00 1.156668901443481445e+00
-3.696290254592895508e+00 3.680237293243408203e+00 1.066897749900817871e+00
-3.797690153121948242e+00 3.513661384582519531e+00 1.007560372352600098e+00
-3.669265270233154297e+00 3.932783603668212891e+00 9.503439664840698242e-01
-3.659426212310791016e+00 3.646078109741210938e+00 8.607482314109802246e-01
-3.836848497390747070e+00 3.551134109497070312e+00 8.205523490905761719e-01
