-6.219846248626708984e+00 -1.756082534790039062e+00 7.896042428910732269e-03
-1.355118274688720703e+01 -2.195950508117675781e+00 4.074361920356750488e-01
-1.010797595977783203e+01 -2.015129566192626953e+00 2.086998969316482544e-01
-8.148406028747558594e+00 -1.932913303375244141e+00 8.916282653808593750e-02
-6.406920909881591797e+00 -1.766527175903320312e+00 8.119619451463222504e-03
-1.335897159576416016e+01 -2.080763101577758789e+00 4.012656509876251221e-01
-1.001216602325439453e+01 -1.932230353355407715e+00 2.064730077981948853e-01
-8.126985549926757812e+00 -1.875235319137573242e+00 8.880085498094558716e-02
-6.404120922088623047e+00 -1.723543405532836914e+00 8.102514781057834625e-03
-1.407733058929443359e+01 -2.104263544082641602e+00 4.224473237991333008e-01
-1.007002639770507812e+01 -1.879381537437438965e+00 2.074245065450668335e-01
-8.238836288452148438e+00 -1.847874164581298828e+00 8.989742398262023926e-02
-6.402968883514404297e+00 -1.681168556213378906e+00 8.087853901088237762e-03
-1.368825435638427734e+01 -1.960315823554992676e+00 4.104028344154357910e-01
-1.007448005676269531e+01 -1.816315889358520508e+00 2.072827965021133423e-01
-8.274445533752441406e+00 -1.802608132362365723e+00 9.016358852386474609e-02
-6.159349918365478516e+00 -1.576869487762451172e+00 7.767760660499334335e-03
-1.407733535766601562e+01 -1.927963972091674805e+00 4.217056930065155029e-01
-1.001648616790771484e+01 -1.742471337318420410e+00 2.058656811714172363e-01
-8.324482917785644531e+00 -1.760077118873596191e+00 9.058943390846252441e-02
-6.531786441802978516e+00 -1.629578948020935059e+00 8.224687539041042328e-03
-1.385499382019042969e+01 -1.810976982116699219e+00 4.147044718265533447e-01
-1.003783512115478516e+01 -1.682796835899353027e+00 2.060883641242980957e-01
-8.329248428344726562e+00 -1.707760691642761230e+00 9.052555263042449951e-02
-6.498906135559082031e+00 -1.579081296920776367e+00 8.170931600034236908e-03
-1.380434608459472656e+01 -1.718275427818298340e+00 4.128651320934295654e-01
-1.015062236785888672e+01 -1.637736201286315918e+00 2.081937938928604126e-01
-8.242472648620605469e+00 -1.637333393096923828e+00 8.947157114744186401e-02
-6.532802104949951172e+00 -1.544928550720214844e+00 8.201475255191326141e-03
-1.373422527313232422e+01 -1.624033570289611816e+00 4.104621708393096924e-01
-1.012491226196289062e+01 -1.569907426834106445e+00 2.074649930000305176e-01
-8.153186798095703125e+00 -1.567658305168151855e+00 8.839629590511322021e-02
-6.560675144195556641e+00 -1.509074091911315918e+00 8.224687539041042328e-03
-1.327606582641601562e+01 -1.487316370010375977e+00 3.964893817901611328e-01
-1.014127731323242188e+01 -1.508782505989074707e+00 2.076067030429840088e-01
-8.290454864501953125e+00 -1.541362881660461426e+00 8.978031575679779053e-02
-6.636172771453857422e+00 -1.483626365661621094e+00 8.307765237987041473e-03
-4.402470111846923828e+00 -4.658744931221008301e-01 1.313918083906173706e-01
-1.026219081878662109e+01 -1.462467670440673828e+00 2.098943144083023071e-01
-8.281056404113769531e+00 -1.487106442451477051e+00 8.957803249359130859e-02
-6.609971046447753906e+00 -1.435240864753723145e+00 8.263783529400825500e-03
-4.389331340789794922e+00 -4.372672438621520996e-01 1.309171319007873535e-01
-1.036409187316894531e+01 -1.412160754203796387e+00 2.117973119020462036e-01
-8.493974685668945312e+00 -1.471601605415344238e+00 9.178181737661361694e-02
-6.585383892059326172e+00 -1.387645483016967773e+00 8.222244679927825928e-03
-4.368046283721923828e+00 -4.080950617790222168e-01 1.302051544189453125e-01
-1.041321086883544922e+01 -1.353826045989990234e+00 2.126273214817047119e-01
-8.496927261352539062e+00 -1.418467998504638672e+00 9.171794354915618896e-02
-6.609450340270996094e+00 -1.350414991378784180e+00 8.241792209446430206e-03
-4.370468139648437500e+00 -3.812855780124664307e-01 1.302051544189453125e-01
-1.030920028686523438e+01 -1.276028394699096680e+00 2.103396952152252197e-01
-8.411678314208984375e+00 -1.351238489151000977e+00 9.070654213428497314e-02
-6.608783245086669922e+00 -1.308087348937988281e+00 8.230797015130519867e-03
-1.248054885864257812e+01 -1.011697769165039062e+00 3.716290593147277832e-01
-1.040123748779296875e+01 -1.222669720649719238e+00 2.120604813098907471e-01
-8.551247596740722656e+00 -1.319887161254882812e+00 9.212250262498855591e-02
-6.600970745086669922e+00 -1.264501690864562988e+00 8.211248554289340973e-03
-1.257224369049072266e+01 -9.415191411972045898e-01 3.741803765296936035e-01
-1.041152477264404297e+01 -1.159157872200012207e+00 2.121212184429168701e-01
-8.165499687194824219e+00 -1.209098339080810547e+00 8.788526803255081177e-02
-6.616471290588378906e+00 -1.225431919097900391e+00 8.221022784709930420e-03
-1.255883789062500000e+01 -8.630574941635131836e-01 3.736166954040527344e-01
-4.391893386840820312e+00 -4.617034494876861572e-01 8.941967785358428955e-02
-8.068811416625976562e+00 -1.144231438636779785e+00 8.676741272211074829e-02
-6.185818672180175781e+00 -1.106457471847534180e+00 7.677352987229824066e-03
-1.218480491638183594e+01 -7.622661590576171875e-01 3.623435199260711670e-01
-4.380714416503906250e+00 -4.333686530590057373e-01 8.913625776767730713e-02
-8.494822502136230469e+00 -1.151517510414123535e+00 9.127078950405120850e-02
-6.516700267791748047e+00 -1.124421715736389160e+00 8.079302497208118439e-03
-1.246369552612304688e+01 -7.029661536216735840e-01 3.705017268657684326e-01
-4.387272834777832031e+00 -4.068501889705657959e-01 8.921723067760467529e-02
-8.484869956970214844e+00 -1.097192645072937012e+00 9.108981490135192871e-02
-6.633960723876953125e+00 -1.102780818939208984e+00 8.216136135160923004e-03
-1.203650760650634766e+01 -6.048069596290588379e-01 3.576859235763549805e-01
-4.368769168853759766e+00 -3.781123459339141846e-01 8.879210054874420166e-02
-7.945592403411865234e+00 -9.779276251792907715e-01 8.523434400558471680e-02
-6.678125858306884766e+00 -1.068056106567382812e+00 8.262561634182929993e-03
-1.193214511871337891e+01 -5.261850953102111816e-01 3.544819653034210205e-01
-1.037441539764404297e+01 -8.337944149971008301e-01 2.107446044683456421e-01
-8.569204330444335938e+00 -1.001343607902526855e+00 9.185634553432464600e-02
-6.692460536956787109e+00 -1.028274655342102051e+00 8.272335864603519440e-03
-1.188021373748779297e+01 -4.508760273456573486e-01 3.528503477573394775e-01
-1.039828014373779297e+01 -7.715281248092651367e-01 2.111292481422424316e-01
-8.506608963012695312e+00 -9.411578178405761719e-01 9.112174808979034424e-02
-6.696665287017822266e+00 -9.868996143341064453e-01 8.269892074167728424e-03
-1.171891021728515625e+01 -3.727602362632751465e-01 3.479850590229034424e-01
-1.042077255249023438e+01 -7.089323997497558594e-01 2.114936411380767822e-01
-4.381920814514160156e+00 -4.576106667518615723e-01 4.690762981772422791e-02
-6.668928146362304688e+00 -9.410403966903686523e-01 8.228353224694728851e-03
-4.439480781555175781e+00 -4.384486675262451172e-01 2.095988094806671143e-01
-1.111244583129882812e+01 -2.852278947830200195e-01 3.299182951450347900e-01
-1.040397071838378906e+01 -6.436818838119506836e-01 2.110685110092163086e-01
-4.374694824218750000e+00 -4.297375380992889404e-01 4.680117219686508179e-02
-6.704307556152343750e+00 -9.041122794151306152e-01 8.265005424618721008e-03
-4.442087173461914062e+00 -4.112002849578857422e-01 2.095988094806671143e-01
-1.061830043792724609e+01 -2.073579132556915283e-01 3.152038753032684326e-01
-1.046761894226074219e+01 -5.831690430641174316e-01 2.122831642627716064e-01
-4.380236148834228516e+00 -4.031617641448974609e-01 4.683310911059379578e-02
-6.747418880462646484e+00 -8.678057789802551270e-01 8.311430923640727997e-03
-1.066834640502929688e+01 -1.428571343421936035e-01 3.166575133800506592e-01
-1.047199916839599609e+01 -5.189794898033142090e-01 2.123034149408340454e-01
-4.366687297821044922e+00 -3.749089837074279785e-01 4.666277021169662476e-02
-6.762542247772216797e+00 -8.276028037071228027e-01 8.323648013174533844e-03
-1.057506561279296875e+01 -7.671313732862472534e-02 3.138688802719116211e-01
-1.046599674224853516e+01 -4.543244838714599609e-01 2.121212184429168701e-01
-8.559387207031250000e+00 -6.820002198219299316e-01 9.141985327005386353e-02
-6.784379482269287109e+00 -7.880545258522033691e-01 8.344417437911033630e-03
-1.041040992736816406e+01 -1.163990050554275513e-02 3.089739680290222168e-01
-1.045959568023681641e+01 -3.897627294063568115e-01 2.119390219449996948e-01
-8.391881942749023438e+00 -6.168594956398010254e-01 8.958867192268371582e-02
-4.480002403259277344e+00 -4.925442039966583252e-01 5.506338551640510559e-03
-4.395141601562500000e+00 -4.574889540672302246e-01 1.658947616815567017e-01
-1.042227935791015625e+01 5.229757726192474365e-02 3.093299269676208496e-01
-1.044580078125000000e+01 -3.250789046287536621e-01 2.116151005029678345e-01
-8.387528419494628906e+00 -5.648188591003417969e-01 8.950351178646087646e-02
-4.433207035064697266e+00 -4.598869681358337402e-01 5.445251706987619400e-03
-4.410795211791992188e+00 -4.317778944969177246e-01 1.663824766874313354e-01
-1.041976356506347656e+01 1.162241995334625244e-01 3.092705905437469482e-01
-1.045459556579589844e+01 -2.611533105373382568e-01 2.117568105459213257e-01
-8.454712867736816406e+00 -5.172512531280517578e-01 9.018487483263015747e-02
-4.418030261993408203e+00 -4.309292435646057129e-01 5.423260387033224106e-03
-4.398434162139892578e+00 -4.033367931842803955e-01 1.658197194337844849e-01
-1.044284057617187500e+01 1.805712282657623291e-01 3.099825978279113770e-01
-1.043101024627685547e+01 -1.965293884277343750e-01 2.112507075071334839e-01
-8.493670463562011719e+00 -4.673420488834381104e-01 9.056813269853591919e-02
-4.423579216003417969e+00 -4.040855467319488525e-01 5.426926072686910629e-03
-1.042654705047607422e+01 2.442927211523056030e-01 3.095376193523406982e-01
-1.044501686096191406e+01 -1.326873153448104858e-01 2.115138918161392212e-01
-8.328588485717773438e+00 -4.070172011852264404e-01 8.877956122159957886e-02
-4.408040046691894531e+00 -3.754079341888427734e-01 5.404934752732515335e-03
-1.410422134399414062e+01 -9.754447638988494873e-02 7.959756851196289062e-01
-1.042685031890869141e+01 3.083232939243316650e-01 3.095969557762145996e-01
-1.041664028167724609e+01 -6.840499490499496460e-02 2.109268009662628174e-01
-8.578689575195312500e+00 -3.664908707141876221e-01 9.141985327005386353e-02
-6.823741912841796875e+00 -5.389874577522277832e-01 8.362743072211742401e-03
-1.409157466888427734e+01 -1.099064107984304428e-02 7.952432036399841309e-01
-1.043674945831298828e+01 3.727235198020935059e-01 3.099529445171356201e-01
-1.042586231231689453e+01 -4.492276813834905624e-03 2.111089974641799927e-01
-8.593766212463378906e+00 -3.143212199211120605e-01 9.155824780464172363e-02
-6.842878341674804688e+00 -4.982696175575256348e-01 8.382291533052921295e-03
-1.043526363372802734e+01 4.367969930171966553e-01 3.099825978279113770e-01
-1.044368934631347656e+01 5.958236381411552429e-02 2.114733904600143433e-01
-8.500582695007324219e+00 -2.586953341960906982e-01 9.054684638977050781e-02
-6.851793289184570312e+00 -4.566721320152282715e-01 8.389621041715145111e-03
-1.043737888336181641e+01 5.010579824447631836e-01 3.101309239864349365e-01
-1.043013095855712891e+01 1.235086247324943542e-01 2.112102210521697998e-01
-8.522003173828125000e+00 -2.070175558328628540e-01 9.075977653264999390e-02
-6.684777259826660156e+00 -4.043573439121246338e-01 8.181927725672721863e-03
-1.334594821929931641e+01 -2.492648661136627197e-01 6.271538138389587402e-01
-1.043810081481933594e+01 5.653073191642761230e-01 3.102495968341827393e-01
-1.042517852783203125e+01 1.874324977397918701e-01 2.111292481422424316e-01
-8.606095314025878906e+00 -1.562300324440002441e-01 9.164342284202575684e-02
-6.776000976562500000e+00 -3.681612014770507812e-01 8.290661498904228210e-03
-1.277090740203857422e+01 -1.601440757513046265e-01 6.000739932060241699e-01
-1.043144226074218750e+01 6.291631460189819336e-01 3.101606070995330811e-01
-1.042583084106445312e+01 2.514448761940002441e-01 2.111697345972061157e-01
-8.501904487609863281e+00 -1.021595597267150879e-01 9.052555263042449951e-02
-6.924962043762207031e+00 -3.336519300937652588e-01 8.470255881547927856e-03
-1.275866413116455078e+01 -8.169709891080856323e-02 5.994638800621032715e-01
-1.046728038787841797e+01 6.958094239234924316e-01 3.113472461700439453e-01
-1.042808914184570312e+01 3.155327737331390381e-01 2.112507075071334839e-01
-8.670359611511230469e+00 -5.097863823175430298e-02 9.231413900852203369e-02
-6.957851409912109375e+00 -2.924567162990570068e-01 8.508129045367240906e-03
-1.121163272857666016e+01 -2.996348543092608452e-03 5.267660617828369141e-01
-1.044088077545166016e+01 7.584291100502014160e-01 3.106945753097534180e-01
-1.038599205017089844e+01 3.780576288700103760e-01 2.104409188032150269e-01
-8.618512153625488281e+00 2.209314377978444099e-03 9.176053106784820557e-02
-6.976504325866699219e+00 -2.503683567047119141e-01 8.528898470103740692e-03
-1.055080890655517578e+01 4.452075958251953125e-01 5.959534645080566406e-01
-1.122941970825195312e+01 6.590250879526138306e-02 5.276108384132385254e-01
-1.045695686340332031e+01 8.241280913352966309e-01 3.113175928592681885e-01
-1.041843700408935547e+01 4.432652294635772705e-01 2.111494690179824829e-01
-8.940310478210449219e+00 5.714964494109153748e-02 9.518863260746002197e-02
-6.919934749603271484e+00 -2.058321684598922729e-01 8.458038792014122009e-03
-1.207266902923583984e+01 5.836538076400756836e-01 6.821038722991943359e-01
-1.299972248077392578e+01 1.560638695955276489e-01 6.108214259147644043e-01
-1.249561119079589844e+01 -2.993169724941253662e-01 4.692473113536834717e-01
-1.044871520996093750e+01 8.880212903022766113e-01 3.112285733222961426e-01
-1.037058353424072266e+01 5.049949884414672852e-01 2.102384716272354126e-01
-9.059776306152343750e+00 1.135085523128509521e-01 9.646619856357574463e-02
-6.856085300445556641e+00 -1.618345081806182861e-01 8.378625847399234772e-03
-1.155834674835205078e+01 2.096973657608032227e-01 5.431453585624694824e-01
-1.218747997283935547e+01 -2.171217948198318481e-01 4.576174318790435791e-01
-1.044306945800781250e+01 9.521166682243347168e-01 3.112285733222961426e-01
-1.032136917114257812e+01 5.660995244979858398e-01 2.093072384595870972e-01
-8.836960792541503906e+00 1.649532020092010498e-01 9.410271793603897095e-02
-6.977931022644042969e+00 -1.218763813376426697e-01 8.526455610990524292e-03
-1.170263767242431641e+01 2.841542065143585205e-01 5.499974489212036133e-01
-1.059481430053710938e+01 -1.237249076366424561e-01 3.977797627449035645e-01
-1.047284603118896484e+01 1.019663214683532715e+00 3.122965693473815918e-01
-1.033067417144775391e+01 6.302109956741333008e-01 2.095704078674316406e-01
-9.116680145263671875e+00 2.261403650045394897e-01 9.709433466196060181e-02
-6.984546661376953125e+00 -7.912626862525939941e-02 8.533785119652748108e-03
-1.182547855377197266e+01 3.597516715526580811e-01 5.558639764785766602e-01
-1.037952899932861328e+01 -5.751791968941688538e-02 3.896763324737548828e-01
-1.046639156341552734e+01 1.083904266357421875e+00 3.122965693473815918e-01
-1.044332599639892578e+01 7.014260292053222656e-01 2.119390219449996948e-01
-9.017172813415527344e+00 2.790439128875732422e-01 9.605098515748977661e-02
-6.966901302337646484e+00 -3.617494553327560425e-02 8.511794731020927429e-03
-1.245301437377929688e+01 9.088245630264282227e-01 7.046415805816650391e-01
-1.166932106018066406e+01 4.266836643218994141e-01 5.486363768577575684e-01
-1.039767456054687500e+01 6.181446835398674011e-03 3.903516530990600586e-01
-1.046550655364990234e+01 1.148758888244628906e+00 3.124745786190032959e-01
-1.033911323547363281e+01 7.581798434257507324e-01 2.099145650863647461e-01
-8.782464027404785156e+00 3.257317245006561279e-01 9.357040375471115112e-02
-6.919992446899414062e+00 6.529489532113075256e-03 8.454373106360435486e-03
-1.157366943359375000e+01 4.943131804466247559e-01 5.442717075347900391e-01
-1.039544200897216797e+01 6.996680796146392822e-02 3.902766108512878418e-01
-1.044138145446777344e+01 1.210994720458984375e+00 3.119702339172363281e-01
-1.044589233398437500e+01 8.304797410964965820e-01 2.121819555759429932e-01
-8.725354194641113281e+00 3.772382140159606934e-01 9.298484772443771362e-02
-6.802824974060058594e+00 4.816134646534919739e-02 8.311430923640727997e-03
-1.155545425415039062e+01 5.645874142646789551e-01 5.435677170753479004e-01
-1.035584735870361328e+01 1.332492977380752563e-01 3.888134956359863281e-01
-1.040894889831542969e+01 1.272007703781127930e+00 3.112285733222961426e-01
-1.041669178009033203e+01 8.925104737281799316e-01 2.116960883140563965e-01
-8.877678871154785156e+00 4.384136497974395752e-01 9.463503211736679077e-02
-6.810400485992431641e+00 9.000750631093978882e-02 8.321204222738742828e-03
-1.153980350494384766e+01 6.348212957382202148e-01 5.430045723915100098e-01
-1.038980388641357422e+01 1.974536478519439697e-01 3.901265263557434082e-01
-1.044258880615234375e+01 1.341199994087219238e+00 3.124745786190032959e-01
-1.042495822906494141e+01 9.576897025108337402e-01 2.119795083999633789e-01
-9.103455543518066406e+00 5.055753588676452637e-01 9.707303345203399658e-02
-6.994685173034667969e+00 1.353734135627746582e-01 8.547225035727024078e-03
-1.184477138519287109e+01 7.245221138000488281e-01 5.575534701347351074e-01
-1.040038394927978516e+01 2.615019679069519043e-01 3.905767202377319336e-01
-1.044307804107666016e+01 1.406449913978576660e+00 3.127415776252746582e-01
-1.046764183044433594e+01 1.026418805122375488e+00 2.129714787006378174e-01
-8.737891197204589844e+00 5.390725731849670410e-01 9.320842474699020386e-02
-6.962732791900634766e+00 1.774994283914566040e-01 8.509350940585136414e-03
-1.184508609771728516e+01 7.975221276283264160e-01 5.577881336212158203e-01
-1.036662292480468750e+01 3.243127167224884033e-01 3.893762230873107910e-01
-1.044315910339355469e+01 1.471756339073181152e+00 3.130085468292236328e-01
-1.048501205444335938e+01 1.093115925788879395e+00 2.134573459625244141e-01
-8.944923400878906250e+00 6.069609522819519043e-01 9.545479714870452881e-02
-7.037474632263183594e+00 2.226215749979019165e-01 8.602202869951725006e-03
-1.181606101989746094e+01 8.684300184249877930e-01 5.566617846488952637e-01
-1.036843109130859375e+01 3.880645036697387695e-01 3.895262777805328369e-01
-1.045568847656250000e+01 1.539009094238281250e+00 3.136612176895141602e-01
-1.047214508056640625e+01 1.156771421432495117e+00 2.133358716964721680e-01
-8.942027091979980469e+00 6.619083285331726074e-01 9.546543657779693604e-02
-6.703213691711425781e+00 2.532277405261993408e-01 8.195365779101848602e-03
-1.190311336517333984e+01 9.482932090759277344e-01 5.610264539718627930e-01
-1.038282775878906250e+01 4.524162411689758301e-01 3.901640772819519043e-01
-1.046580791473388672e+01 1.606167435646057129e+00 3.142545223236083984e-01
-1.045491981506347656e+01 1.219846963882446289e+00 2.131334394216537476e-01
-8.815198898315429688e+00 7.069313526153564453e-01 9.415595233440399170e-02
-6.922320842742919922e+00 3.040508031845092773e-01 8.465369231998920441e-03
-1.191100406646728516e+01 1.022507548332214355e+00 5.616835355758666992e-01
-1.036189079284667969e+01 5.152223110198974609e-01 3.894887864589691162e-01
-1.045575523376464844e+01 1.670354127883911133e+00 3.142545223236083984e-01
-1.043235301971435547e+01 1.282144784927368164e+00 2.128297686576843262e-01
-8.859510421752929688e+00 7.652234435081481934e-01 9.467761963605880737e-02
-7.029188156127929688e+00 3.519707024097442627e-01 8.598537184298038483e-03
-1.187267589569091797e+01 1.092643618583679199e+00 5.601817369461059570e-01
-1.037050628662109375e+01 5.794609189033508301e-01 3.899389505386352539e-01
-1.042164421081542969e+01 1.730548262596130371e+00 3.135425448417663574e-01
-1.044511222839355469e+01 1.348821282386779785e+00 2.132548987865447998e-01
-9.214091300964355469e+00 8.528393507003784180e-01 9.852093458175659180e-02
-7.065834999084472656e+00 3.972837328910827637e-01 8.646184578537940979e-03
-1.225842285156250000e+01 1.204041481018066406e+00 5.787198543548583984e-01
-1.036276721954345703e+01 6.428347826004028320e-01 3.897888958454132080e-01
-1.041673946380615234e+01 1.795480489730834961e+00 3.137205541133880615e-01
-1.043862056732177734e+01 1.413154125213623047e+00 2.132953852415084839e-01
-8.325033187866210938e+00 8.220990300178527832e-01 8.906701207160949707e-02
-7.098196506500244141e+00 4.428106248378753662e-01 8.688945323228836060e-03
-1.364368724822998047e+01 1.424680590629577637e+00 6.445187330245971680e-01
-1.035962486267089844e+01 7.064754366874694824e-01 3.898264169692993164e-01
-1.043209362030029297e+01 1.864109873771667480e+00 3.145215213298797607e-01
-1.044658184051513672e+01 1.479561209678649902e+00 2.136395424604415894e-01
-8.952322959899902344e+00 9.395448565483093262e-01 9.583806991577148438e-02
-7.092352867126464844e+00 4.861508309841156006e-01 8.685279637575149536e-03
-1.331201553344726562e+01 1.472673296928405762e+00 6.292657852172851562e-01
-1.039595222473144531e+01 7.730658650398254395e-01 3.913645446300506592e-01
-1.043323707580566406e+01 1.930449128150939941e+00 3.149071931838989258e-01
-1.041950416564941406e+01 1.540999531745910645e+00 2.132751494646072388e-01
-8.976203918457031250e+00 9.977716803550720215e-01 9.615745395421981812e-02
-7.083252906799316406e+00 5.292124748229980469e-01 8.677949197590351105e-03
-1.319557571411132812e+01 1.541806578636169434e+00 6.241970658302307129e-01
-1.037906074523925781e+01 8.358770608901977539e-01 3.909143507480621338e-01
-1.042610454559326172e+01 1.995369434356689453e+00 3.150555491447448730e-01
-1.041281700134277344e+01 1.605360269546508789e+00 2.133358716964721680e-01
-8.956008911132812500e+00 1.051197886466979980e+00 9.600840508937835693e-02
-7.118745326995849609e+00 5.758088231086730957e-01 8.725597523152828217e-03
-1.241355228424072266e+01 1.527697801589965820e+00 5.876370072364807129e-01
-1.039762973785400391e+01 9.016179442405700684e-01 3.918147385120391846e-01
-1.044602394104003906e+01 2.065704107284545898e+00 3.160345256328582764e-01
-1.044423198699951172e+01 1.675874829292297363e+00 2.141861468553543091e-01
-9.086339950561523438e+00 1.123057961463928223e+00 9.747759252786636353e-02
-7.111093521118164062e+00 6.191309094429016113e-01 8.720710873603820801e-03
-1.217213249206542969e+01 1.573863625526428223e+00 5.766548514366149902e-01
-1.036702728271484375e+01 9.630887508392333984e-01 3.908768594264984131e-01
-1.044196605682373047e+01 2.131560087203979492e+00 3.163015246391296387e-01
-1.043375301361083984e+01 1.739927887916564941e+00 2.141861468553543091e-01
-8.895829200744628906e+00 1.154971718788146973e+00 9.550803154706954956e-02
-7.124086856842041016e+00 6.643304824829101562e-01 8.741479367017745972e-03
-1.242653560638427734e+01 1.684343576431274414e+00 5.891857743263244629e-01
-1.037981700897216797e+01 1.028553724288940430e+00 3.915896713733673096e-01
-1.043064689636230469e+01 2.196002483367919922e+00 3.163608312606811523e-01
-1.044356822967529297e+01 1.807495951652526855e+00 2.146112918853759766e-01
-8.408030509948730469e+00 1.144142627716064453e+00 9.034456312656402588e-02
-6.974593639373779297e+00 6.935829520225524902e-01 8.563106879591941833e-03
-1.285211753845214844e+01 1.822405099868774414e+00 6.098828315734863281e-01
-1.038821697235107422e+01 1.093793272972106934e+00 3.921523690223693848e-01
-1.042576789855957031e+01 2.261869668960571289e+00 3.166278302669525146e-01
-1.045097827911376953e+01 1.874896764755249023e+00 2.149959355592727661e-01
-8.767138481140136719e+00 1.247846245765686035e+00 9.428369998931884766e-02
-7.004018306732177734e+00 7.399372458457946777e-01 8.604645729064941406e-03
-1.284464550018310547e+01 1.901815056800842285e+00 6.100705265998840332e-01
-1.037634468078613281e+01 1.156960010528564453e+00 3.919648230075836182e-01
-1.044778633117675781e+01 2.333861351013183594e+00 3.177254796028137207e-01
-1.045893669128417969e+01 1.942638993263244629e+00 2.154008150100708008e-01
-8.752393722534179688e+00 1.300588011741638184e+00 9.420917183160781860e-02
-7.064937114715576172e+00 7.902356982231140137e-01 8.685279637575149536e-03
-1.412795352935791016e+01 2.180495500564575195e+00 6.716454625129699707e-01
-1.037401199340820312e+01 1.221190333366394043e+00 3.921523690223693848e-01
-1.047418498992919922e+01 2.407327413558959961e+00 3.189714848995208740e-01
-1.044092941284179688e+01 2.005645751953125000e+00 2.152793556451797485e-01
-9.476477622985839844e+00 1.467671275138854980e+00 1.020980924367904663e-01
-7.098686218261718750e+00 8.381434679031372070e-01 8.732927963137626648e-03
-1.361723613739013672e+01 2.187298536300659180e+00 6.479917168617248535e-01
-1.036136531829833984e+01 1.284206628799438477e+00 3.919648230075836182e-01
-1.047769927978515625e+01 2.475918054580688477e+00 3.195351362228393555e-01
-1.043333053588867188e+01 2.070645332336425781e+00 2.153805792331695557e-01
-9.078334808349609375e+00 1.463103890419006348e+00 9.790344536304473877e-02
-6.795701503753662109e+00 8.446803092956542969e-01 8.366408757865428925e-03
-1.459670543670654297e+01 2.436594724655151367e+00 6.952992677688598633e-01
-1.037013626098632812e+01 1.349951386451721191e+00 3.926025629043579102e-01
-1.046036720275878906e+01 2.539689540863037109e+00 3.194757699966430664e-01
-1.043903827667236328e+01 2.138436317443847656e+00 2.157652229070663452e-01
-9.120469093322753906e+00 1.527368187904357910e+00 9.845705330371856689e-02
-7.308990478515625000e+00 9.540558457374572754e-01 9.005373343825340271e-03
-1.279016780853271484e+01 2.215783596038818359e+00 6.098828315734863281e-01
-1.039730262756347656e+01 1.418418645858764648e+00 3.939531445503234863e-01
-1.045428562164306641e+01 2.606243371963500977e+00 3.197724521160125732e-01
-1.042963314056396484e+01 2.203275442123413086e+00 2.158461958169937134e-01
-9.270524978637695312e+00 1.611036896705627441e+00 1.001817584037780762e-01
-7.117724418640136719e+00 9.735436439514160156e-01 8.776910603046417236e-03
-1.278026390075683594e+01 2.294927120208740234e+00 6.100705265998840332e-01
-1.043292140960693359e+01 1.488540291786193848e+00 3.956413567066192627e-01
-1.045068645477294922e+01 2.673561334609985352e+00 3.201581239700317383e-01
-1.042959403991699219e+01 2.270205974578857422e+00 2.161296159029006958e-01
-9.051835060119628906e+00 1.630313158035278320e+00 9.792474657297134399e-02
-7.052221298217773438e+00 1.008703351020812988e+00 8.703606203198432922e-03
-1.407798862457275391e+01 2.617223262786865234e+00 6.727718710899353027e-01
-1.040580081939697266e+01 1.549877643585205078e+00 3.949660956859588623e-01
-1.046308994293212891e+01 2.745245218276977539e+00 3.210481107234954834e-01
-1.043595600128173828e+01 2.338749408721923828e+00 2.165547460317611694e-01
-9.088844299316406250e+00 1.694620847702026367e+00 9.843575954437255859e-02
-6.996447086334228516e+00 1.044572710990905762e+00 8.642519824206829071e-03
-1.041979312896728516e+01 1.617375731468200684e+00 3.958664536476135254e-01
-1.045956230163574219e+01 2.813028335571289062e+00 3.214634358882904053e-01
-1.046037864685058594e+01 2.411723852157592773e+00 2.173645198345184326e-01
-9.288393020629882812e+00 1.790869355201721191e+00 1.007140651345252991e-01
-7.095633983612060547e+00 1.103931546211242676e+00 8.773244917392730713e-03
-1.041657924652099609e+01 1.682395458221435547e+00 3.961290717124938965e-01
-1.045656013488769531e+01 2.881136894226074219e+00 3.219084441661834717e-01
-1.046678638458251953e+01 2.480935335159301758e+00 2.178099006414413452e-01
-9.292921066284179688e+00 1.850953578948974609e+00 1.008844152092933655e-01
-7.234825134277343750e+00 1.171097636222839355e+00 8.954061195254325867e-03
-1.041000175476074219e+01 1.746940255165100098e+00 3.962791264057159424e-01
-6.986059188842773438e+00 1.971095204353332520e+00 2.154362797737121582e-01
-1.045525169372558594e+01 2.546057701110839844e+00 2.178908735513687134e-01
-8.899397850036621094e+00 1.829414606094360352e+00 9.673235565423965454e-02
-7.264977455139160156e+00 1.221769690513610840e+00 9.000486694276332855e-03
-1.040007114410400391e+01 1.810953259468078613e+00 3.963166475296020508e-01
-6.979594707489013672e+00 2.015587568283081055e+00 2.156142592430114746e-01
-1.044525241851806641e+01 2.611616849899291992e+00 2.180123329162597656e-01
-9.550252914428710938e+00 2.024362087249755859e+00 1.039399057626724243e-01
-7.207102775573730469e+00 1.257557272911071777e+00 8.938178420066833496e-03
-1.040056419372558594e+01 1.876862406730651855e+00 3.967668116092681885e-01
-1.045543766021728516e+01 3.088979482650756836e+00 3.235697448253631592e-01
-1.044646358489990234e+01 2.680130958557128906e+00 2.183767408132553101e-01
-9.375483512878417969e+00 2.047507286071777344e+00 1.021726131439208984e-01
-7.281910419464111328e+00 1.316701889038085938e+00 9.040803648531436920e-03
-1.085544776916503906e+01 2.027803897857666016e+00 4.145868420600891113e-01
-1.047073364257812500e+01 3.163481950759887695e+00 3.246377408504486084e-01
-1.045205974578857422e+01 2.750030040740966797e+00 2.188423573970794678e-01
-8.957873344421386719e+00 2.013969898223876953e+00 9.775439649820327759e-02
-7.229462623596191406e+00 1.353079557418823242e+00 8.985825814306735992e-03
-1.066422939300537109e+01 2.059880971908569336e+00 4.077589511871337891e-01
-1.049028205871582031e+01 3.239762544631958008e+00 3.258540332317352295e-01
-1.045139980316162109e+01 2.818536281585693359e+00 2.191865295171737671e-01
-9.308733940124511719e+00 2.152941226959228516e+00 1.017254665493965149e-01
-7.189606666564941406e+00 1.391333341598510742e+00 8.946730755269527435e-03
-1.040737533569335938e+01 2.076588392257690430e+00 3.984175324440002441e-01
-1.047973823547363281e+01 3.307076930999755859e+00 3.261506855487823486e-01
-1.045511054992675781e+01 2.888469219207763672e+00 2.196319103240966797e-01
-9.713664054870605469e+00 2.309474706649780273e+00 1.063033863902091980e-01
-7.115234375000000000e+00 1.422288775444030762e+00 8.864874951541423798e-03
-1.042184257507324219e+01 2.146050930023193359e+00 3.994679749011993408e-01
-1.049159622192382812e+01 3.381743192672729492e+00 3.271593749523162842e-01
-6.965181350708007812e+00 1.970373272895812988e+00 1.465697288513183594e-01
-9.631313323974609375e+00 2.352425098419189453e+00 1.055581495165824890e-01
-7.156321525573730469e+00 1.476223587989807129e+00 8.927182294428348541e-03
-1.040163612365722656e+01 2.208505153656005859e+00 3.992053568363189697e-01
-1.047919368743896484e+01 3.448867082595825195e+00 3.274263441562652588e-01
-6.979849815368652344e+00 2.020859003067016602e+00 1.471365690231323242e-01
-9.126891136169433594e+00 2.288653850555419922e+00 1.001817584037780762e-01
-7.363293647766113281e+00 1.566081762313842773e+00 9.197184816002845764e-03
-1.040350818634033203e+01 2.275703430175781250e+00 3.998056054115295410e-01
-1.046636199951171875e+01 3.515965938568115234e+00 3.276933431625366211e-01
-1.045385456085205078e+01 3.096324682235717773e+00 2.207655906677246094e-01
-9.532963752746582031e+00 2.452748537063598633e+00 1.048022583127021790e-01
-7.348661422729492188e+00 1.610162496566772461e+00 9.191076271235942841e-03
-1.042639541625976562e+01 2.347837209701538086e+00 4.012312293052673340e-01
-1.048146820068359375e+01 3.592760562896728516e+00 3.288503587245941162e-01
-1.046814918518066406e+01 3.170553445816040039e+00 2.214741408824920654e-01
-9.398810386657714844e+00 2.479818344116210938e+00 1.034927591681480408e-01
-7.262554645538330078e+00 1.638061046600341797e+00 9.095781482756137848e-03
-1.043028926849365234e+01 2.416052818298339844e+00 4.019440114498138428e-01
-1.050262928009033203e+01 3.672181606292724609e+00 3.302149772644042969e-01
-1.047714996337890625e+01 3.243595361709594727e+00 2.220814675092697144e-01
-9.752152442932128906e+00 2.637153863906860352e+00 1.075596511363983154e-01
-7.378029346466064453e+00 1.711746811866760254e+00 9.253384545445442200e-03
-1.042984962463378906e+01 2.483478307723999023e+00 4.025067389011383057e-01
-1.051285171508789062e+01 3.748304367065429688e+00 3.312532901763916016e-01
-1.048850727081298828e+01 3.317771673202514648e+00 2.227495312690734863e-01
-9.752169609069824219e+00 2.701480388641357422e+00 1.077406406402587891e-01
-7.356687545776367188e+00 1.754433512687683105e+00 9.239945560693740845e-03
-1.043577003479003906e+01 2.552651643753051758e+00 4.033320844173431396e-01
-1.051783752441406250e+01 3.822983264923095703e+00 3.321432769298553467e-01
-1.050125026702880859e+01 3.392823457717895508e+00 2.234580963850021362e-01
-6.991794109344482422e+00 1.983092188835144043e+00 7.737736403942108154e-02
-7.394348144531250000e+00 1.811437368392944336e+00 9.301031939685344696e-03
-1.044511032104492188e+01 2.622964143753051758e+00 4.043075144290924072e-01
-1.051948928833007812e+01 3.896822452545166016e+00 3.329442739486694336e-01
-1.048023509979248047e+01 3.457194089889526367e+00 2.234580963850021362e-01
-6.957407474517822266e+00 2.019544363021850586e+00 7.713250070810317993e-02
-7.415097713470458984e+00 1.864822626113891602e+00 9.341349825263023376e-03
-1.043752861022949219e+01 2.689248800277709961e+00 4.046451449394226074e-01
-1.052343559265136719e+01 3.971884250640869141e+00 3.338342607021331787e-01
-1.046166706085205078e+01 3.522391796112060547e+00 2.235188335180282593e-01
-9.986447334289550781e+00 2.965349912643432617e+00 1.109132319688796997e-01
-7.390927791595458984e+00 1.907037734985351562e+00 9.325467050075531006e-03
-1.043628978729248047e+01 2.757325649261474609e+00 4.052453935146331787e-01
-1.051845932006835938e+01 4.043912887573242188e+00 3.344572484493255615e-01
-1.050793743133544922e+01 3.609905242919921875e+00 2.249764353036880493e-01
-9.968064308166503906e+00 3.026569843292236328e+00 1.109132319688796997e-01
-7.407122611999511719e+00 1.959769248962402344e+00 9.360896423459053040e-03
-1.045293426513671875e+01 2.830451250076293945e+00 4.065584540367126465e-01
-1.052323341369628906e+01 4.120038032531738281e+00 3.354065716266632080e-01
-1.050068664550781250e+01 3.679602861404418945e+00 2.253003418445587158e-01
-9.687632560729980469e+00 3.006467819213867188e+00 1.079961434006690979e-01
-7.422947883605957031e+00 2.012771129608154297e+00 9.396327659487724304e-03
-1.044981384277343750e+01 2.898542404174804688e+00 4.071211814880371094e-01
-1.053211021423339844e+01 4.198224067687988281e+00 3.365042209625244141e-01
-1.048638439178466797e+01 3.746992349624633789e+00 2.254825383424758911e-01
-9.952096939086914062e+00 3.155616998672485352e+00 1.111581027507781982e-01
-6.972054958343505859e+00 1.936511635780334473e+00 8.840439841151237488e-03
-7.014474868774414062e+00 1.992088198661804199e+00 2.737525999546051025e-01
-1.052097129821777344e+01 4.268781661987304688e+00 3.369788825511932373e-01
-1.050546932220458984e+01 3.826663494110107422e+00 2.263935357332229614e-01
-9.852636337280273438e+00 3.190743923187255859e+00 1.102638095617294312e-01
-6.935994625091552734e+00 1.972416758537292480e+00 8.809897117316722870e-03
-1.045088195800781250e+01 3.037436485290527344e+00 4.085843265056610107e-01
-1.053246021270751953e+01 4.348897457122802734e+00 3.381952047348022461e-01
-1.052115821838378906e+01 3.905665397644042969e+00 2.272438108921051025e-01
-9.882242202758789062e+00 3.267461776733398438e+00 1.108174175024032593e-01
-6.889195442199707031e+00 2.004878759384155273e+00 8.765914477407932281e-03
-1.046940422058105469e+01 3.112610816955566406e+00 4.100474119186401367e-01
-1.053875350952148438e+01 4.427379131317138672e+00 3.392632007598876953e-01
-1.051850318908691406e+01 3.978283166885375977e+00 2.277094274759292603e-01
-9.835478782653808594e+00 3.319084167480468750e+00 1.105193197727203369e-01
-7.270680427551269531e+00 2.164375543594360352e+00 9.268045425415039062e-03
-1.046444988250732422e+01 3.181151151657104492e+00 4.106101691722869873e-01
-1.053896331787109375e+01 4.503743648529052734e+00 3.401531577110290527e-01
-1.052748203277587891e+01 4.055687904357910156e+00 2.284382283687591553e-01
-1.010140609741210938e+01 3.478008031845092773e+00 1.137451604008674622e-01
-7.268743515014648438e+00 2.212440967559814453e+00 9.282706305384635925e-03
-1.045332241058349609e+01 3.247968435287475586e+00 4.109477996826171875e-01
-1.052671527862548828e+01 4.575098037719726562e+00 3.406575024127960205e-01
-1.052566719055175781e+01 4.129335403442382812e+00 2.289443463087081909e-01
-1.007798767089843750e+01 3.539260625839233398e+00 1.137238591909408569e-01
-6.779510498046875000e+00 2.109067678451538086e+00 8.674284443259239197e-03
-1.048748683929443359e+01 3.329282283782958984e+00 4.130862057209014893e-01
-1.054415798187255859e+01 4.659804821014404297e+00 3.421408236026763916e-01
-1.055769729614257812e+01 4.216834068298339844e+00 2.301994860172271729e-01
-9.970413208007812500e+00 3.570354461669921875e+00 1.127550452947616577e-01
-7.464052200317382812e+00 2.372352838516235352e+00 9.568590670824050903e-03
-1.047446537017822266e+01 3.396034955978393555e+00 4.133863151073455811e-01
-1.053269100189208984e+01 4.732198238372802734e+00 3.427044749259948730e-01
-1.054366493225097656e+01 4.286430358886718750e+00 2.304626852273941040e-01
-1.013148498535156250e+01 3.698326349258422852e+00 1.148310750722885132e-01
-7.512130737304687500e+00 2.438483953475952148e+00 9.649225510656833649e-03
-1.404130554199218750e+01 5.215028762817382812e+00 7.037470340728759766e-01
-1.045058536529541016e+01 3.459299325942993164e+00 4.132737815380096436e-01
-1.056346607208251953e+01 4.824141502380371094e+00 3.446624577045440674e-01
-1.056520652770996094e+01 4.370919227600097656e+00 2.315153926610946655e-01
-1.010485363006591797e+01 3.759027957916259766e+00 1.147884875535964966e-01
-7.338505744934082031e+00 2.431997299194335938e+00 9.445196017622947693e-03
-1.046135044097900391e+01 3.534232139587402344e+00 4.145492911338806152e-01
-1.056449317932128906e+01 4.903173923492431641e+00 3.456710875034332275e-01
-1.055661678314208984e+01 4.443420886993408203e+00 2.319202721118927002e-01
-1.006102752685546875e+01 3.813162803649902344e+00 1.145542711019515991e-01
-7.637943267822265625e+00 2.583351135253906250e+00 9.850811213254928589e-03
-1.045647430419921875e+01 3.604217052459716797e+00 4.152246117591857910e-01
-1.056585121154785156e+01 4.982826709747314453e+00 3.467094004154205322e-01
-1.054661655426025391e+01 4.515588283538818359e+00 2.323049157857894897e-01
-1.006729221343994141e+01 3.886348247528076172e+00 1.148949563503265381e-01
-7.610604763031005859e+00 2.626253604888916016e+00 9.836150333285331726e-03
-1.048318386077880859e+01 3.685543298721313477e+00 4.171754419803619385e-01
-1.056752967834472656e+01 5.063111782073974609e+00 3.477773964405059814e-01
-1.055904483795166016e+01 4.597778797149658203e+00 2.331956773996353149e-01
-1.014097118377685547e+01 3.986458778381347656e+00 1.160128116607666016e-01
-7.742441654205322266e+00 2.725025415420532227e+00 1.002796180546283722e-02
-1.051587295532226562e+01 3.769693136215209961e+00 4.193888604640960693e-01
-1.054615020751953125e+01 5.132669448852539062e+00 3.481037020683288574e-01
-1.054251861572265625e+01 4.667743206024169922e+00 2.334588468074798584e-01
-1.012467479705810547e+01 4.051951408386230469e+00 1.161086261272430420e-01
-7.776401519775390625e+00 2.790720701217651367e+00 1.009393483400344849e-02
-1.252010345458984375e+01 5.092320442199707031e+00 6.350384354591369629e-01
-1.055449199676513672e+01 3.856782913208007812e+00 4.218648970127105713e-01
-1.054761314392089844e+01 5.213671207427978516e+00 3.492013812065124512e-01
-1.052370834350585938e+01 4.736856937408447266e+00 2.336815297603607178e-01
-1.026353549957275391e+01 4.180767536163330078e+00 1.179930269718170166e-01
-7.457669734954833984e+00 2.728104829788208008e+00 9.701759554445743561e-03
-1.489294242858886719e+01 6.164196014404296875e+00 7.572966217994689941e-01
-1.054186630249023438e+01 3.925656318664550781e+00 4.223150908946990967e-01
-1.055741119384765625e+01 5.299367427825927734e+00 3.505956828594207764e-01
-1.051444721221923828e+01 4.810491085052490234e+00 2.341269105672836304e-01
-1.018318939208984375e+01 4.221073627471923828e+00 1.173648908734321594e-01
-7.699404239654541016e+00 2.870220422744750977e+00 1.003895699977874756e-02
-1.055214977264404297e+01 4.003381252288818359e+00 4.237031638622283936e-01
-1.058703517913818359e+01 5.395818710327148438e+00 3.526723384857177734e-01
-1.056632614135742188e+01 4.912853240966796875e+00 2.359489202499389648e-01
-1.017460346221923828e+01 4.290859699249267578e+00 1.175671741366386414e-01
-7.741478443145751953e+00 2.940131902694702148e+00 1.011714804917573929e-02
-1.055721473693847656e+01 4.079578876495361328e+00 4.249036610126495361e-01
-1.056615638732910156e+01 5.467108726501464844e+00 3.530876636505126953e-01
-1.055948638916015625e+01 4.988698482513427734e+00 2.364752739667892456e-01
-1.016646289825439453e+01 4.361093521118164062e+00 1.177801042795181274e-01
-7.746609210968017578e+00 2.996597051620483398e+00 1.014769170433282852e-02
-1.052919483184814453e+01 4.143182277679443359e+00 4.247911274433135986e-01
-1.056515407562255859e+01 5.549035549163818359e+00 3.541852831840515137e-01
-1.056112575531005859e+01 5.068970680236816406e+00 2.372040748596191406e-01
-1.012209892272949219e+01 4.415794849395751953e+00 1.175778210163116455e-01
-7.788553237915039062e+00 3.067894697189331055e+00 1.022710371762514114e-02
-1.052490997314453125e+01 4.216257095336914062e+00 4.256539940834045410e-01
-1.056530761718750000e+01 5.632095813751220703e+00 3.553422987461090088e-01
-1.054959487915039062e+01 5.143315792083740234e+00 2.376494407653808594e-01
-1.007836055755615234e+01 4.470521450042724609e+00 1.173861920833587646e-01
-7.826200008392333984e+00 3.138330221176147461e+00 1.030162908136844635e-02
-1.050346755981445312e+01 4.282643795013427734e+00 4.258415699005126953e-01
-1.057714557647705078e+01 5.722023963928222656e+00 3.569145798683166504e-01
-1.054919624328613281e+01 5.223477840423583984e+00 2.383579909801483154e-01
-1.005529689788818359e+01 4.534331798553466797e+00 1.174394190311431885e-01
-7.696619987487792969e+00 3.141324281692504883e+00 1.015624403953552246e-02
-1.054529380798339844e+01 4.375350475311279297e+00 4.286177158355712891e-01
-1.065574645996093750e+01 5.849345684051513672e+00 3.607712090015411377e-01
-1.053570556640625000e+01 5.297540187835693359e+00 2.387831509113311768e-01
-1.020545196533203125e+01 4.677606105804443359e+00 1.195260956883430481e-01
-7.655035972595214844e+00 3.179285287857055664e+00 1.012692227959632874e-02
-1.489620208740234375e+01 6.929009914398193359e+00 7.718924283981323242e-01
-1.289900970458984375e+01 5.444941997528076172e+00 5.256335139274597168e-01
-1.064934539794921875e+01 5.931154251098632812e+00 3.617798686027526855e-01
-1.056711578369140625e+01 5.394817829132080078e+00 2.402407377958297729e-01
-9.704305648803710938e+00 4.520166873931884766e+00 1.139793694019317627e-01
-7.803032875061035156e+00 3.297032833099365234e+00 1.034927740693092346e-02
-1.290667819976806641e+01 5.541728019714355469e+00 5.273217558860778809e-01
-1.060666084289550781e+01 5.992943763732910156e+00 3.615722060203552246e-01
-1.057375907897949219e+01 5.480257511138916016e+00 2.411517351865768433e-01
-1.010118675231933594e+01 4.780674934387207031e+00 1.189831346273422241e-01
-7.915872573852539062e+00 3.402103662490844727e+00 1.052642706781625748e-02
-1.299606418609619141e+01 5.674802303314208984e+00 5.323863625526428223e-01
-1.058096218109130859e+01 6.064373493194580078e+00 3.619578480720520020e-01
-1.057444095611572266e+01 5.563188076019287109e+00 2.419412583112716675e-01
-1.017710208892822266e+01 4.893260478973388672e+00 1.202287524938583374e-01
-7.866443157196044922e+00 3.438195228576660156e+00 1.048855390399694443e-02
-1.306785869598388672e+01 5.801881313323974609e+00 5.367757081985473633e-01
-1.059626674652099609e+01 6.159826755523681641e+00 3.637675046920776367e-01
-1.058067703247070312e+01 5.649629592895507812e+00 2.428725212812423706e-01
-1.017384147644042969e+01 4.968778610229492188e+00 1.205481439828872681e-01
-7.845198631286621094e+00 3.486398220062255859e+00 1.048855390399694443e-02
-1.315133094787597656e+01 5.935808658599853516e+00 5.416902899742126465e-01
-1.059357452392578125e+01 6.245541572570800781e+00 3.649838268756866455e-01
-1.055987644195556641e+01 5.722065925598144531e+00 2.431964278221130371e-01
-1.015122413635253906e+01 5.035109519958496094e+00 1.206439658999443054e-01
-7.870136737823486328e+00 3.555466890335083008e+00 1.055086217820644379e-02
-1.359241771697998047e+01 6.235563755035400391e+00 5.614235997200012207e-01
-1.060309696197509766e+01 6.339148044586181641e+00 3.666451275348663330e-01
-1.058852291107177734e+01 5.821917057037353516e+00 2.446742653846740723e-01
-1.013532066345214844e+01 5.104948520660400391e+00 1.208249479532241821e-01
-7.900881290435791016e+00 3.627892732620239258e+00 1.062172278761863708e-02
-1.355118370056152344e+01 6.317580699920654297e+00 5.613110065460205078e-01
-1.059904670715332031e+01 6.425333499908447266e+00 3.678614497184753418e-01
-1.060498905181884766e+01 5.916002273559570312e+00 2.458889335393905640e-01
-1.019817638397216797e+01 5.215301990509033203e+00 1.219534575939178467e-01
-7.923781871795654297e+00 3.697446107864379883e+00 1.068280916661024094e-02
-1.356544685363769531e+01 6.425850391387939453e+00 5.635244846343994141e-01
-1.060285091400146484e+01 6.516940593719482422e+00 3.693744242191314697e-01
-1.060677433013916016e+01 6.002628326416015625e+00 2.467796951532363892e-01
-1.018905830383300781e+01 5.289757728576660156e+00 1.222302615642547607e-01
-7.988593578338623047e+00 3.787551403045654297e+00 1.080131717026233673e-02
-1.354287242889404297e+01 6.517198562622070312e+00 5.642372369766235352e-01
-1.058387374877929688e+01 6.595091342926025391e+00 3.701160848140716553e-01
-1.061049652099609375e+01 6.090991497039794922e+00 2.477311789989471436e-01
-1.019975566864013672e+01 5.375019550323486328e+00 1.227519288659095764e-01
-7.931868553161621094e+00 3.820441484451293945e+00 1.075611356645822525e-02
-1.348108196258544922e+01 6.589641094207763672e+00 5.633368492126464844e-01
-1.058968639373779297e+01 6.689268589019775391e+00 3.717477023601531982e-01
-1.063253974914550781e+01 6.190692901611328125e+00 2.491280436515808105e-01
-1.019568061828613281e+01 5.453065872192382812e+00 1.231032609939575195e-01
-7.863364696502685547e+00 3.847065210342407227e+00 1.069502718746662140e-02
-1.291588211059570312e+01 6.411850929260253906e+00 5.413526296615600586e-01
-1.060905170440673828e+01 6.792927265167236328e+00 3.738836944103240967e-01
-1.060382461547851562e+01 6.261408329010009766e+00 2.493507266044616699e-01
-1.022530555725097656e+01 5.549866199493408203e+00 1.238697916269302368e-01
-7.757221221923828125e+00 3.854304552078247070e+00 1.058262772858142853e-02
-1.314756488800048828e+01 6.627727985382080078e+00 5.527574419975280762e-01
-1.062250995635986328e+01 6.893809318542480469e+00 3.758416771888732910e-01
-1.064926815032958984e+01 6.376689910888671875e+00 2.513346970081329346e-01
-1.018580436706542969e+01 5.609608650207519531e+00 1.238059177994728088e-01
-7.737889766693115234e+00 3.904081821441650391e+00 1.058873627334833145e-02
-1.309419631958007812e+01 6.701900482177734375e+00 5.522322058677673340e-01
-1.060756874084472656e+01 6.976984024047851562e+00 3.768206536769866943e-01
-1.062617778778076172e+01 6.451771259307861328e+00 2.517193257808685303e-01
-1.034410858154296875e+01 5.779794216156005859e+00 1.261587440967559814e-01
-7.744049072265625000e+00 3.966988325119018555e+00 1.063027419149875641e-02
-1.319914054870605469e+01 6.858141422271728516e+00 5.584223270416259766e-01
-1.064513683319091797e+01 6.553014755249023438e+00 2.531161904335021973e-01
-1.032845687866210938e+01 5.854496479034423828e+00 1.264036148786544800e-01
-7.708915710449218750e+00 4.008893489837646484e+00 1.061561331152915955e-02
-1.063526248931884766e+01 6.637264728546142578e+00 2.538450062274932861e-01
-1.031487846374511719e+01 5.930719375610351562e+00 1.266804188489913940e-01
-7.799139022827148438e+00 4.116804599761962891e+00 1.077443826943635941e-02
-8.432524681091308594e+00 5.771506309509277344e+00 3.032780289649963379e-01
-1.066868972778320312e+01 6.749434471130371094e+00 2.556264996528625488e-01
-1.025410842895507812e+01 5.979794502258300781e+00 1.263823211193084717e-01
