-2.445521831512451172e+00 2.494588851928710938e+00 7.501866221427917480e-01
-2.420640707015991211e+00 2.470070600509643555e+00 6.110596656799316406e-01
-2.418253183364868164e+00 2.468495845794677734e+00 4.813534617424011230e-01
-2.422452926635742188e+00 2.474510431289672852e+00 3.547990620136260986e-01
-2.489008426666259766e+00 2.544272184371948242e+00 2.345354110002517700e-01
-2.564846754074096680e+00 2.622709989547729492e+00 1.088751181960105896e-01
-8.118811607360839844e+00 6.675766944885253906e+00 1.284160651266574860e-02
-2.544764041900634766e+00 2.629721403121948242e+00 1.078410148620605469e+00
-2.511801242828369141e+00 2.594751596450805664e+00 9.171671867370605469e-01
-2.419967174530029297e+00 2.499011754989624023e+00 7.470372319221496582e-01
-2.399959802627563477e+00 2.479216575622558594e+00 6.096677780151367188e-01
-2.401683807373046875e+00 2.481864213943481445e+00 4.810775518417358398e-01
-2.401691675186157227e+00 2.483606576919555664e+00 3.539836406707763672e-01
-2.459482192993164062e+00 2.545145511627197266e+00 2.332203835248947144e-01
-2.664653778076171875e+00 2.564309597015380859e+00 2.086992263793945312e-01
-8.072057723999023438e+00 6.715991973876953125e+00 3.942157626152038574e-01
-2.712819576263427734e+00 2.612486124038696289e+00 7.626079767942428589e-02
-8.079234123229980469e+00 6.726737022399902344e+00 1.284405030310153961e-02
-2.516650199890136719e+00 2.632805109024047852e+00 1.073321938514709473e+00
-2.608896017074584961e+00 2.531039714813232422e+00 1.029943704605102539e+00
-2.477747201919555664e+00 2.591201066970825195e+00 9.105210900306701660e-01
-2.403912067413330078e+00 2.513106822967529297e+00 7.468272447586059570e-01
-2.381980180740356445e+00 2.491049051284790039e+00 6.089717745780944824e-01
-2.389147520065307617e+00 2.499417781829833984e+00 4.816294014453887939e-01
-2.384346008300781250e+00 2.496138572692871094e+00 3.536778986454010010e-01
-2.549135446548461914e+00 2.481713533401489258e+00 3.306610584259033203e-01
-2.613112449645996094e+00 2.545775890350341797e+00 2.058820128440856934e-01
-2.649490356445312500e+00 2.583019495010375977e+00 7.492466270923614502e-02
-2.460936307907104492e+00 2.606350660324096680e+00 1.056361436843872070e+00
-2.583020448684692383e+00 2.536887645721435547e+00 1.025854468345642090e+00
-2.443166255950927734e+00 2.586626291275024414e+00 9.036288261413574219e-01
-2.391804218292236328e+00 2.531363010406494141e+00 7.478770613670349121e-01
-2.362593412399291992e+00 2.501322269439697266e+00 6.079278588294982910e-01
-2.375126600265502930e+00 2.515470504760742188e+00 4.819053411483764648e-01
-2.472281694412231445e+00 2.434917688369750977e+00 4.494445621967315674e-01
-2.380591154098510742e+00 2.523021936416625977e+00 3.554106056690216064e-01
-2.540951490402221680e+00 2.504297494888305664e+00 3.315865099430084229e-01
-2.577538728713989258e+00 2.542131185531616211e+00 2.043043673038482666e-01
-2.637860774993896484e+00 2.603441715240478516e+00 7.504612952470779419e-02
-2.431158542633056641e+00 2.606670618057250977e+00 1.050425171852111816e+00
-2.550348758697509766e+00 2.535729646682739258e+00 1.019039034843444824e+00
-2.427249193191528320e+00 2.601568698883056641e+00 9.036288261413574219e-01
-2.529997110366821289e+00 2.517251491546630859e+00 8.680379390716552734e-01
-2.373558521270751953e+00 2.543132066726684570e+00 7.470372319221496582e-01
-2.370041608810424805e+00 2.540252685546875000e+00 6.138435602188110352e-01
-2.481310367584228516e+00 2.472259521484375000e+00 5.836388468742370605e-01
-2.365726947784423828e+00 2.536515474319458008e+00 4.831469953060150146e-01
-2.459401845932006836e+00 2.452142000198364258e+00 4.498299062252044678e-01
-2.371847867965698242e+00 2.544858694076538086e+00 3.564298450946807861e-01
-2.477606534957885742e+00 2.472018480300903320e+00 3.252934813499450684e-01
-2.542815685272216797e+00 2.538852214813232422e+00 2.027830779552459717e-01
-2.628909349441528320e+00 2.626644849777221680e+00 7.524857670068740845e-02
-2.412518739700317383e+00 2.618716955184936523e+00 1.049294471740722656e+00
-2.536098241806030273e+00 2.552695751190185547e+00 1.019584298133850098e+00
-2.400731086730957031e+00 2.605009317398071289e+00 8.996903300285339355e-01
-2.506973505020141602e+00 2.525142669677734375e+00 8.654383420944213867e-01
-2.385080337524414062e+00 2.587120771408081055e+00 7.556455731391906738e-01
-2.464042901992797852e+00 2.483634471893310547e+00 7.156069874763488770e-01
-2.395786046981811523e+00 2.599643468856811523e+00 6.246310472488403320e-01
-2.436231613159179688e+00 2.457316875457763672e+00 5.765714049339294434e-01
-2.376290559768676758e+00 2.579392433166503906e+00 4.885275661945343018e-01
-2.442215442657470703e+00 2.465073108673095703e+00 4.494445621967315674e-01
-2.461691379547119141e+00 2.486466646194458008e+00 3.252009451389312744e-01
-2.550361871719360352e+00 2.577828645706176758e+00 2.046424299478530884e-01
-2.448681354522705078e+00 2.662629365921020508e+00 1.073621436953544617e-01
-2.616257667541503906e+00 2.646281003952026367e+00 7.534979283809661865e-02
-2.395759820938110352e+00 2.632761240005493164e+00 1.049011826515197754e+00
-2.556777954101562500e+00 2.605289936065673828e+00 1.034305572509765625e+00
-2.380134820938110352e+00 2.614673852920532227e+00 8.979672789573669434e-01
-2.490751981735229492e+00 2.539783954620361328e+00 8.652020096778869629e-01
-2.382985115051269531e+00 2.616887331008911133e+00 7.600547075271606445e-01
-2.419270753860473633e+00 2.468618869781494141e+00 7.069900631904602051e-01
-2.386418819427490234e+00 2.621577024459838867e+00 6.263709664344787598e-01
-2.418347120285034180e+00 2.469400167465209961e+00 5.759140253067016602e-01
-2.434411287307739258e+00 2.675236463546752930e+00 5.038414597511291504e-01
-2.415946006774902344e+00 2.468671560287475586e+00 4.473893940448760986e-01
-2.438730478286743164e+00 2.493694067001342773e+00 3.241829574108123779e-01
-2.437964200973510742e+00 2.682901144027709961e+00 2.388750016689300537e-01
-2.519842386245727539e+00 2.578433752059936523e+00 2.034592032432556152e-01
-2.418183803558349609e+00 2.662066936492919922e+00 1.067391559481620789e-01
-2.728866577148437500e+00 2.599430799484252930e+00 4.012593626976013184e-02
-2.382766246795654297e+00 2.650978803634643555e+00 1.050425171852111816e+00
-2.540744066238403320e+00 2.620929002761840820e+00 1.034305572509765625e+00
-2.361454486846923828e+00 2.626345872879028320e+00 8.969826698303222656e-01
-2.498783826828002930e+00 2.579445600509643555e+00 8.734735250473022461e-01
-2.366883277893066406e+00 2.631459712982177734e+00 7.600547075271606445e-01
-2.388405323028564453e+00 2.467226743698120117e+00 7.023810148239135742e-01
-2.377530574798583984e+00 2.644225358963012695e+00 6.282848715782165527e-01
-2.394233942031860352e+00 2.474975824356079102e+00 5.737773180007934570e-01
-2.429867982864379883e+00 2.703382492065429688e+00 5.063247680664062500e-01
-2.395927906036376953e+00 2.478457689285278320e+00 4.464902281761169434e-01
-2.409025669097900391e+00 2.682076454162597656e+00 3.693742454051971436e-01
-2.424767017364501953e+00 2.510042905807495117e+00 3.243680298328399658e-01
-2.402793884277343750e+00 2.677017450332641602e+00 2.370339781045913696e-01
-2.483170986175537109e+00 2.572297096252441406e+00 2.017688751220703125e-01
-2.686218738555908203e+00 2.587716341018676758e+00 1.752445101737976074e-01
-2.408479452133178711e+00 2.684294223785400391e+00 1.070358157157897949e-01
-2.686953067779541016e+00 2.591137647628784180e+00 3.974266722798347473e-02
-2.376007795333862305e+00 2.676309108734130859e+00 1.054665327072143555e+00
-2.491343498229980469e+00 2.601724147796630859e+00 1.020674705505371094e+00
-2.584354400634765625e+00 2.505425214767456055e+00 9.819977283477783203e-01
-2.371039152145385742e+00 2.669773817062377930e+00 9.068288207054138184e-01
-2.465443372726440430e+00 2.576476335525512695e+00 8.673289418220520020e-01
-2.351991176605224609e+00 2.647395133972167969e+00 7.604746818542480469e-01
-2.357648372650146484e+00 2.465549230575561523e+00 6.977719068527221680e-01
-2.367800474166870117e+00 2.666126966476440430e+00 6.300248503684997559e-01
-2.375595331192016602e+00 2.486054182052612305e+00 5.729554891586303711e-01
-2.392850399017333984e+00 2.695280313491821289e+00 5.020479559898376465e-01
-2.373826503753662109e+00 2.485939741134643555e+00 4.452057480812072754e-01
-2.368096590042114258e+00 2.669273853302001953e+00 3.656030297279357910e-01
-2.409320116043090820e+00 2.524873733520507812e+00 3.243680298328399658e-01
-2.586379051208496094e+00 2.520556211471557617e+00 3.013575971126556396e-01
-2.380365371704101562e+00 2.684990406036376953e+00 2.364422082901000977e-01
-2.663138866424560547e+00 2.597175836563110352e+00 1.747751981019973755e-01
-2.376715660095214844e+00 2.681816339492797852e+00 1.063534915447235107e-01
-2.660270929336547852e+00 2.597097873687744141e+00 3.958297148346900940e-02
-2.363336086273193359e+00 2.695164918899536133e+00 1.056361436843872070e+00
-2.448225498199462891e+00 2.588303804397583008e+00 1.009497523307800293e+00
-2.564112901687622070e+00 2.516505002975463867e+00 9.801553487777709961e-01
-2.349499940872192383e+00 2.678442955017089844e+00 9.048595428466796875e-01
-2.421554565429687500e+00 2.561897516250610352e+00 8.574031591415405273e-01
-2.356338500976562500e+00 2.685293436050415039e+00 7.671933770179748535e-01
-2.355930566787719727e+00 2.494213581085205078e+00 7.017797827720642090e-01
-2.348799228668212891e+00 2.677644014358520508e+00 6.293288469314575195e-01
-2.350817441940307617e+00 2.490541219711303711e+00 5.706545114517211914e-01
-2.369737625122070312e+00 2.702465057373046875e+00 5.006683468818664551e-01
-2.356486797332763672e+00 2.498294115066528320e+00 4.448203742504119873e-01
-2.341183900833129883e+00 2.671782970428466797e+00 3.639722466468811035e-01
-2.385586977005004883e+00 2.530914783477783203e+00 3.232575058937072754e-01
-2.538232088088989258e+00 2.504184007644653320e+00 2.975324094295501709e-01
-2.359244346618652344e+00 2.694290637969970703e+00 2.359819412231445312e-01
-2.604502677917480469e+00 2.571360349655151367e+00 1.719592660665512085e-01
-2.350998401641845703e+00 2.685819387435913086e+00 1.059381589293479919e-01
-2.647130012512207031e+00 2.616183757781982422e+00 3.962555527687072754e-02
-2.342986583709716797e+00 2.705264806747436523e+00 1.054665327072143555e+00
-2.426386356353759766e+00 2.596950054168701172e+00 1.007043957710266113e+00
-2.530145645141601562e+00 2.513831615447998047e+00 9.730489850044250488e-01
-2.345714330673217773e+00 2.707459449768066406e+00 9.097825884819030762e-01
-2.399821519851684570e+00 2.570315599441528320e+00 8.552761673927307129e-01
-2.360308408737182617e+00 2.723343610763549805e+00 7.739120721817016602e-01
-2.349270582199096680e+00 2.517934799194335938e+00 7.043849229812622070e-01
-2.345866680145263672e+00 2.707635164260864258e+00 6.329826712608337402e-01
-2.358362197875976562e+00 2.529448509216308594e+00 5.762427449226379395e-01
-2.442433595657348633e+00 2.433471441268920898e+00 5.411428213119506836e-01
-2.347275018692016602e+00 2.710216522216796875e+00 4.994266331195831299e-01
-2.349225759506225586e+00 2.521413326263427734e+00 4.463617801666259766e-01
-2.460281372070312500e+00 2.455535888671875000e+00 4.175658524036407471e-01
-2.328652143478393555e+00 2.690611124038696289e+00 3.645837903022766113e-01
-2.516473054885864258e+00 2.513373136520385742e+00 2.967840433120727539e-01
-2.338751554489135742e+00 2.704187631607055664e+00 2.355874329805374146e-01
-2.601393222808837891e+00 2.600003242492675781e+00 1.728040426969528198e-01
-2.346241474151611328e+00 2.713804960250854492e+00 1.064721569418907166e-01
-2.635975837707519531e+00 2.637327671051025391e+00 3.970007970929145813e-02
-2.341307640075683594e+00 2.737084150314331055e+00 1.061449527740478516e+00
-2.405185937881469727e+00 2.606132745742797852e+00 1.004863023757934570e+00
-2.514673471450805664e+00 2.529309034347534180e+00 9.730489850044250488e-01
-2.331578254699707031e+00 2.724747180938720703e+00 9.107672572135925293e-01
-2.391910076141357422e+00 2.593563795089721680e+00 8.581121563911437988e-01
-2.496709346771240234e+00 2.513871908187866211e+00 8.257943391799926758e-01
-2.353726863861083984e+00 2.749659061431884766e+00 7.772714495658874512e-01
-2.353031158447265625e+00 2.553194522857666016e+00 7.101963758468627930e-01
-2.466894149780273438e+00 2.487322092056274414e+00 6.822202205657958984e-01
-2.327928304672241211e+00 2.720481634140014648e+00 6.326346993446350098e-01
-2.368857860565185547e+00 2.572169065475463867e+00 5.826526880264282227e-01
-2.435802698135375977e+00 2.456830739974975586e+00 5.430034399032592773e-01
-2.326094627380371094e+00 2.719299554824829102e+00 4.984609186649322510e-01
-2.357215404510498047e+00 2.561320781707763672e+00 4.508575201034545898e-01
-2.439580917358398438e+00 2.464940309524536133e+00 4.166117012500762939e-01
-2.312745332717895508e+00 2.705605030059814453e+00 3.646857142448425293e-01
-2.503807067871093750e+00 2.531600713729858398e+00 2.971166670322418213e-01
-2.316930294036865234e+00 2.712417364120483398e+00 2.350614368915557861e-01
-2.571347713470458984e+00 2.601706981658935547e+00 1.718654036521911621e-01
-2.337983846664428711e+00 2.738031864166259766e+00 1.068578213453292847e-01
-2.452160596847534180e+00 2.670093059539794922e+00 7.340633124113082886e-02
-2.618338823318481445e+00 2.652029037475585938e+00 3.967878967523574829e-02
-2.326945066452026367e+00 2.754329442977905273e+00 1.062580227851867676e+00
-2.385908842086791992e+00 2.617286682128906250e+00 1.003499984741210938e+00
-2.526821613311767578e+00 2.572911977767944336e+00 9.838401079177856445e-01
-2.321697473526000977e+00 2.747145175933837891e+00 9.134749174118041992e-01
-2.372679471969604492e+00 2.604599714279174805e+00 8.569304943084716797e-01
-2.479873418807983398e+00 2.527753591537475586e+00 8.253403306007385254e-01
-2.332392215728759766e+00 2.758822917938232422e+00 7.758017182350158691e-01
-2.344575405120849609e+00 2.575553894042968750e+00 7.124006748199462891e-01
-2.411057949066162109e+00 2.461043834686279297e+00 6.709423065185546875e-01
-2.308013677597045898e+00 2.730953931808471680e+00 6.317647695541381836e-01
-2.396839141845703125e+00 2.634813308715820312e+00 5.935003757476806641e-01
-2.418608188629150391e+00 2.469612836837768555e+00 5.425382852554321289e-01
-2.310004711151123047e+00 2.734277486801147461e+00 4.985988736152648926e-01
-2.471535921096801758e+00 2.718832731246948242e+00 4.759051501750946045e-01
-2.418857812881469727e+00 2.474183082580566406e+00 4.156575202941894531e-01
-2.305084705352783203e+00 2.730386734008789062e+00 3.661126792430877686e-01
-2.475691080093383789e+00 2.534085273742675781e+00 2.956198453903198242e-01
-2.298313140869140625e+00 2.724294662475585938e+00 2.348641753196716309e-01
-2.435309171676635742e+00 2.682741641998291016e+00 2.044734060764312744e-01
-2.548357486724853516e+00 2.610287904739379883e+00 1.713960766792297363e-01
-2.429685354232788086e+00 2.678424358367919922e+00 7.322412729263305664e-02
-2.733020782470703125e+00 2.606972694396972656e+00 4.614475183188915253e-03
-2.322906255722045898e+00 2.784022331237792969e+00 1.068516492843627930e+00
-2.374954938888549805e+00 2.637596845626831055e+00 1.005680799484252930e+00
-2.554650545120239258e+00 2.633376836776733398e+00 1.000948071479797363e+00
-2.308524131774902344e+00 2.765803813934326172e+00 9.149518609046936035e-01
-2.359903097152709961e+00 2.622720718383789062e+00 8.581121563911437988e-01
-2.468383312225341797e+00 2.547118425369262695e+00 8.267022967338562012e-01
-2.319180488586425781e+00 2.777585268020629883e+00 7.770614624023437500e-01
-2.362790822982788086e+00 2.627774477005004883e+00 7.228211760520935059e-01
-2.389768600463867188e+00 2.469443321228027344e+00 6.692219376564025879e-01
-2.296261548995971680e+00 2.751112222671508789e+00 6.331566572189331055e-01
-2.385901212692260742e+00 2.655340433120727539e+00 5.948152542114257812e-01
-2.399975061416625977e+00 2.480856657028198242e+00 5.417630672454833984e-01
-2.298894882202148438e+00 2.755244493484497070e+00 4.998405277729034424e-01
-2.433604717254638672e+00 2.710333347320556641e+00 4.717947840690612793e-01
-2.406389713287353516e+00 2.491835117340087891e+00 4.161345958709716797e-01
-2.285102605819702148e+00 2.740658760070800781e+00 3.656030297279357910e-01
-2.432477474212646484e+00 2.710980892181396484e+00 3.385273516178131104e-01
-2.487083911895751953e+00 2.577194452285766602e+00 2.988629341125488281e-01
-2.416802644729614258e+00 2.695403814315795898e+00 2.043043673038482666e-01
-2.668518066406250000e+00 2.575102090835571289e+00 1.392210423946380615e-01
-2.405199050903320312e+00 2.684346914291381836e+00 7.298120111227035522e-02
-2.706902265548706055e+00 2.613968133926391602e+00 4.597370978444814682e-03
-2.306390047073364258e+00 2.798963308334350586e+00 1.068799138069152832e+00
-2.375350475311279297e+00 2.670811653137207031e+00 1.012768864631652832e+00
-2.491720438003540039e+00 2.600243568420410156e+00 9.825241565704345703e-01
-2.296441793441772461e+00 2.785899639129638672e+00 9.169210791587829590e-01
-2.351511716842651367e+00 2.645866870880126953e+00 8.609480857849121094e-01
-2.468870878219604492e+00 2.579100608825683594e+00 8.321500420570373535e-01
-2.307692050933837891e+00 2.798552274703979492e+00 7.789511680603027344e-01
-2.352477788925170898e+00 2.648815631866455078e+00 7.246247529983520508e-01
-2.384066820144653320e+00 2.493993520736694336e+00 6.718980073928833008e-01
-2.281843185424804688e+00 2.768189430236816406e+00 6.338526010513305664e-01
-2.379384756088256836e+00 2.680996179580688477e+00 5.972806215286254883e-01
-2.379247426986694336e+00 2.489821910858154297e+00 5.405225753784179688e-01
-2.258641242980957031e+00 2.741016864776611328e+00 4.947358965873718262e-01
-2.395213842391967773e+00 2.700730085372924805e+00 4.675559401512145996e-01
-2.386943101882934570e+00 2.502243041992187500e+00 4.154190123081207275e-01
-2.382116317749023438e+00 2.687851190567016602e+00 3.338075578212738037e-01
-2.424467325210571289e+00 2.543356895446777344e+00 2.932083308696746826e-01
-2.580854177474975586e+00 2.518632650375366211e+00 2.667175531387329102e-01
-2.401542425155639648e+00 2.711677074432373047e+00 2.044170647859573364e-01
-2.657670974731445312e+00 2.596315622329711914e+00 1.394836455583572388e-01
-2.375430822372436523e+00 2.684080600738525391e+00 7.257630676031112671e-02
-2.687237024307250977e+00 2.627032756805419922e+00 4.591261968016624451e-03
-2.300070524215698242e+00 2.826454401016235352e+00 1.073887348175048828e+00
-2.361457824707031250e+00 2.688227653503417969e+00 1.013859391212463379e+00
-2.437253236770629883e+00 2.574846267700195312e+00 9.672585725784301758e-01
-2.570251464843750000e+00 2.521594047546386719e+00 9.466263055801391602e-01
-2.297661542892456055e+00 2.822487592697143555e+00 9.243056178092956543e-01
-2.346771001815795898e+00 2.673389911651611328e+00 8.652020096778869629e-01
-2.433594703674316406e+00 2.573679208755493164e+00 8.255673050880432129e-01
-2.302824497222900391e+00 2.827821969985961914e+00 7.831503152847290039e-01
-2.354270696640014648e+00 2.683822393417358398e+00 7.302358150482177734e-01
-2.361980199813842773e+00 2.501438140869140625e+00 6.699864864349365234e-01
-2.257354736328125000e+00 2.772974252700805664e+00 6.317647695541381836e-01
-2.368091583251953125e+00 2.701479434967041016e+00 5.985955595970153809e-01
-2.368672370910644531e+00 2.509402751922607422e+00 5.416079759597778320e-01
-2.363567829132080078e+00 2.698218345642089844e+00 4.646016061305999756e-01
-2.365416526794433594e+00 2.510338544845581055e+00 4.143455624580383301e-01
-2.359020709991455078e+00 2.694924831390380859e+00 3.328821063041687012e-01
-2.566061019897460938e+00 2.535121917724609375e+00 2.667913138866424561e-01
-2.381572008132934570e+00 2.722604274749755859e+00 2.041353285312652588e-01
-2.636006116867065430e+00 2.606952428817749023e+00 1.391835361719131470e-01
-2.347072839736938477e+00 2.685055732727050781e+00 7.221190631389617920e-02
-2.656851768493652344e+00 2.629403591156005859e+00 4.566827788949012756e-03
-2.307920694351196289e+00 2.871917486190795898e+00 1.085759758949279785e+00
-2.346810340881347656e+00 2.704846858978271484e+00 1.014677166938781738e+00
-2.429973840713500977e+00 2.598913669586181641e+00 9.706801772117614746e-01
-2.543751716613769531e+00 2.526412963867187500e+00 9.425581097602844238e-01
-2.296695947647094727e+00 2.856928586959838867e+00 9.309517741203308105e-01
-2.338598012924194336e+00 2.697283267974853516e+00 8.682743310928344727e-01
-2.406456232070922852e+00 2.576463699340820312e+00 8.217084407806396484e-01
-2.269499301910400391e+00 2.822088956832885742e+00 7.776913642883300781e-01
-2.347381830215454102e+00 2.709324121475219727e+00 7.332416772842407227e-01
-2.363994121551513672e+00 2.534546852111816406e+00 6.749564409255981445e-01
-2.473180770874023438e+00 2.464912176132202148e+00 6.458995342254638672e-01
-2.345014333724975586e+00 2.708501577377319336e+00 5.969519615173339844e-01
-2.369399070739746094e+00 2.541230678558349609e+00 5.453293323516845703e-01
-2.454277515411376953e+00 2.449490070343017578e+00 5.114158391952514648e-01
-2.344371795654296875e+00 2.709670305252075195e+00 4.640878140926361084e-01
-2.356056928634643555e+00 2.531346321105957031e+00 4.154190123081207275e-01
-2.498260259628295898e+00 2.495999574661254883e+00 3.905023932456970215e-01
-2.350906372070312500e+00 2.719140768051147461e+00 3.340851962566375732e-01
-2.549752473831176758e+00 2.550113916397094727e+00 2.667175531387329102e-01
-2.347198009490966797e+00 2.716767549514770508e+00 2.026140391826629639e-01
-2.614310979843139648e+00 2.617421388626098633e+00 1.388833969831466675e-01
-2.335780382156372070e+00 2.705460786819458008e+00 7.237386703491210938e-02
-2.457513332366943359e+00 2.646827459335327148e+00 3.845446556806564331e-02
-2.648438930511474609e+00 2.653441667556762695e+00 4.580266308039426804e-03
-2.288466691970825195e+00 2.883770465850830078e+00 1.084911704063415527e+00
-2.332047700881958008e+00 2.721387386322021484e+00 1.015495061874389648e+00
-2.413981676101684570e+00 2.613774776458740234e+00 9.706801772117614746e-01
-2.523427963256835938e+00 2.537173509597778320e+00 9.407782554626464844e-01
-2.261044263839721680e+00 2.848193645477294922e+00 9.235671758651733398e-01
-2.321371793746948242e+00 2.710843563079833984e+00 8.680379390716552734e-01
-2.403149366378784180e+00 2.604781150817871094e+00 8.260213136672973633e-01
-2.510414361953735352e+00 2.528498411178588867e+00 7.964410185813903809e-01
-2.184041261672973633e+00 2.750208616256713867e+00 7.541759014129638672e-01
-2.331987380981445312e+00 2.725165367126464844e+00 7.336424589157104492e-01
-2.362364768981933594e+00 2.564164161682128906e+00 6.789706945419311523e-01
-2.466316223144531250e+00 2.488421916961669922e+00 6.480822563171386719e-01
-2.325787067413330078e+00 2.719840764999389648e+00 5.962945222854614258e-01
-2.365139245986938477e+00 2.568074703216552734e+00 5.479652285575866699e-01
-2.437809705734252930e+00 2.463096857070922852e+00 5.111240744590759277e-01
-2.335432529449462891e+00 2.733051538467407227e+00 4.656292200088500977e-01
-2.365343570709228516e+00 2.572798728942871094e+00 4.198320209980010986e-01
-2.457740783691406250e+00 2.485836505889892578e+00 3.865457177162170410e-01
-2.345816612243652344e+00 2.747144222259521484e+00 3.357509970664978027e-01
-2.530553102493286133e+00 2.562163114547729492e+00 2.663487493991851807e-01
-2.323355197906494141e+00 2.722764253616333008e+00 2.019942551851272583e-01
-2.605220079421997070e+00 2.640526533126831055e+00 1.392585486173629761e-01
-2.445957422256469727e+00 2.667015314102172852e+00 3.852899000048637390e-02
-2.261854410171508789e+00 2.886432647705078125e+00 1.080671548843383789e+00
-2.323385953903198242e+00 2.745192527770996094e+00 1.019039034843444824e+00
-2.392696619033813477e+00 2.622835636138916016e+00 9.685745239257812500e-01
-2.509845972061157227e+00 2.554678678512573242e+00 9.415409564971923828e-01
-2.235154151916503906e+00 2.851334333419799805e+00 9.201210737228393555e-01
-2.312224388122558594e+00 2.733939170837402344e+00 8.708739280700683594e-01
-2.388433456420898438e+00 2.620917320251464844e+00 8.264753222465515137e-01
-2.477769136428833008e+00 2.526435375213623047e+00 7.909874320030212402e-01
-2.153852224349975586e+00 2.746631860733032227e+00 7.495567202568054199e-01
-2.307001113891601562e+00 2.729695320129394531e+00 7.310373783111572266e-01
-2.352532625198364258e+00 2.585144519805908203e+00 6.806910037994384766e-01
-2.428988218307495117e+00 2.481023550033569336e+00 6.422617435455322266e-01
-2.307781696319580078e+00 2.732553005218505859e+00 5.959658026695251465e-01
-2.424457550048828125e+00 2.665115594863891602e+00 5.654864907264709473e-01
-2.411585092544555664e+00 2.466690301895141602e+00 5.087894797325134277e-01
-2.326294422149658203e+00 2.756424427032470703e+00 4.671705961227416992e-01
-2.449633836746215820e+00 2.697516202926635742e+00 4.377225637435913086e-01
-2.427857875823974609e+00 2.485937356948852539e+00 3.842376470565795898e-01
-2.322496891021728516e+00 2.753874778747558594e+00 3.348255753517150879e-01
-2.502248764038085938e+00 2.564793348312377930e+00 2.650210559368133545e-01
-2.307248353958129883e+00 2.737732410430908203e+00 2.020505964756011963e-01
-2.445185184478759766e+00 2.696397542953491211e+00 1.710206270217895508e-01
-2.565952777862548828e+00 2.632846117019653320e+00 1.380205303430557251e-01
-2.424175977706909180e+00 2.676044464111328125e+00 3.844381496310234070e-02
-2.244101047515869141e+00 2.900256872177124023e+00 1.080671548843383789e+00
-2.315136671066284180e+00 2.769731760025024414e+00 1.022855639457702637e+00
-2.378495693206787109e+00 2.639617681503295898e+00 9.693641662597656250e-01
-2.496817827224731445e+00 2.572807073593139648e+00 9.425581097602844238e-01
-2.208717823028564453e+00 2.853498697280883789e+00 9.164288043975830078e-01
-2.303503513336181641e+00 2.757770061492919922e+00 8.739461898803710938e-01
-2.374912977218627930e+00 2.638418436050415039e+00 8.273832201957702637e-01
-2.462899684906005859e+00 2.542292118072509766e+00 7.912055850028991699e-01
-2.129775524139404297e+00 2.750519275665283203e+00 7.470372319221496582e-01
-2.297741889953613281e+00 2.752825021743774414e+00 7.334420680999755859e-01
-2.371403217315673828e+00 2.638220787048339844e+00 6.908220052719116211e-01
-2.414402723312377930e+00 2.496587753295898438e+00 6.424435973167419434e-01
-2.285285234451293945e+00 2.739844322204589844e+00 5.944865345954895020e-01
-2.417303085327148438e+00 2.690229415893554688e+00 5.676572918891906738e-01
-2.401902198791503906e+00 2.487133979797363281e+00 5.099567174911499023e-01
-2.299813270568847656e+00 2.759219646453857422e+00 4.652438759803771973e-01
-2.429721355438232422e+00 2.708800792694091797e+00 4.371262192726135254e-01
-2.404967784881591797e+00 2.492918968200683594e+00 3.830286562442779541e-01
-2.260311126708984375e+00 2.713752508163452148e+00 3.282549083232879639e-01
-2.415149927139282227e+00 2.694447278976440430e+00 3.019397258758544922e-01
-2.515529870986938477e+00 2.610258340835571289e+00 2.681190073490142822e-01
-2.412599086761474609e+00 2.693492650985717773e+00 1.698942482471466064e-01
-2.403043270111083984e+00 2.685652256011962891e+00 3.836929425597190857e-02
-2.231504201889038086e+00 2.920831918716430664e+00 1.083215713500976562e+00
-2.303610801696777344e+00 2.790562868118286133e+00 1.025309205055236816e+00
-2.366744279861450195e+00 2.659206628799438477e+00 9.712065458297729492e-01
-2.474960803985595703e+00 2.581795454025268555e+00 9.402697086334228516e-01
-2.193521738052368164e+00 2.870077610015869141e+00 9.174133539199829102e-01
-2.294576883316040039e+00 2.781596422195434570e+00 8.770185112953186035e-01
-2.359326362609863281e+00 2.653668642044067383e+00 8.276101946830749512e-01
-2.441856384277343750e+00 2.551715612411499023e+00 7.894604206085205078e-01
-2.295140743255615234e+00 2.784259319305419922e+00 7.380511164665222168e-01
-2.360384225845336914e+00 2.658593893051147461e+00 6.923512816429138184e-01
-2.392925500869750977e+00 2.504956007003784180e+00 6.408066153526306152e-01
-2.272193670272827148e+00 2.758383274078369141e+00 5.954726934432983398e-01
-2.400750637054443359e+00 2.705010890960693359e+00 5.676572918891906738e-01
-2.387279033660888672e+00 2.502540826797485352e+00 5.101026296615600586e-01
-2.258889198303222656e+00 2.744183301925659180e+00 4.603627622127532959e-01
-2.381451129913330078e+00 2.687986850738525391e+00 4.314012229442596436e-01
-2.384140729904174805e+00 2.501872301101684570e+00 3.821493983268737793e-01
-2.391965866088867188e+00 2.701754331588745117e+00 3.011081516742706299e-01
-2.409389019012451172e+00 2.531019926071166992e+00 2.584563791751861572e-01
-2.396026611328125000e+00 2.708245277404785156e+00 1.698942482471466064e-01
-2.371951103210449219e+00 2.683862686157226562e+00 3.813507407903671265e-02
-2.294348001480102539e+00 2.814339399337768555e+00 1.028853178024291992e+00
-2.357389688491821289e+00 2.681649208068847656e+00 9.741017818450927734e-01
-2.459737539291381836e+00 2.597635030746459961e+00 9.405239224433898926e-01
-2.165945053100585938e+00 2.870330572128295898e+00 9.132288098335266113e-01
-2.313061237335205078e+00 2.839316606521606445e+00 8.907256126403808594e-01
-2.350710868835449219e+00 2.676876783370971680e+00 8.303341269493103027e-01
-2.454980134963989258e+00 2.597146749496459961e+00 7.988405823707580566e-01
-2.281106233596801758e+00 2.802088499069213867e+00 7.390531301498413086e-01
-2.342085361480712891e+00 2.670812845230102539e+00 6.917778253555297852e-01
-2.376160621643066406e+00 2.518161296844482422e+00 6.404427886009216309e-01
-2.258960723876953125e+00 2.776864290237426758e+00 5.964588522911071777e-01
-2.372385740280151367e+00 2.706318855285644531e+00 5.648662447929382324e-01
-2.376628160476684570e+00 2.522181987762451172e+00 5.111240744590759277e-01
-2.366220951080322266e+00 2.704042911529541016e+00 4.316397905349731445e-01
-2.378282308578491211e+00 2.526586532592773438e+00 3.836881220340728760e-01
-2.377310991287231445e+00 2.718630552291870117e+00 3.013575971126556396e-01
-2.378706932067871094e+00 2.722143888473510742e+00 1.698473244905471802e-01
-2.357411384582519531e+00 2.700626373291015625e+00 3.816701471805572510e-02
-2.316253900527954102e+00 2.877077341079711914e+00 1.046573281288146973e+00
-2.345318555831909180e+00 2.701162576675415039e+00 9.759441614151000977e-01
-2.441770553588867188e+00 2.610559701919555664e+00 9.397611618041992188e-01
-2.291332244873046875e+00 2.848156213760375977e+00 8.890712857246398926e-01
-2.330412864685058594e+00 2.686835765838623047e+00 8.289721608161926270e-01
-2.436334133148193359e+00 2.609308242797851562e+00 7.979680299758911133e-01
-2.195732831954956055e+00 2.731276512145996094e+00 7.168093919754028320e-01
-2.325011014938354492e+00 2.684391498565673828e+00 6.915866732597351074e-01
-2.392175912857055664e+00 2.566501140594482422e+00 6.489917039871215820e-01
-2.355735540390014648e+00 2.720824480056762695e+00 5.648662447929382324e-01
-2.373914003372192383e+00 2.550476074218750000e+00 5.138963460922241211e-01
-2.340495347976684570e+00 2.707994461059570312e+00 4.299699962139129639e-01
-2.370856285095214844e+00 2.549866676330566406e+00 3.850070238113403320e-01
-2.357979536056518555e+00 2.730149745941162109e+00 3.010249733924865723e-01
-2.350864171981811523e+00 2.723832845687866211e+00 1.690494716167449951e-01
-2.341449022293090820e+00 2.715797424316406250e+00 3.817766159772872925e-02
-2.442912817001342773e+00 2.634731292724609375e+00 4.389676731079816818e-03
-2.287779569625854492e+00 2.877679109573364258e+00 1.041666150093078613e+00
-2.330584526062011719e+00 2.717699289321899414e+00 9.767337441444396973e-01
-2.425050258636474609e+00 2.624782800674438477e+00 9.395068883895874023e-01
-2.256285190582275391e+00 2.840098619461059570e+00 8.822177648544311523e-01
-2.326554775238037109e+00 2.715876579284667969e+00 8.335120081901550293e-01
-2.426232337951660156e+00 2.630664348602294922e+00 7.999312877655029297e-01
-2.189288377761840820e+00 2.757742166519165039e+00 7.202160358428955078e-01
-2.318066835403442383e+00 2.709795236587524414e+00 6.944538950920104980e-01
-2.389703750610351562e+00 2.595599174499511719e+00 6.526295542716979980e-01
-2.331291913986206055e+00 2.726218223571777344e+00 5.630056262016296387e-01
-2.375628709793090820e+00 2.583929300308227539e+00 5.176900029182434082e-01
-2.323835372924804688e+00 2.722304582595825195e+00 4.299699962139129639e-01
-2.347003936767578125e+00 2.751390218734741211e+00 3.017733991146087646e-01
-2.330218791961669922e+00 2.733644962310791016e+00 1.687678843736648560e-01
-2.443472623825073242e+00 2.666115283966064453e+00 1.357695907354354858e-01
-2.403736829757690430e+00 2.624597549438476562e+00 4.348137881606817245e-03
-2.257603168487548828e+00 2.875770330429077148e+00 1.035941243171691895e+00
-2.318853139877319336e+00 2.737837791442871094e+00 9.788393378257751465e-01
-2.410855054855346680e+00 2.641756296157836914e+00 9.402697086334228516e-01
-2.226221561431884766e+00 2.837834835052490234e+00 8.772547841072082520e-01
-2.302298069000244141e+00 2.721179008483886719e+00 8.307880759239196777e-01
-2.421218395233154297e+00 2.657766580581665039e+00 8.036397695541381836e-01
-2.139686584472656250e+00 2.729487419128417969e+00 7.093948125839233398e-01
-2.302663326263427734e+00 2.725467205047607422e+00 6.948362588882446289e-01
-2.384317636489868164e+00 2.621853113174438477e+00 6.555398702621459961e-01
-2.308145999908447266e+00 2.732923984527587891e+00 5.614550709724426270e-01
-2.453506469726562500e+00 2.701721668243408203e+00 5.382633805274963379e-01
-2.316047430038452148e+00 2.747139215469360352e+00 4.316397905349731445e-01
-2.446238756179809570e+00 2.696554422378540039e+00 4.025922417640686035e-01
-2.330077648162841797e+00 2.765739202499389648e+00 3.017733991146087646e-01
-2.432937383651733398e+00 2.684715270996093750e+00 2.679714560508728027e-01
-2.429079532623291016e+00 2.683280467987060547e+00 1.358821392059326172e-01
-2.393625020980834961e+00 2.645971536636352539e+00 4.359133541584014893e-03
-2.239326000213623047e+00 2.888808250427246094e+00 1.035668611526489258e+00
-2.311914205551147461e+00 2.763854265213012695e+00 9.830505251884460449e-01
-2.392657518386840820e+00 2.654344320297241211e+00 9.395068883895874023e-01
-2.201626777648925781e+00 2.842223405838012695e+00 8.744189143180847168e-01
-2.323026180267333984e+00 2.780094861984252930e+00 8.444076180458068848e-01
-2.415962219238281250e+00 2.684905529022216797e+00 8.073481917381286621e-01
-2.102509260177612305e+00 2.716223955154418945e+00 7.025814056396484375e-01
-2.290927648544311523e+00 2.745573997497558594e+00 6.963654160499572754e-01
-2.381984472274780273e+00 2.651795864105224609e+00 6.593596339225769043e-01
-2.288169622421264648e+00 2.743241786956787109e+00 5.606797933578491211e-01
-2.428295373916625977e+00 2.707151651382446289e+00 5.363665223121643066e-01
-2.290888786315917969e+00 2.751379489898681641e+00 4.300892651081085205e-01
-2.419034242630004883e+00 2.699669361114501953e+00 4.008337259292602539e-01
-2.424400091171264648e+00 2.708509922027587891e+00 2.688566148281097412e-01
-2.420562505722045898e+00 2.707073450088500977e+00 1.363323181867599487e-01
-2.397333621978759766e+00 2.682979345321655273e+00 4.395785741508007050e-03
-2.218634366989135742e+00 2.898673772811889648e+00 1.034305572509765625e+00
-2.297369718551635742e+00 2.780962944030761719e+00 9.841033220291137695e-01
-2.376325607299804688e+00 2.668975353240966797e+00 9.395068883895874023e-01
-2.172339439392089844e+00 2.840242385864257812e+00 8.696922659873962402e-01
-2.332578659057617188e+00 2.826596021652221680e+00 8.541682362556457520e-01
-2.390366077423095703e+00 2.689466953277587891e+00 8.042941689491271973e-01
-2.087587833404541016e+00 2.731408596038818359e+00 7.031825780868530273e-01
-2.280904531478881836e+00 2.767911672592163086e+00 6.984681487083435059e-01
-2.364363431930541992e+00 2.664890289306640625e+00 6.589958071708679199e-01
-2.274435043334960938e+00 2.761042594909667969e+00 5.614550709724426270e-01
-2.401142120361328125e+00 2.710152626037597656e+00 5.340319275856018066e-01
-2.386614084243774414e+00 2.696598529815673828e+00 3.981959223747253418e-01
-2.403111457824707031e+00 2.718104839324951172e+00 2.683402895927429199e-01
-2.393984079360961914e+00 2.710639953613281250e+00 1.357695907354354858e-01
-2.383472919464111328e+00 2.700637578964233398e+00 4.400672391057014465e-03
-2.195006132125854492e+00 2.904556751251220703e+00 1.031579375267028809e+00
-2.283312320709228516e+00 2.798744678497314453e+00 9.854193329811096191e-01
-2.361181735992431641e+00 2.684958457946777344e+00 9.400154352188110352e-01
-2.160141229629516602e+00 2.860496997833251953e+00 8.718192577362060547e-01
-2.305346965789794922e+00 2.828776121139526367e+00 8.505363464355468750e-01
-2.368024349212646484e+00 2.697482585906982422e+00 8.023309111595153809e-01
-2.253964900970458984e+00 2.769673824310302734e+00 6.954097151756286621e-01
-2.347967386245727539e+00 2.679347515106201172e+00 6.589958071708679199e-01
-2.254956960678100586e+00 2.771880865097045898e+00 5.608348250389099121e-01
-2.381210327148437500e+00 2.721112489700317383e+00 5.333024263381958008e-01
-2.358248472213745117e+00 2.697721719741821289e+00 3.962176144123077393e-01
-2.384420394897460938e+00 2.730545282363891602e+00 2.681190073490142822e-01
-2.370738029479980469e+00 2.717747688293457031e+00 1.353944391012191772e-01
-2.347801446914672852e+00 2.693351030349731445e+00 4.365242086350917816e-03
-2.332069873809814453e+00 2.894588947296142578e+00 1.014108061790466309e+00
-2.359249591827392578e+00 2.716189622879028320e+00 9.458635449409484863e-01
-2.341838359832763672e+00 2.700901269912719727e+00 7.990587353706359863e-01
-2.180974006652832031e+00 2.713827133178710938e+00 6.780148744583129883e-01
-2.326334953308105469e+00 2.687756061553955078e+00 6.575406789779663086e-01
-2.353471517562866211e+00 2.722948074340820312e+00 5.308219194412231445e-01
-2.335804939270019531e+00 2.705369949340820312e+00 3.952284157276153564e-01
-2.355896949768066406e+00 2.731530904769897461e+00 2.667913138866424561e-01
-2.352712869644165039e+00 2.730728864669799805e+00 1.353193968534469604e-01
-3.129382371902465820e+00 4.550354480743408203e+00 1.639060080051422119e-01
-2.277025461196899414e+00 2.862036466598510742e+00 9.977896809577941895e-01
-2.344428062438964844e+00 2.732816696166992188e+00 9.466263055801391602e-01
-2.325221776962280273e+00 2.715219736099243164e+00 7.990587353706359863e-01
-2.149637222290039062e+00 2.708705663681030273e+00 6.734272837638854980e-01
-2.311077117919921875e+00 2.703474521636962891e+00 6.579044461250305176e-01
-2.946610689163208008e+00 4.331637382507324219e+00 9.256371259689331055e-01
-2.330296516418457031e+00 2.729813098907470703e+00 5.293628573417663574e-01
-2.320451021194458008e+00 2.721163988113403320e+00 3.954482674598693848e-01
-2.342972517013549805e+00 2.750490188598632812e+00 2.672338783740997314e-01
-2.338503599166870117e+00 2.748157501220703125e+00 1.354694664478302002e-01
-3.084001541137695312e+00 4.543832302093505859e+00 1.629863530397415161e-01
-2.258825540542602539e+00 2.875195503234863281e+00 9.975265264511108398e-01
-2.321363449096679688e+00 2.739771366119384766e+00 9.440836310386657715e-01
-2.215610265731811523e+00 2.823230028152465820e+00 8.364629149436950684e-01
-2.314189910888671875e+00 2.736142158508300781e+00 8.010219931602478027e-01
-2.936930179595947266e+00 4.373240470886230469e+00 1.131263852119445801e+00
-2.147506952285766602e+00 2.740386724472045898e+00 6.780148744583129883e-01
-2.315378904342651367e+00 2.742398262023925781e+00 6.639068722724914551e-01
-2.910097122192382812e+00 4.334918975830078125e+00 9.225051999092102051e-01
-2.305850505828857422e+00 2.734983682632446289e+00 5.276119112968444824e-01
-2.923392534255981445e+00 4.356367111206054688e+00 7.307909131050109863e-01
-2.309473037719726562e+00 2.742192745208740234e+00 3.964374065399169922e-01
-2.930286169052124023e+00 4.369935512542724609e+00 5.390784740447998047e-01
-2.315137386322021484e+00 2.751841306686401367e+00 2.659799456596374512e-01
-2.969382286071777344e+00 4.431583404541015625e+00 3.515072166919708252e-01
-3.055506706237792969e+00 4.561838626861572266e+00 1.629566848278045654e-01
-2.246463060379028320e+00 2.895861864089965820e+00 9.998953342437744141e-01
-2.309474229812622070e+00 2.759897232055664062e+00 9.461177587509155273e-01
-2.185121774673461914e+00 2.819835424423217773e+00 8.314690589904785156e-01
-2.310496091842651367e+00 2.766019105911254883e+00 8.056030273437500000e-01
-2.910041332244873047e+00 4.391178607940673828e+00 1.131263852119445801e+00
-2.113832473754882812e+00 2.731775760650634766e+00 6.726626157760620117e-01
-2.301657199859619141e+00 2.760329723358154297e+00 6.648163795471191406e-01
-2.875286102294921875e+00 4.340379238128662109e+00 9.198953509330749512e-01
-2.296622037887573242e+00 2.758203744888305664e+00 5.293628573417663574e-01
-2.889498472213745117e+00 4.363487243652343750e+00 7.289973497390747070e-01
-2.291332721710205078e+00 2.754783630371093750e+00 3.962176144123077393e-01
-2.907809495925903320e+00 4.394470691680908203e+00 5.398938655853271484e-01
-2.939933538436889648e+00 4.446390628814697266e+00 3.512442409992218018e-01
-3.020844697952270508e+00 4.570495128631591797e+00 1.626006960868835449e-01
-2.225132226943969727e+00 2.904996156692504883e+00 9.983161091804504395e-01
-2.298657417297363281e+00 2.781470775604248047e+00 9.486604332923889160e-01
-2.164227485656738281e+00 2.828549385070800781e+00 8.301070928573608398e-01
-2.309627532958984375e+00 2.799717187881469727e+00 8.112747073173522949e-01
-2.887858390808105469e+00 4.416316509246826172e+00 1.133153438568115234e+00
-2.083324670791625977e+00 2.726755380630493164e+00 6.682661175727844238e-01
-2.282176494598388672e+00 2.771364212036132812e+00 6.640887856483459473e-01
-2.873384475708007812e+00 4.395856857299804688e+00 9.278990030288696289e-01
-2.272114515304565430e+00 2.763074159622192383e+00 5.276119112968444824e-01
-2.859961271286010742e+00 4.376988887786865234e+00 7.283075451850891113e-01
-2.880790710449218750e+00 4.412230014801025391e+00 5.398938655853271484e-01
-2.909324169158935547e+00 4.459331512451171875e+00 3.508497178554534912e-01
-2.978001117706298828e+00 4.566339015960693359e+00 1.617997139692306519e-01
-2.199700593948364258e+00 2.908591508865356445e+00 9.948945045471191406e-01
-2.298058032989501953e+00 2.815752983093261719e+00 9.555255174636840820e-01
-2.859819412231445312e+00 4.434277057647705078e+00 1.340058565139770508e+00
-2.296720027923583984e+00 2.819132328033447266e+00 8.128017187118530273e-01
-2.864946365356445312e+00 4.440525054931640625e+00 1.134833097457885742e+00
-2.271953105926513672e+00 2.793706893920898438e+00 6.660895943641662598e-01
-2.867707014083862305e+00 4.446507453918457031e+00 9.348586797714233398e-01
-2.835197448730468750e+00 4.397785186767578125e+00 7.288594245910644531e-01
-2.850431203842163086e+00 4.424805164337158203e+00 5.392823219299316406e-01
-2.874886512756347656e+00 4.466191291809082031e+00 3.499949574470520020e-01
-2.930454969406127930e+00 4.554264545440673828e+00 1.607317179441452026e-01
-2.309869050979614258e+00 2.865945100784301758e+00 9.677302241325378418e-01
-2.848166704177856445e+00 4.476273536682128906e+00 1.347443222999572754e+00
-2.858121156692504883e+00 4.490187644958496094e+00 1.143021583557128906e+00
-2.223982572555541992e+00 2.769260644912719727e+00 6.569949984550476074e-01
-2.823453187942504883e+00 4.437433242797851562e+00 9.292908906936645508e-01
-2.824637651443481445e+00 4.441005706787109375e+00 7.331362366676330566e-01
-2.820559501647949219e+00 4.438014030456542969e+00 5.387727022171020508e-01
-2.848498106002807617e+00 4.485431671142578125e+00 3.501264452934265137e-01
-3.124726295471191406e+00 4.550279140472412109e+00 1.117695420980453491e-01
-2.291035890579223633e+00 2.878550767898559570e+00 9.672216773033142090e-01
-2.834044456481933594e+00 4.515008926391601562e+00 1.353843212127685547e+00
-2.809718608856201172e+00 4.474520206451416016e+00 1.134623169898986816e+00
-2.953092813491821289e+00 4.341064453125000000e+00 1.073911428451538086e+00
-2.180064439773559570e+00 2.748955011367797852e+00 6.489917039871215820e-01
-2.785701990127563477e+00 4.437993049621582031e+00 9.258110523223876953e-01
-2.806810379028320312e+00 4.473355293273925781e+00 7.356196045875549316e-01
-2.800144672393798828e+00 4.466193675994873047e+00 5.400977134704589844e-01
-2.844761133193969727e+00 4.540877342224121094e+00 3.530852794647216797e-01
-3.035771131515502930e+00 4.476027965545654297e+00 3.052169680595397949e-01
-3.089455842971801758e+00 4.558607101440429688e+00 1.115063652396202087e-01
-2.255401849746704102e+00 2.869742155075073242e+00 9.595937728881835938e-01
-2.820574045181274414e+00 4.555387020111083984e+00 1.360735535621643066e+00
-2.180588483810424805e+00 2.779540061950683594e+00 7.896785736083984375e-01
-2.782725572586059570e+00 4.492506980895996094e+00 1.134833097457885742e+00
-2.931861639022827148e+00 4.367237091064453125e+00 1.075915455818176270e+00
-2.140118122100830078e+00 2.732861042022705078e+00 6.420798301696777344e-01
-2.750642538070678711e+00 4.442443370819091797e+00 9.232012033462524414e-01
-2.915163755416870117e+00 4.345641136169433594e+00 8.719245791435241699e-01
-2.790776968002319336e+00 4.509020805358886719e+00 7.386547327041625977e-01
-2.914438486099243164e+00 4.347839832305908203e+00 6.779561638832092285e-01
-2.781583309173583984e+00 4.497674465179443359e+00 5.418304800987243652e-01
-2.935729980468750000e+00 4.382910251617431641e+00 4.903001189231872559e-01
-3.014913558959960938e+00 4.504527568817138672e+00 3.058931231498718262e-01
-3.056980133056640625e+00 4.570829391479492188e+00 1.113444119691848755e-01
-2.741930723190307617e+00 4.491452693939208984e+00 1.550762176513671875e+00
-2.230042695999145508e+00 2.873594284057617188e+00 9.562883377075195312e-01
-2.793074846267700195e+00 4.573434829711914062e+00 1.360981583595275879e+00
-2.921875238418579102e+00 4.407260894775390625e+00 1.286104798316955566e+00
-2.152137279510498047e+00 2.778208732604980469e+00 7.855338454246520996e-01
-2.756636857986450195e+00 4.512000083923339844e+00 1.135462999343872070e+00
-2.909879207611083984e+00 4.392495155334472656e+00 1.077718973159790039e+00
-2.111279249191284180e+00 2.730383396148681641e+00 6.384419798851013184e-01
-2.715120553970336914e+00 4.445790767669677734e+00 9.204173684120178223e-01
-2.882999658584594727e+00 4.355221271514892578e+00 8.702809810638427734e-01
-2.751704216003417969e+00 4.507462024688720703e+00 7.356196045875549316e-01
-2.884423017501831055e+00 4.360677719116210938e+00 6.771854162216186523e-01
-2.761186361312866211e+00 4.526546955108642578e+00 5.432574152946472168e-01
-2.909330844879150391e+00 4.401671886444091797e+00 4.903926551342010498e-01
-2.759221315383911133e+00 4.526878833770751953e+00 3.493374288082122803e-01
-2.964107751846313477e+00 4.487951278686523438e+00 3.035266399383544922e-01
-2.750194311141967773e+00 4.513841629028320312e+00 1.568751037120819092e-01
-3.042643785476684570e+00 4.610361576080322266e+00 1.118505150079727173e-01
-2.705909252166748047e+00 4.494222640991210938e+00 1.545956850051879883e+00
-2.210015773773193359e+00 2.884152889251708984e+00 9.552713036537170410e-01
-2.749457359313964844e+00 4.564748764038085938e+00 1.353350877761840820e+00
-2.896905422210693359e+00 4.428358554840087891e+00 1.287050008773803711e+00
-2.138014554977416992e+00 2.795237541198730469e+00 7.866245508193969727e-01
-2.733945846557617188e+00 4.537203788757324219e+00 1.137562513351440430e+00
-2.869471311569213867e+00 4.389765262603759766e+00 1.072709083557128906e+00
-2.693887472152709961e+00 4.472489356994628906e+00 9.225051999092102051e-01
-2.859997987747192383e+00 4.378609657287597656e+00 8.714314699172973633e-01
-2.729614734649658203e+00 4.533595085144042969e+00 7.371371984481811523e-01
-2.857612133026123047e+00 4.378293991088867188e+00 6.771854162216186523e-01
-2.742077827453613281e+00 4.557894706726074219e+00 5.449900627136230469e-01
-2.879004240036010742e+00 4.414435863494873047e+00 4.898373782634735107e-01
-2.733449459075927734e+00 4.547144889831542969e+00 3.496004641056060791e-01
-2.928882837295532227e+00 4.494343757629394531e+00 3.027378320693969727e-01
