-7.933662891387939453e+00 -6.830578804016113281e+00 1.279029436409473419e-02
-8.038655281066894531e+00 -6.835536956787109375e+00 1.289169676601886749e-02
-8.108779907226562500e+00 -6.809879302978515625e+00 1.293690130114555359e-02
-8.286649703979492188e+00 -6.872992992401123047e+00 1.315314788371324539e-02
-8.333307266235351562e+00 -6.825819492340087891e+00 1.316047739237546921e-02
-8.381252288818359375e+00 -6.779590129852294922e+00 1.317025255411863327e-02
-8.504732131958007812e+00 -6.793568611145019531e+00 1.329853292554616928e-02
-8.415924072265625000e+00 -6.638450622558593750e+00 1.309572625905275345e-02
-8.751556396484375000e+00 -6.816504478454589844e+00 1.355265360325574875e-02
-8.744863510131835938e+00 -6.725490093231201172e+00 1.347812823951244354e-02
-8.800300598144531250e+00 -6.682591438293457031e+00 1.350011862814426422e-02
-8.521098136901855469e+00 -6.388523578643798828e+00 1.301142666488885880e-02
-8.478152275085449219e+00 -6.275434970855712891e+00 1.288681011646986008e-02
-8.497927665710449219e+00 -6.209725856781005859e+00 1.285871118307113647e-02
-8.312031745910644531e+00 -5.995997905731201172e+00 1.252151280641555786e-02
-1.246673107147216797e+01 -6.979918479919433594e+00 4.240493178367614746e-01
-8.522986412048339844e+00 -6.069012641906738281e+00 1.278296299278736115e-02
-1.259158802032470703e+01 -6.948689937591552734e+00 4.268379211425781250e-01
-8.546155929565429688e+00 -6.006826877593994141e+00 1.276219356805086136e-02
-1.268755054473876953e+01 -6.900430202484130859e+00 4.286475777626037598e-01
-8.557382583618164062e+00 -5.936605930328369141e+00 1.272432040423154831e-02
-8.464102745056152344e+00 -5.795289039611816406e+00 1.253250893205404282e-02
-1.310715103149414062e+01 -6.921583652496337891e+00 4.399207532405853271e-01
-8.658589363098144531e+00 -5.850742340087890625e+00 1.276708114892244339e-02
-1.322918033599853516e+01 -6.882549285888671875e+00 4.425907135009765625e-01
-1.234186077117919922e+01 -6.998603820800781250e+00 2.872888147830963135e-01
-8.818292617797851562e+00 -5.880167007446289062e+00 1.294911932200193405e-02
-8.733911514282226562e+00 -5.746795654296875000e+00 1.277318969368934631e-02
-1.370350646972656250e+01 -6.931992530822753906e+00 4.525647640228271484e+00
-1.375523853302001953e+01 -6.943092823028564453e+00 4.573051929473876953e-01
-1.268776798248291016e+01 -6.990396499633789062e+00 2.933216392993927002e-01
-8.837785720825195312e+00 -5.737749099731445312e+00 1.287337206304073334e-02
-1.375093460083007812e+01 -6.850345611572265625e+00 4.527343750000000000e+00
-1.282355499267578125e+01 -6.962984561920166016e+00 2.954675555229187012e-01
-9.037870407104492188e+00 -5.789131164550781250e+00 1.311283092945814133e-02
-1.388245487213134766e+01 -6.812872409820556641e+00 3.927376031875610352e+00
-1.424965858459472656e+01 -6.989993572235107422e+00 2.210859775543212891e+00
-1.302295207977294922e+01 -6.968129158020019531e+00 2.990710735321044922e-01
-1.196713352203369141e+01 -6.970543861389160156e+00 1.474513560533523560e-01
-9.271035194396972656e+00 -5.858569622039794922e+00 1.339871622622013092e-02
-1.390220069885253906e+01 -6.714039802551269531e+00 4.549675464630126953e+00
-1.389432430267333984e+01 -6.713226318359375000e+00 3.919006586074829102e+00
-1.320077800750732422e+01 -6.959428787231445312e+00 3.021684587001800537e-01
-1.199927330017089844e+01 -6.891008377075195312e+00 1.473236083984375000e-01
-9.322082519531250000e+00 -5.811095237731933594e+00 1.342070661485195160e-02
-1.398038578033447266e+01 -6.646319866180419922e+00 4.561830520629882812e+00
-1.404116153717041016e+01 -6.678217411041259766e+00 3.948791027069091797e+00
-1.430621337890625000e+01 -6.785919666290283203e+00 4.699429869651794434e-01
-1.332485961914062500e+01 -6.920695304870605469e+00 3.040309548377990723e-01
-1.220753097534179688e+01 -6.911347866058349609e+00 1.493570506572723389e-01
-9.360119819641113281e+00 -5.755358219146728516e+00 1.342437230050563812e-02
-1.400787258148193359e+01 -6.554315090179443359e+00 4.557590484619140625e+00
-1.416438961029052734e+01 -6.630563735961914062e+00 3.971930027008056641e+00
-1.405515575408935547e+01 -6.582420349121093750e+00 3.332902908325195312e+00
-1.459716415405273438e+01 -6.833151817321777344e+00 2.847726106643676758e+00
-1.153802394866943359e+01 -5.386399269104003906e+00 3.779183030128479004e-01
-1.344450950622558594e+01 -6.878422737121582031e+00 3.057922124862670898e-01
-1.232567501068115234e+01 -6.878709316253662109e+00 1.502832919359207153e-01
-9.318303108215332031e+00 -5.651147842407226562e+00 1.331441663205623627e-02
-1.406437873840332031e+01 -6.475862979888916016e+00 4.562961101531982422e+00
-1.368311595916748047e+01 -6.936868667602539062e+00 4.346864223480224609e+00
-1.421625041961669922e+01 -6.548799037933349609e+00 3.975129604339599609e+00
-1.410682392120361328e+01 -6.501375675201416016e+00 3.335632562637329102e+00
-1.457978534698486328e+01 -6.716263771057128906e+00 2.836242437362670898e+00
-1.145277786254882812e+01 -5.261258125305175781e+00 3.740616738796234131e-01
-1.355967521667480469e+01 -6.832691192626953125e+00 3.074522614479064941e-01
-1.263574981689453125e+01 -6.950421810150146484e+00 1.535410583019256592e-01
-9.504706382751464844e+00 -5.684718132019042969e+00 1.353066228330135345e-02
-1.411346054077148438e+01 -6.393797874450683594e+00 4.566070079803466797e+00
-1.365225505828857422e+01 -6.816248893737792969e+00 4.323691844940185547e+00
-1.432855510711669922e+01 -6.494256019592285156e+00 3.995314359664916992e+00
-1.412864017486572266e+01 -6.406620025634765625e+00 3.331433296203613281e+00
-1.459919548034667969e+01 -6.616920948028564453e+00 2.832066774368286133e+00
-1.144112491607666016e+01 -5.171125411987304688e+00 3.726377189159393311e-01
-1.379121017456054688e+01 -6.843578815460205078e+00 3.117440938949584961e-01
-1.285749149322509766e+01 -6.969974994659423828e+00 1.557128876447677612e-01
-9.561802864074707031e+00 -5.639499664306640625e+00 1.356242783367633820e-02
-1.413227558135986328e+01 -6.298098564147949219e+00 4.559568881988525391e+00
-1.368000698089599609e+01 -6.725560188293457031e+00 4.319329738616943359e+00
-1.400339031219482422e+01 -6.246520519256591797e+00 3.292800664901733398e+00
-1.462243366241455078e+01 -6.519598484039306641e+00 2.828761100769042969e+00
-1.188593769073486328e+01 -5.287067413330078125e+00 8.572016358375549316e-01
-1.129544830322265625e+01 -5.022046566009521484e+00 3.668824434280395508e-01
-1.394522953033447266e+01 -6.813693046569824219e+00 3.142746388912200928e-01
-1.287179279327392578e+01 -6.875874996185302734e+00 1.553722172975540161e-01
-9.597089767456054688e+00 -5.581225872039794922e+00 1.356364879757165909e-02
-1.443509101867675781e+01 -6.327174186706542969e+00 4.644654750823974609e+00
-1.394028282165527344e+01 -6.116092205047607422e+00 3.269075155258178711e+00
-1.458370113372802734e+01 -6.395347118377685547e+00 2.813623666763305664e+00
-1.168503856658935547e+01 -5.112051963806152344e+00 8.404349684715270996e-01
-1.137458992004394531e+01 -4.973869323730468750e+00 3.684547841548919678e-01
-1.410660457611083984e+01 -6.785639286041259766e+00 3.169671595096588135e-01
-1.296860218048095703e+01 -6.825640678405761719e+00 1.560322940349578857e-01
-9.498425483703613281e+00 -5.446130752563476562e+00 1.337672397494316101e-02
-1.456084823608398438e+01 -6.276070594787597656e+00 4.672639369964599609e+00
-1.409851169586181641e+01 -6.717756271362304688e+00 4.425104618072509766e+00
-1.396408176422119141e+01 -6.024631023406982422e+00 3.265925645828247070e+00
-1.461995506286621094e+01 -6.304573059082031250e+00 2.813101768493652344e+00
-1.176109981536865234e+01 -5.059579372406005859e+00 8.436567783355712891e-01
-1.135530757904052734e+01 -4.882660865783691406e+00 3.668527901172637939e-01
-1.427719306945800781e+01 -6.760138988494873047e+00 3.198621273040771484e-01
-1.325435924530029297e+01 -6.872516632080078125e+00 1.589600145816802979e-01
-9.772806167602539062e+00 -5.524052619934082031e+00 1.371514424681663513e-02
-1.460879802703857422e+01 -6.190725803375244141e+00 4.675748825073242188e+00
-1.423615646362304688e+01 -6.676468849182128906e+00 4.455365180969238281e+00
-1.391167736053466797e+01 -5.901037693023681641e+00 3.245139598846435547e+00
-1.419416999816894531e+01 -6.017942428588867188e+00 2.724017858505249023e+00
-1.451676845550537109e+01 -6.789533615112304688e+00 2.670341014862060547e+00
-1.163936710357666016e+01 -4.922796726226806641e+00 8.327420949935913086e-01
-1.157273292541503906e+01 -5.397837162017822266e+00 7.206434011459350586e-01
-1.136479854583740234e+01 -4.804331779479980469e+00 3.662001490592956543e-01
-1.156709575653076172e+01 -5.390292644500732422e+00 2.583999931812286377e-01
-1.342629337310791016e+01 -6.857465267181396484e+00 1.605143845081329346e-01
-1.032890224456787109e+01 -5.755045413970947266e+00 1.444573793560266495e-02
-1.429257869720458984e+01 -6.596248626708984375e+00 4.460272312164306641e+00
-1.444846153259277344e+01 -6.024394512176513672e+00 3.361667633056640625e+00
-1.422446537017822266e+01 -5.928083896636962891e+00 2.722800016403198242e+00
-1.454471302032470703e+01 -6.694146156311035156e+00 2.667875528335571289e+00
-1.152850627899169922e+01 -5.291326045989990234e+00 7.158541083335876465e-01
-1.138390922546386719e+01 -4.730288982391357422e+00 3.658737838268280029e-01
-1.360479068756103516e+01 -6.843705177307128906e+00 1.621432602405548096e-01
-1.018345737457275391e+01 -5.592401027679443359e+00 1.419406197965145111e-02
-1.408623695373535156e+01 -5.766419410705566406e+00 4.485507965087890625e+00
-1.436957645416259766e+01 -6.525134086608886719e+00 4.471722126007080078e+00
-1.395533847808837891e+01 -6.973848342895507812e+00 4.256201267242431641e+00
-1.466820144653320312e+01 -6.007645130157470703e+00 4.025590896606445312e+00
-1.447067832946777344e+01 -5.929695129394531250e+00 3.358308076858520508e+00
-1.434440898895263672e+01 -5.875029563903808594e+00 2.738807201385498047e+00
-1.458012199401855469e+01 -6.602334022521972656e+00 2.666889190673828125e+00
-1.139051151275634766e+01 -4.651280879974365234e+00 3.651618361473083496e-01
-1.374509048461914062e+01 -6.808924674987792969e+00 1.633143723011016846e-01
-1.041985511779785156e+01 -5.639284133911132812e+00 1.447505969554185867e-02
-1.481460666656494141e+01 -5.958719253540039062e+00 4.705712795257568359e+00
-1.403595256805419922e+01 -6.906830310821533203e+00 4.267781734466552734e+00
-1.457980537414550781e+01 -5.867233753204345703e+00 3.991375684738159180e+00
-1.368418407440185547e+01 -6.107174396514892578e+00 3.644672393798828125e+00
-1.454760265350341797e+01 -5.857225418090820312e+00 3.367756366729736328e+00
-1.394544696807861328e+01 -6.217937946319580078e+00 3.123140573501586914e+00
-1.448433208465576172e+01 -5.828813552856445312e+00 2.758642196655273438e+00
-1.437617683410644531e+01 -6.403975009918212891e+00 2.622348070144653320e+00
-1.489158344268798828e+01 -5.989680767059326172e+00 2.235831022262573242e+00
-1.157614040374755859e+01 -4.646759033203125000e+00 8.219588398933410645e-01
-1.140552043914794922e+01 -5.066367149353027344e+00 7.043035626411437988e-01
-1.136132049560546875e+01 -4.558226108551025391e+00 3.633225262165069580e-01
-1.143314933776855469e+01 -5.073862075805664062e+00 2.532781660556793213e-01
-1.390254688262939453e+01 -6.781006813049316406e+00 1.646877378225326538e-01
-9.578955650329589844e+00 -5.108443260192871094e+00 1.326310355216264725e-02
-1.391397666931152344e+01 -6.741077899932861328e+00 4.218037128448486328e+00
-1.459209728240966797e+01 -5.768399715423583984e+00 3.984975814819335938e+00
-1.360039615631103516e+01 -5.969979286193847656e+00 3.612531423568725586e+00
-1.461327075958251953e+01 -5.779718875885009766e+00 3.374684810638427734e+00
-1.397526264190673828e+01 -6.128712177276611328e+00 3.121337175369262695e+00
-1.443099212646484375e+01 -5.704713344573974609e+00 2.741764783859252930e+00
-1.431762313842773438e+01 -6.272892951965332031e+00 2.604597330093383789e+00
-1.493266010284423828e+01 -5.900014400482177734e+00 2.236520767211914062e+00
-1.160907554626464844e+01 -4.577472209930419922e+00 8.222875595092773438e-01
-1.137783813476562500e+01 -4.970707416534423828e+00 7.006974816322326660e-01
-4.818991184234619141e+00 -1.899162054061889648e+00 1.537304818630218506e-01
-1.137426853179931641e+01 -4.964420318603515625e+00 2.512941956520080566e-01
-1.409532928466796875e+01 -6.768291473388671875e+00 1.664763242006301880e-01
-1.046791267395019531e+01 -5.500293731689453125e+00 1.444695983082056046e-02
-1.499750041961669922e+01 -5.819499969482421875e+00 4.740764141082763672e+00
-1.405869865417480469e+01 -6.704996585845947266e+00 4.249357700347900391e+00
-1.366531848907470703e+01 -5.898739337921142578e+00 3.620094060897827148e+00
-1.455823421478271484e+01 -5.654898643493652344e+00 3.353899002075195312e+00
-1.399731063842773438e+01 -6.036250591278076172e+00 3.117930412292480469e+00
-1.434546756744384766e+01 -5.569371700286865234e+00 2.718971967697143555e+00
-1.436761951446533203e+01 -6.189997196197509766e+00 2.606734037399291992e+00
-1.454949283599853516e+01 -6.914151191711425781e+00 2.528331041336059570e+00
-1.495750141143798828e+01 -5.803978919982910156e+00 2.234865427017211914e+00
-1.162484836578369141e+01 -4.501470088958740234e+00 8.214328289031982422e-01
-1.138243865966796875e+01 -4.889766693115234375e+00 6.991198658943176270e-01
-4.799791812896728516e+00 -1.857651829719543457e+00 1.527514904737472534e-01
-1.137970829010009766e+01 -4.883889198303222656e+00 2.507475912570953369e-01
-1.431559467315673828e+01 -6.766282081604003906e+00 1.685842871665954590e-01
-1.029987239837646484e+01 -5.331607818603515625e+00 1.416962686926126480e-02
-1.424591827392578125e+01 -5.427526950836181641e+00 4.492574691772460938e+00
-1.473614120483398438e+01 -6.260053634643554688e+00 4.536604881286621094e+00
-1.405154323577880859e+01 -6.596060752868652344e+00 4.234881401062011719e+00
-1.467536926269531250e+01 -5.594075679779052734e+00 3.988667964935302734e+00
-1.404580974578857422e+01 -5.955222606658935547e+00 3.120535373687744141e+00
-1.437200927734375000e+01 -5.478438377380371094e+00 2.717580080032348633e+00
-1.444801902770996094e+01 -6.119804382324218750e+00 2.614458799362182617e+00
-1.158882522583007812e+01 -4.405943393707275391e+00 8.169617056846618652e-01
-1.133128929138183594e+01 -4.785649776458740234e+00 6.941615343093872070e-01
-1.154311084747314453e+01 -5.376816749572753906e+00 5.982905626296997070e-01
-1.135172843933105469e+01 -4.313533782958984375e+00 3.604151904582977295e-01
-1.133392620086669922e+01 -4.782102584838867188e+00 2.490875571966171265e-01
-1.441486835479736328e+01 -6.705307483673095703e+00 1.692656576633453369e-01
-1.034842777252197266e+01 -5.276484966278076172e+00 1.419161818921566010e-02
-1.456465816497802734e+01 -5.446860790252685547e+00 4.582465648651123047e+00
-1.455680561065673828e+01 -6.724550724029541016e+00 4.374640464782714844e+00
-1.465222930908203125e+01 -5.482525348663330078e+00 3.973160505294799805e+00
-1.460205650329589844e+01 -6.091616153717041016e+00 3.848151922225952148e+00
-1.400431537628173828e+01 -5.836514949798583984e+00 3.103301763534545898e+00
-1.421711921691894531e+01 -6.546567440032958984e+00 3.048104286193847656e+00
-1.485727977752685547e+01 -5.559250831604003906e+00 2.802836179733276367e+00
-1.449167251586914062e+01 -6.033691883087158203e+00 2.615609407424926758e+00
-1.159226989746093750e+01 -4.326030731201171875e+00 8.153179287910461426e-01
-1.133001041412353516e+01 -4.703400135040283203e+00 6.923022270202636719e-01
-1.156862068176269531e+01 -5.302558898925781250e+00 5.979151129722595215e-01
-1.136768054962158203e+01 -4.239957809448242188e+00 3.600888848304748535e-01
-1.135289573669433594e+01 -4.708255767822265625e+00 2.488648593425750732e-01
-1.201083946228027344e+01 -5.497644424438476562e+00 1.406377255916595459e-01
-1.087032794952392578e+01 -5.458813667297363281e+00 1.486112643033266068e-02
-1.419528770446777344e+01 -5.209667205810546875e+00 4.456109523773193359e+00
-1.376288509368896484e+01 -6.880864143371582031e+00 4.045346260070800781e+00
-1.451727390289306641e+01 -5.330711364746093750e+00 3.927622079849243164e+00
-1.456633758544921875e+01 -5.972048282623291016e+00 3.829009532928466797e+00
-1.450042438507080078e+01 -5.939113140106201172e+00 3.205101728439331055e+00
-1.424629116058349609e+01 -6.454348564147949219e+00 3.045810461044311523e+00
-1.491606998443603516e+01 -5.477148532867431641e+00 2.807533979415893555e+00
-1.434948635101318359e+01 -5.871443748474121094e+00 2.583395004272460938e+00
-1.443311214447021484e+01 -6.535952568054199219e+00 2.486775875091552734e+00
-1.162140750885009766e+01 -4.255849838256835938e+00 8.155152201652526855e-01
-1.133924293518066406e+01 -4.625872135162353516e+00 6.911189556121826172e-01
-1.140698242187500000e+01 -5.144010066986083984e+00 5.879185795783996582e-01
-1.142821216583251953e+01 -4.182838439941406250e+00 3.611865341663360596e-01
-1.135657405853271484e+01 -4.628319263458251953e+00 2.483182698488235474e-01
-1.200058078765869141e+01 -5.404135704040527344e+00 1.401267051696777344e-01
-1.049755668640136719e+01 -5.191207885742187500e+00 1.430768240243196487e-02
-1.466559982299804688e+01 -5.280392646789550781e+00 4.593490123748779297e+00
-1.418231868743896484e+01 -5.718964099884033203e+00 4.332960605621337891e+00
-1.449379444122314453e+01 -6.480826377868652344e+00 4.331475734710693359e+00
-1.381786155700683594e+01 -6.802694797515869141e+00 4.049160480499267578e+00
-1.451347827911376953e+01 -5.846613883972167969e+00 3.805612564086914062e+00
-1.371347713470458984e+01 -6.123297214508056641e+00 3.500432491302490234e+00
-1.454568290710449219e+01 -5.853686809539794922e+00 3.207105875015258789e+00
-1.436876964569091797e+01 -5.776663303375244141e+00 2.580436468124389648e+00
-1.442782402038574219e+01 -6.427170276641845703e+00 2.479023218154907227e+00
-1.166514396667480469e+01 -4.190872669219970703e+00 8.167644739151000977e-01
-1.133405017852783203e+01 -4.542836666107177734e+00 6.890905499458312988e-01
-1.143467903137207031e+01 -5.072301387786865234e+00 5.877308845520019531e-01
-1.146024799346923828e+01 -4.115002155303955078e+00 3.613941967487335205e-01
-4.795781135559082031e+00 -1.920269370079040527e+00 1.046030074357986450e-01
-1.202802944183349609e+01 -5.327970027923583984e+00 1.400628238916397095e-01
-1.036198139190673828e+01 -5.045273780822753906e+00 1.408044062554836273e-02
-1.479269409179687500e+01 -5.223844528198242188e+00 4.623171329498291016e+00
-1.423503208160400391e+01 -5.638922214508056641e+00 4.338412761688232422e+00
-1.446528816223144531e+01 -6.361865997314453125e+00 4.311209678649902344e+00
-1.391242980957031250e+01 -6.743514060974121094e+00 4.064670562744140625e+00
-1.439909839630126953e+01 -5.698099613189697266e+00 3.766382217407226562e+00
-1.374989986419677734e+01 -6.038646221160888672e+00 3.500205755233764648e+00
-1.447095680236816406e+01 -6.343271255493164062e+00 3.076967954635620117e+00
-1.441586971282958984e+01 -5.693099498748779297e+00 2.582573175430297852e+00
-1.445613002777099609e+01 -6.333764076232910156e+00 2.477162599563598633e+00
-1.167558097839355469e+01 -4.113911628723144531e+00 8.157123923301696777e-01
-1.134777641296386719e+01 -4.467720031738281250e+00 6.882453560829162598e-01
-1.147748851776123047e+01 -5.007236480712890625e+00 5.883409380912780762e-01
-1.148433876037597656e+01 -4.044274330139160156e+00 3.613645434379577637e-01
-4.800030231475830078e+00 -1.887879490852355957e+00 1.044410541653633118e-01
-1.214208316802978516e+01 -5.289610385894775391e+00 1.410103440284729004e-01
-1.058662128448486328e+01 -5.074531078338623047e+00 1.434311270713806152e-02
-1.485166072845458984e+01 -5.142395019531250000e+00 4.631651401519775391e+00
-1.423349761962890625e+01 -5.537518024444580078e+00 4.327508449554443359e+00
-1.449962329864501953e+01 -6.271073818206787109e+00 4.309893608093261719e+00
-1.427824974060058594e+01 -6.812956809997558594e+00 4.159256935119628906e+00
-1.462670040130615234e+01 -5.684614658355712891e+00 3.816720247268676758e+00
-1.375450611114501953e+01 -5.940264225006103516e+00 3.492033958435058594e+00
-1.383266544342041016e+01 -5.962564945220947266e+00 2.933413028717041016e+00
-1.449472141265869141e+01 -6.244943618774414062e+00 2.477162599563598633e+00
-1.170343303680419922e+01 -4.043171882629394531e+00 8.159096837043762207e-01
-1.133679580688476562e+01 -4.383245468139648438e+00 6.859353184700012207e-01
-1.150707912445068359e+01 -4.936324119567871094e+00 5.882940292358398438e-01
-1.151917934417724609e+01 -5.439788341522216797e+00 4.782510697841644287e-01
-1.154106140136718750e+01 -3.984822750091552734e+00 3.623731732368469238e-01
-4.800331592559814453e+00 -1.854068756103515625e+00 1.041981205344200134e-01
-1.220556163787841797e+01 -5.228395462036132812e+00 1.413723230361938477e-01
-1.111768627166748047e+01 -5.245442867279052734e+00 1.501872949302196503e-02
-1.435708618164062500e+01 -5.484411716461181641e+00 4.354770183563232422e+00
-1.450675582885742188e+01 -6.168774127960205078e+00 4.300681591033935547e+00
-1.466039562225341797e+01 -5.594412803649902344e+00 3.816483736038208008e+00
-1.404348945617675781e+01 -5.963096141815185547e+00 3.556045293807983398e+00
-1.482187175750732422e+01 -5.036216259002685547e+00 3.361667633056640625e+00
-1.379036426544189453e+01 -5.844255447387695312e+00 2.916782855987548828e+00
-1.455914688110351562e+01 -6.167062759399414062e+00 2.481659173965454102e+00
-1.330351734161376953e+01 -5.055358886718750000e+00 1.322736740112304688e+00
-1.172896671295166016e+01 -3.971604824066162109e+00 8.159754872322082520e-01
-1.135974407196044922e+01 -4.312184810638427734e+00 6.857099533081054688e-01
-1.133374309539794922e+01 -4.779840469360351562e+00 5.779220461845397949e-01
-1.153602886199951172e+01 -5.361424446105957031e+00 4.775758087635040283e-01
-1.157192230224609375e+01 -3.916176080703735352e+00 3.625808358192443848e-01
-1.134707832336425781e+01 -4.302845478057861328e+00 2.457269728183746338e-01
-1.081498336791992188e+01 -5.021725177764892578e+00 1.456791162490844727e-02
-1.444722175598144531e+01 -5.417497158050537109e+00 4.371944904327392578e+00
-1.450516986846923828e+01 -6.063275814056396484e+00 4.289101123809814453e+00
-1.440291786193847656e+01 -6.656702995300292969e+00 4.171461105346679688e+00
-1.467169857025146484e+01 -5.495831966400146484e+00 3.810575485229492188e+00
-1.369694709777832031e+01 -5.717009067535400391e+00 3.459347248077392578e+00
-1.371979331970214844e+01 -6.326453685760498047e+00 3.377075672149658203e+00
-1.486548137664794922e+01 -4.949500560760498047e+00 3.364607095718383789e+00
-1.456205654144287109e+01 -6.063183307647705078e+00 2.475767135620117188e+00
-1.182793331146240234e+01 -3.924386262893676758e+00 8.211697936058044434e-01
-1.139440917968750000e+01 -4.245538711547851562e+00 6.862170100212097168e-01
-1.134348011016845703e+01 -4.702175617218017578e+00 5.769364237785339355e-01
-1.147873973846435547e+01 -5.249395847320556641e+00 4.738617539405822754e-01
-1.166973686218261719e+01 -3.869637727737426758e+00 3.648948073387145996e-01
-1.136389636993408203e+01 -4.229652881622314453e+00 2.455245256423950195e-01
-1.096656322479248047e+01 -5.010541915893554688e+00 1.473040133714675903e-02
-1.431495571136474609e+01 -5.267941951751708984e+00 4.322056293487548828e+00
-1.470361995697021484e+01 -6.040514469146728516e+00 4.336740016937255859e+00
-1.465133571624755859e+01 -5.385924816131591797e+00 3.796632051467895508e+00
-1.376961135864257812e+01 -5.648381710052490234e+00 3.468880891799926758e+00
-1.379034805297851562e+01 -6.256667613983154297e+00 3.384928941726684570e+00
-1.487883853912353516e+01 -4.852736949920654297e+00 3.360827445983886719e+00
-1.426951217651367188e+01 -6.459053993225097656e+00 2.897362470626831055e+00
-1.461087131500244141e+01 -5.978581905364990234e+00 2.477782726287841797e+00
-1.200172901153564453e+01 -3.900466442108154297e+00 8.315585255622863770e-01
-1.144462585449218750e+01 -4.184457778930664062e+00 6.876819729804992676e-01
-1.146092796325683594e+01 -4.668661594390869141e+00 5.814419388771057129e-01
-1.143691730499267578e+01 -5.145653724670410156e+00 4.708229601383209229e-01
-1.173984432220458984e+01 -3.813091039657592773e+00 3.663484752178192139e-01
-1.140372276306152344e+01 -4.164990425109863281e+00 2.458281964063644409e-01
-1.059121990203857422e+01 -4.760715961456298828e+00 1.418673153966665268e-02
-1.438682746887207031e+01 -5.194384098052978516e+00 4.334051132202148438e+00
-1.448902320861816406e+01 -5.848706245422363281e+00 4.262781143188476562e+00
-1.460732841491699219e+01 -5.268233299255371094e+00 3.776780605316162109e+00
-1.489066219329833984e+01 -6.001768589019775391e+00 3.741951227188110352e+00
-1.385432243347167969e+01 -6.183468341827392578e+00 3.391254901885986328e+00
-1.488877677917480469e+01 -4.755104541778564453e+00 3.356418609619140625e+00
-1.408520030975341797e+01 -6.271779537200927734e+00 2.852071285247802734e+00
-1.466286277770996094e+01 -5.895083427429199219e+00 2.480418682098388672e+00
-1.295364379882812500e+01 -5.189530849456787109e+00 1.164434432983398438e+00
-1.208914279937744141e+01 -3.847024917602539062e+00 8.359639048576354980e-01
-1.145128917694091797e+01 -4.107414245605468750e+00 6.865550875663757324e-01
-1.152738094329833984e+01 -4.613467693328857422e+00 5.833661556243896484e-01
-1.144908523559570312e+01 -5.066888809204101562e+00 4.700351357460021973e-01
-1.194876670837402344e+01 -3.800057649612426758e+00 3.721333742141723633e-01
-1.145824146270751953e+01 -4.105394363403320312e+00 2.464557886123657227e-01
-4.791311264038085938e+00 -1.914660096168518066e+00 5.493494868278503418e-02
-1.130983257293701172e+01 -5.000541210174560547e+00 1.510791573673486710e-02
-1.467690467834472656e+01 -5.197544574737548828e+00 4.411746501922607422e+00
-1.459100055694580078e+01 -5.786009311676025391e+00 4.282257556915283203e+00
-1.464029407501220703e+01 -5.178829193115234375e+00 3.777016639709472656e+00
-1.384821605682373047e+01 -6.079122066497802734e+00 3.380565881729125977e+00
-1.400182056427001953e+01 -6.131983757019042969e+00 2.827515840530395508e+00
-1.472908020019531250e+01 -5.816977977752685547e+00 2.485535621643066406e+00
-1.479197692871093750e+01 -6.465722560882568359e+00 2.380965471267700195e+00
-1.291383838653564453e+01 -5.081852436065673828e+00 1.158031463623046875e+00
-1.226399803161621094e+01 -3.819956779479980469e+00 8.464183211326599121e-01
-1.147815990447998047e+01 -4.037735939025878906e+00 6.866677403450012207e-01
-1.151735687255859375e+01 -4.527666568756103516e+00 5.814419388771057129e-01
-1.199762725830078125e+01 -3.734691381454467773e+00 3.729343712329864502e-01
-1.150491046905517578e+01 -4.042633533477783203e+00 2.469214051961898804e-01
-4.798315048217773438e+00 -1.883398294448852539e+00 5.488171800971031189e-02
-1.110095214843750000e+01 -4.826975345611572266e+00 1.478904392570257187e-02
-1.430080127716064453e+01 -5.569630146026611328e+00 4.186979293823242188e+00
-1.473697566986083984e+01 -5.111508369445800781e+00 3.793796300888061523e+00
-1.386464786529541016e+01 -5.985140323638916016e+00 3.375548839569091797e+00
-1.401208782196044922e+01 -6.034286499023437500e+00 2.822058916091918945e+00
-1.479304790496826172e+01 -5.737566947937011719e+00 2.490342378616333008e+00
-1.473321056365966797e+01 -6.332647800445556641e+00 2.365207195281982422e+00
-1.247619628906250000e+01 -3.802230834960937500e+00 8.594371676445007324e-01
-1.162636375427246094e+01 -4.009875774383544922e+00 6.940488815307617188e-01
-1.149273586273193359e+01 -4.436766147613525391e+00 5.788137316703796387e-01
-1.140199470520019531e+01 -4.879615306854248047e+00 4.656082689762115479e-01
-1.224024200439453125e+01 -3.727987051010131836e+00 3.797576129436492920e-01
-1.157865333557128906e+01 -3.988898754119873047e+00 2.479741126298904419e-01
-4.778990745544433594e+00 -1.842052936553955078e+00 5.453038960695266724e-02
-1.048948001861572266e+01 -4.484762668609619141e+00 1.393749937415122986e-02
-1.428244209289550781e+01 -5.461790561676025391e+00 4.171713829040527344e+00
-1.493310356140136719e+01 -5.701651096343994141e+00 3.725607872009277344e+00
-1.394872379302978516e+01 -5.920163631439208984e+00 3.387110233306884766e+00
-1.414936065673828125e+01 -5.990752220153808594e+00 2.842249155044555664e+00
-1.492819786071777344e+01 -5.063808441162109375e+00 2.626621484756469727e+00
-1.269532489776611328e+01 -3.784037590026855469e+00 8.729162216186523438e-01
-1.171222782135009766e+01 -3.959244728088378906e+00 6.977112293243408203e-01
-1.136935997009277344e+01 -4.309167385101318359e+00 5.712577104568481445e-01
-1.134421730041503906e+01 -4.772747516632080078e+00 4.620442986488342285e-01
-1.259434032440185547e+01 -3.751544237136840820e+00 3.900221288204193115e-01
-1.160859394073486328e+01 -3.919697284698486328e+00 2.480955719947814941e-01
-4.790203571319580078e+00 -1.812694907188415527e+00 5.453038960695266724e-02
-1.166730499267578125e+01 -4.903884410858154297e+00 1.546221692115068436e-02
-1.434458923339843750e+01 -5.384902477264404297e+00 4.180136203765869141e+00
-1.402081298828125000e+01 -5.849494934082031250e+00 3.395835876464843750e+00
-1.496278381347656250e+01 -4.979177951812744141e+00 3.225542068481445312e+00
-1.420491695404052734e+01 -5.911754608154296875e+00 2.846068859100341797e+00
-1.499549293518066406e+01 -4.984249114990234375e+00 2.633031368255615234e+00
-1.486188888549804688e+01 -6.173001766204833984e+00 2.373523950576782227e+00
-1.390918540954589844e+01 -5.179948329925537109e+00 1.238526582717895508e+00
-1.274743080139160156e+01 -5.279099941253662109e+00 1.020474910736083984e+00
-1.284188556671142578e+01 -3.742080211639404297e+00 8.813981413841247559e-01
-1.138903331756591797e+01 -4.236886978149414062e+00 5.709291696548461914e-01
-1.133912086486816406e+01 -4.688921928405761719e+00 4.606561958789825439e-01
-1.274860095977783203e+01 -3.712483644485473633e+00 3.940863907337188721e-01
-1.169697189331054688e+01 -3.869748592376708984e+00 2.494722008705139160e-01
-1.136814594268798828e+01 -4.696278095245361328e+00 1.502728089690208435e-02
-1.438098144531250000e+01 -5.298118114471435547e+00 4.181189060211181641e+00
-1.499920558929443359e+01 -5.516961097717285156e+00 3.724926710128784180e+00
-1.486910915374755859e+01 -6.096560955047607422e+00 3.592164993286132812e+00
-1.491481018066406250e+01 -4.861769199371337891e+00 3.208709001541137695e+00
-1.428187942504882812e+01 -5.841234683990478516e+00 2.854254007339477539e+00
-1.393415546417236328e+01 -5.092111587524414062e+00 1.237944483757019043e+00
-1.277034568786621094e+01 -5.197024345397949219e+00 1.019737362861633301e+00
-1.311124420166015625e+01 -3.733444452285766602e+00 8.982962965965270996e-01
-1.183685684204101562e+01 -3.840175867080688477e+00 7.022751569747924805e-01
-1.144296550750732422e+01 -4.177201271057128906e+00 5.723371505737304688e-01
-1.136490154266357422e+01 -4.618129730224609375e+00 4.605436623096466064e-01
-1.294419097900390625e+01 -3.683433771133422852e+00 3.994263410568237305e-01
-1.173000717163085938e+01 -3.800986051559448242e+00 2.496746331453323364e-01
-1.139118957519531250e+01 -4.624179363250732422e+00 1.501995138823986053e-02
-1.470445919036865234e+01 -5.315049648284912109e+00 4.265676021575927734e+00
-1.440999126434326172e+01 -5.819911479949951172e+00 4.085774421691894531e+00
-1.492569351196289062e+01 -4.764204025268554688e+00 3.204700946807861328e+00
-1.436216068267822266e+01 -5.771458625793457031e+00 2.863166809082031250e+00
-1.341846370697021484e+01 -3.732069253921508789e+00 9.177587032318115234e-01
-1.188779163360595703e+01 -3.776239871978759766e+00 7.039091587066650391e-01
-1.148060607910156250e+01 -4.111288070678710938e+00 5.729472041130065918e-01
-1.136610889434814453e+01 -4.537564277648925781e+00 4.594556987285614014e-01
-1.317167949676513672e+01 -3.660954713821411133e+00 4.057452380657196045e-01
-1.193989276885986328e+01 -3.788202047348022461e+00 2.536425590515136719e-01
-1.187611198425292969e+01 -4.245906829833984375e+00 1.342818886041641235e-01
-4.783605098724365234e+00 -1.907769322395324707e+00 6.291910540312528610e-03
-1.480226421356201172e+01 -5.247935771942138672e+00 4.284626483917236328e+00
-1.469893741607666016e+01 -5.831965923309326172e+00 4.157476902008056641e+00
-1.354318523406982422e+01 -3.677381277084350586e+00 9.247283935546875000e-01
-1.204898071289062500e+01 -3.746207952499389648e+00 7.120790481567382812e-01
-1.154331493377685547e+01 -4.054006576538085938e+00 5.748245120048522949e-01
-4.857246875762939453e+00 -1.904634475708007812e+00 1.958698630332946777e-01
-1.348619174957275391e+01 -3.659378290176391602e+00 4.147340953350067139e-01
-1.209372234344482422e+01 -3.755489826202392578e+00 2.564160227775573730e-01
-1.191892528533935547e+01 -4.178911685943603516e+00 1.344735175371170044e-01
-4.815705776214599609e+00 -1.886406064033508301e+00 6.318788975477218628e-03
-1.478771209716796875e+01 -5.140855789184570312e+00 4.271203041076660156e+00
-1.450105190277099609e+01 -5.650717258453369141e+00 4.091622352600097656e+00
-1.485456562042236328e+01 -5.758630275726318359e+00 2.947019338607788086e+00
-1.490464591979980469e+01 -5.766078948974609375e+00 2.357036113739013672e+00
-1.307410812377929688e+01 -3.982111930847167969e+00 1.270264148712158203e+00
-1.383364009857177734e+01 -3.665258407592773438e+00 9.430072903633117676e-01
-1.227424049377441406e+01 -3.733806848526000977e+00 7.240239977836608887e-01
-1.154719448089599609e+01 -3.975947380065917969e+00 5.737920403480529785e-01
-4.832472324371337891e+00 -1.860790729522705078e+00 1.944067478179931641e-01
-1.371420574188232422e+01 -3.631052494049072266e+00 4.210530221462249756e-01
-1.240639400482177734e+01 -3.769276618957519531e+00 2.625501155853271484e-01
-1.164835834503173828e+01 -4.003959655761718750e+00 1.311412155628204346e-01
-4.813189506530761719e+00 -1.851436614990234375e+00 6.300462409853935242e-03
-1.492307949066162109e+01 -5.085499286651611328e+00 4.301208019256591797e+00
-1.465648841857910156e+01 -5.607946395874023438e+00 4.125693798065185547e+00
-1.483542346954345703e+01 -5.035406112670898438e+00 3.050971269607543945e+00
-1.476187896728515625e+01 -5.618754863739013672e+00 2.921736240386962891e+00
-1.492217254638671875e+01 -5.667842864990234375e+00 2.354263782501220703e+00
-1.314696311950683594e+01 -3.916313171386718750e+00 1.274983882904052734e+00
-1.459778690338134766e+01 -4.932028293609619141e+00 1.285759210586547852e+00
-1.416212463378906250e+01 -3.659442901611328125e+00 9.638504385948181152e-01
-1.249883842468261719e+01 -3.718495607376098633e+00 7.359126806259155273e-01
-1.160923099517822266e+01 -3.917796373367309570e+00 5.756692886352539062e-01
-1.134488487243652344e+01 -4.288713455200195312e+00 4.553289711475372314e-01
-1.401979827880859375e+01 -3.620056152343750000e+00 4.297452270984649658e-01
-1.264109039306640625e+01 -3.756013870239257812e+00 2.670241296291351318e-01
-1.170492553710937500e+01 -3.943265199661254883e+00 1.315031945705413818e-01
-4.827265739440917969e+00 -1.822928547859191895e+00 6.304128095507621765e-03
-1.445160388946533203e+01 -5.428133010864257812e+00 4.058568000793457031e+00
-1.488094425201416016e+01 -4.949239730834960938e+00 3.054029941558837891e+00
-1.480436611175537109e+01 -5.531168937683105469e+00 2.923372983932495117e+00
-1.431590843200683594e+01 -3.605621099472045898e+00 9.727926850318908691e-01
-1.271986770629882812e+01 -3.699450731277465820e+00 7.475759387016296387e-01
-1.171651077270507812e+01 -3.874085903167724609e+00 5.797993540763854980e-01
-1.138503932952880859e+01 -4.224235534667968750e+00 4.558916985988616943e-01
-1.424724483489990234e+01 -3.585683107376098633e+00 4.360344707965850830e-01
-1.281943702697753906e+01 -3.723556756973266602e+00 2.703037261962890625e-01
-1.190836620330810547e+01 -3.930607318878173828e+00 1.335153430700302124e-01
-1.185492038726806641e+01 -4.393870353698730469e+00 1.544633507728576660e-02
-1.445832252502441406e+01 -5.329657077789306641e+00 4.051194190979003906e+00
-1.491009807586669922e+01 -4.857534408569335938e+00 3.053838729858398438e+00
-1.476222610473632812e+01 -3.621852874755859375e+00 1.001591801643371582e+00
-1.302179908752441406e+01 -3.700758457183837891e+00 7.639721632003784180e-01
-1.180183124542236328e+01 -3.822126150131225586e+00 5.828499197959899902e-01
-1.142858505249023438e+01 -4.160794258117675781e+00 4.566044807434082031e-01
-1.449032211303710938e+01 -3.552461147308349609e+00 4.427983760833740234e-01
-1.299593353271484375e+01 -3.688505172729492188e+00 2.735428512096405029e-01
-1.186756038665771484e+01 -3.836549043655395508e+00 1.327913999557495117e-01
-1.119467735290527344e+01 -4.071210384368896484e+00 1.455325074493885040e-02
-1.454804992675781250e+01 -5.261564254760742188e+00 4.067213058471679688e+00
-1.491156959533691406e+01 -4.757007122039794922e+00 3.048104286193847656e+00
-1.381832885742187500e+01 -3.840847492218017578e+00 1.333009123802185059e+00
-1.320876884460449219e+01 -3.666452169418334961e+00 7.736070156097412109e-01
-1.183934402465820312e+01 -3.754168748855590820e+00 5.835539102554321289e-01
-1.145578193664550781e+01 -4.091263771057128906e+00 4.566795229911804199e-01
-1.485019207000732422e+01 -3.544234752655029297e+00 4.531222581863403320e-01
-1.331892108917236328e+01 -3.692020893096923828e+00 2.798590958118438721e-01
-1.200432491302490234e+01 -3.799566507339477539e+00 1.340583115816116333e-01
-1.156699275970458984e+01 -4.126428604125976562e+00 1.500406861305236816e-02
-1.227406978607177734e+01 -4.305985450744628906e+00 9.620566368103027344e-01
-1.347964096069335938e+01 -3.652707576751708984e+00 7.881438136100769043e-01
-1.231531047821044922e+01 -3.822090625762939453e+00 6.058466434478759766e-01
-1.148727226257324219e+01 -4.023207187652587891e+00 4.569421410560607910e-01
-1.355460834503173828e+01 -3.667943716049194336e+00 2.843331396579742432e-01
-1.214585208892822266e+01 -3.762527942657470703e+00 1.353784501552581787e-01
-1.158737564086914062e+01 -4.053726673126220703e+00 1.499796099960803986e-02
-1.281242847442626953e+01 -3.895232439041137695e+00 1.117451310157775879e+00
-1.226913928985595703e+01 -4.219888210296630859e+00 9.596225619316101074e-01
-1.373345756530761719e+01 -3.631180524826049805e+00 8.016664385795593262e-01
-1.245131587982177734e+01 -3.780699491500854492e+00 6.113846302032470703e-01
-1.152497291564941406e+01 -3.957190275192260742e+00 4.574673473834991455e-01
-1.392292594909667969e+01 -3.676077365875244141e+00 2.915806174278259277e-01
-1.192607402801513672e+01 -4.090258121490478516e+00 1.540357526391744614e-02
-1.486294078826904297e+01 -5.053607463836669922e+00 3.509052276611328125e+00
-1.293160915374755859e+01 -3.844944953918457031e+00 1.125766992568969727e+00
-1.230708694458007812e+01 -4.148668289184570312e+00 9.605814814567565918e-01
-1.402908134460449219e+01 -3.617393255233764648e+00 8.176118731498718262e-01
-1.249726104736328125e+01 -3.711052894592285156e+00 6.125109791755676270e-01
-1.157271575927734375e+01 -3.894367933273315430e+00 4.584052562713623047e-01
-1.405656433105468750e+01 -3.619247436523437500e+00 2.939087450504302979e-01
-1.195094680786132812e+01 -4.017004013061523438e+00 1.540357526391744614e-02
-1.421271896362304688e+01 -3.571883678436279297e+00 8.270213603973388672e-01
-1.278839969635009766e+01 -3.712272644042968750e+00 6.256519556045532227e-01
-1.169034862518310547e+01 -3.854262590408325195e+00 4.621193110942840576e-01
-1.431802940368652344e+01 -3.593036890029907227e+00 2.989090979099273682e-01
-1.182814693450927734e+01 -3.895117282867431641e+00 1.521420665085315704e-02
-1.483477306365966797e+01 -4.841766834259033203e+00 3.488110542297363281e+00
-1.234758186340332031e+01 -3.994259595870971680e+00 9.598438739776611328e-01
-1.453984832763671875e+01 -3.559391021728515625e+00 8.447698354721069336e-01
-1.299064159393310547e+01 -3.684706687927246094e+00 6.344283223152160645e-01
-1.175752067565917969e+01 -3.796584367752075195e+00 4.638450443744659424e-01
-1.447286128997802734e+01 -3.537638425827026367e+00 3.016825914382934570e-01
-1.124557590484619141e+01 -3.626939535140991211e+00 1.443596463650465012e-02
-1.487535762786865234e+01 -4.754216670989990234e+00 3.490728378295898438e+00
-1.236900520324707031e+01 -3.917517662048339844e+00 9.596225619316101074e-01
-1.479159164428710938e+01 -3.524962425231933594e+00 8.581234216690063477e-01
-1.325270366668701172e+01 -3.671330451965332031e+00 6.461143493652343750e-01
-1.194447898864746094e+01 -3.776181221008300781e+00 4.702977538108825684e-01
-1.483472061157226562e+01 -3.529768466949462891e+00 3.087681531906127930e-01
-1.162807464599609375e+01 -3.671687602996826172e+00 1.489777769893407822e-02
-1.487910079956054688e+01 -4.654985904693603516e+00 3.484838247299194336e+00
-1.249854373931884766e+01 -3.874324798583984375e+00 9.678099751472473145e-01
-1.348133373260498047e+01 -3.645748138427734375e+00 6.561579108238220215e-01
-1.226622867584228516e+01 -3.795272588729858398e+00 4.820401966571807861e-01
-1.163605499267578125e+01 -3.595841407775878906e+00 1.487945299595594406e-02
-1.259842967987060547e+01 -3.820716381072998047e+00 9.737107753753662109e-01
-1.375939750671386719e+01 -3.630492687225341797e+00 6.685948371887207031e-01
-1.240979576110839844e+01 -3.756415367126464844e+00 4.867671728134155273e-01
-1.212789058685302734e+01 -3.666462659835815430e+00 1.547932252287864685e-02
-1.405421924591064453e+01 -3.616191625595092773e+00 6.818297505378723145e-01
-1.256580066680908203e+01 -3.719625234603881836e+00 4.919818639755249023e-01
-1.161025810241699219e+01 -3.432366132736206055e+00 1.479148771613836288e-02
-1.285030078887939453e+01 -3.725530624389648438e+00 9.895693063735961914e-01
-1.425248241424560547e+01 -3.574109315872192383e+00 6.903713941574096680e-01
-1.283988666534423828e+01 -3.715224266052246094e+00 5.018109679222106934e-01
-1.449819660186767578e+01 -3.627659797668457031e+00 1.591197252273559570e-01
-1.225939369201660156e+01 -3.542621374130249023e+00 1.559049915522336960e-02
-1.292377376556396484e+01 -3.661018610000610352e+00 9.934785962104797363e-01
-1.452449989318847656e+01 -3.547741889953613281e+00 7.024798393249511719e-01
-1.300379753112792969e+01 -3.676333427429199219e+00 5.073258280754089355e-01
-1.455029869079589844e+01 -3.545971632003784180e+00 1.594497412443161011e-01
-1.248877334594726562e+01 -3.526022195816040039e+00 1.585439220070838928e-02
-1.296137237548828125e+01 -3.585905551910400391e+00 9.946587681770324707e-01
-1.486474704742431641e+01 -3.534343242645263672e+00 7.178735733032226562e-01
-1.321587085723876953e+01 -3.648866891860961914e+00 5.147164463996887207e-01
-1.486950397491455078e+01 -3.527249574661254883e+00 1.627075225114822388e-01
-1.146034812927246094e+01 -3.159866809844970703e+00 1.452392898499965668e-02
-1.345221233367919922e+01 -3.625435352325439453e+00 5.230449438095092773e-01
-1.191985321044921875e+01 -3.207994699478149414e+00 1.508103869855403900e-02
-1.376123905181884766e+01 -3.618297100067138672e+00 5.341870784759521484e-01
-1.124388504028320312e+01 -2.952203273773193359e+00 1.420261431485414505e-02
-1.402130699157714844e+01 -3.594843149185180664e+00 5.434160232543945312e-01
-1.269941997528076172e+01 -3.251208305358886719e+00 1.601566188037395477e-02
-1.470070362091064453e+01 -3.681226730346679688e+00 1.120862841606140137e+00
-1.424766349792480469e+01 -3.559853553771972656e+00 5.513318181037902832e-01
-1.261240196228027344e+01 -3.146597862243652344e+00 1.588127203285694122e-02
-1.449547195434570312e+01 -3.527417659759521484e+00 5.600730180740356445e-01
-1.288412094116210938e+01 -3.130538225173950195e+00 1.619892194867134094e-02
-1.479203033447265625e+01 -3.503588438034057617e+00 5.706899762153625488e-01
-1.244473075866699219e+01 -2.943027973175048828e+00 1.562348660081624985e-02
-1.253369617462158203e+01 -2.882977247238159180e+00 1.571267284452915192e-02
-7.917958736419677734e+00 -8.870481848716735840e-01 2.364696413278579712e-01
-1.147277164459228516e+01 -2.564928054809570312e+00 1.436266023665666580e-02
-7.902378559112548828e+00 -8.362388610839843750e-01 2.358466535806655884e-01
-1.046806812286376953e+01 -2.272959947586059570e+00 1.308717485517263412e-02
-1.276762008666992188e+01 -2.690341472625732422e+00 1.594113558530807495e-02
-1.338741874694824219e+01 -2.735260963439941406e+00 1.669372245669364929e-02
-1.200312805175781250e+01 -2.375798940658569336e+00 1.494909171015024185e-02
-1.279435253143310547e+01 -2.450924396514892578e+00 1.591547951102256775e-02
-7.933347225189208984e+00 -8.832521438598632812e-01 1.616315841674804688e-01
-1.124082279205322266e+01 -2.081904888153076172e+00 1.396681927144527435e-02
-7.948560714721679688e+00 -8.356027603149414062e-01 1.618340313434600830e-01
-1.281559085845947266e+01 -2.292325019836425781e+00 1.590570621192455292e-02
-1.351035308837890625e+01 -2.331139087677001953e+00 1.674992218613624573e-02
-1.347409248352050781e+01 -2.239834070205688477e+00 1.668761298060417175e-02
-1.335032653808593750e+01 -2.135164499282836914e+00 1.651779189705848694e-02
-1.212965202331542969e+01 -1.863681435585021973e+00 1.499307341873645782e-02
-7.915251255035400391e+00 -8.757309317588806152e-01 8.478719741106033325e-02
-1.379697132110595703e+01 -2.033284425735473633e+00 1.703825034201145172e-02
-7.937383174896240234e+00 -8.289130330085754395e-01 8.496817946434020996e-02
-1.344083595275878906e+01 -1.896612048149108887e+00 1.658376492559909821e-02
-7.932368278503417969e+00 -7.792169451713562012e-01 8.486171811819076538e-02
-1.346113967895507812e+01 -1.815307736396789551e+00 1.659476198256015778e-02
-1.442517375946044922e+01 -1.855264902114868164e+00 1.776884496212005615e-02
-1.418615245819091797e+01 -1.736107349395751953e+00 1.746096834540367126e-02
-7.887958526611328125e+00 -9.162431955337524414e-01 9.701759554445743561e-03
-7.883491992950439453e+00 -8.667334914207458496e-01 9.689542464911937714e-03
-7.908555030822753906e+00 -8.204086422920227051e-01 9.713976643979549408e-03
-7.951260566711425781e+00 -7.755561470985412598e-01 9.760403074324131012e-03
-1.387077903747558594e+01 -1.181295990943908691e+00 1.700770668685436249e-02
-1.371128463745117188e+01 -1.083014488220214844e+00 1.680367812514305115e-02
-1.451356410980224609e+01 -1.056816697120666504e+00 1.777861826121807098e-02
-1.375247859954833984e+01 -9.166029095649719238e-01 1.683910749852657318e-02
-1.315638160705566406e+01 1.557915806770324707e-01 2.664167881011962891e-01
-1.403134441375732422e+01 -8.487458825111389160e-01 1.717386208474636078e-02
-1.301123046875000000e+01 2.339266836643218994e-01 2.635015845298767090e-01
-1.213409423828125000e+01 -6.592831015586853027e-01 1.484646555036306381e-02
-1.407692813873291016e+01 -5.051838755607604980e-01 1.720929145812988281e-02
-1.300824165344238281e+01 1.629782766103744507e-01 1.385084539651870728e-01
-1.307098197937011719e+01 2.439866513013839722e-01 1.391898244619369507e-01
-1.357380771636962891e+01 -7.048065215349197388e-02 1.658376492559909821e-02
-1.349865245819091797e+01 9.556519240140914917e-02 1.649213582277297974e-02
-1.297285842895507812e+01 1.714516878128051758e-01 1.585072837769985199e-02
-1.296056365966796875e+01 2.508355677127838135e-01 1.583728939294815063e-02
-1.292379188537597656e+01 3.294633924961090088e-01 1.579452864825725555e-02
-1.282357692718505859e+01 4.056575596332550049e-01 1.567479968070983887e-02
-1.288080310821533203e+01 4.865989089012145996e-01 1.574810221791267395e-02
-1.363844966888427734e+01 7.668356895446777344e-01 1.668883487582206726e-02
-1.392092895507812500e+01 8.684367537498474121e-01 1.704069413244724274e-02
-1.448599815368652344e+01 9.929539561271667480e-01 1.773952320218086243e-02
-1.228574943542480469e+01 9.179076552391052246e-01 1.505171693861484528e-02
-1.425315284729003906e+01 1.329125165939331055e+00 1.748906821012496948e-02
-1.465543365478515625e+01 1.548268556594848633e+00 1.800463721156120300e-02
-1.489651584625244141e+01 1.758834958076477051e+00 1.832595467567443848e-02
-1.434628582000732422e+01 1.872646927833557129e+00 1.767599210143089294e-02
-1.395040988922119141e+01 2.258145809173583984e+00 1.726549118757247925e-02
-1.096801185607910156e+01 2.192433834075927734e+00 1.366505213081836700e-02
-1.095533275604248047e+01 2.259892940521240234e+00 1.366627495735883713e-02
-1.235098743438720703e+01 2.706220388412475586e+00 1.544755790382623672e-02
-7.332617759704589844e+00 2.716282844543457031e+00 2.320790439844131470e-01
