-3.326277248561382294e-03 -7.401179075241088867e-01 7.583179324865341187e-02
-3.709141863510012627e-03 -7.407978773117065430e-01 6.885301321744918823e-02
-3.861827775835990906e-02 -7.820026874542236328e-01 8.336058817803859711e-03
-7.298111170530319214e-02 -7.442771792411804199e-01 1.514283847063779831e-02
-7.140175253152847290e-02 -6.872012615203857422e-01 3.899024426937103271e-02
-7.609513401985168457e-02 -7.298936843872070312e-01 1.485941652208566666e-02
-3.105376474559307098e-02 -7.213597297668457031e-01 5.340251699090003967e-02
-1.086185202002525330e-01 -7.045301795005798340e-01 1.443428453058004379e-02
-9.209798276424407959e-02 -7.122783064842224121e-01 3.374418988823890686e-02
-1.225912272930145264e-01 -7.083223462104797363e-01 1.455575041472911835e-02
-1.058936715126037598e-01 -6.861105561256408691e-01 3.261781856417655945e-02
-1.170999908447265625e+01 -6.906494617462158203e+00 1.660942286252975464e-02
-1.187663650512695312e+01 -6.906905651092529297e+00 1.678535155951976776e-02
-1.182249927520751953e+01 -6.778689384460449219e+00 1.664973981678485870e-02
-1.184819984436035156e+01 -6.697163105010986328e+00 1.662774756550788879e-02
-1.164010715484619141e+01 -6.485620975494384766e+00 1.627955585718154907e-02
-1.169370746612548828e+01 -6.421778202056884766e+00 1.629910245537757874e-02
-1.180940341949462891e+01 -6.391315460205078125e+00 1.640539243817329407e-02
-1.172398471832275391e+01 -6.252384662628173828e+00 1.623312942683696747e-02
-1.214366436004638672e+01 -6.380805492401123047e+00 1.675969548523426056e-02
-1.186554622650146484e+01 -6.142060279846191406e+00 1.632353849709033966e-02
-1.189944553375244141e+01 -6.067321777343750000e+00 1.631865091621875763e-02
-1.192125797271728516e+01 -5.986565113067626953e+00 1.629788242280483246e-02
-1.193356418609619141e+01 -5.901336669921875000e+00 1.626489497721195221e-02
-1.148674011230468750e+01 -5.592921257019042969e+00 1.560882572084665298e-02
-1.204295730590820312e+01 -5.772603034973144531e+00 1.631620712578296661e-02
-1.190179443359375000e+01 -5.615393638610839844e+00 1.607796922326087952e-02
-1.171290588378906250e+01 -5.438658237457275391e+00 1.577742397785186768e-02
-1.205348777770996094e+01 -5.507149696350097656e+00 1.619036868214607239e-02
-1.194567775726318359e+01 -5.369540214538574219e+00 1.600100100040435791e-02
-1.213662338256835938e+01 -5.366098880767822266e+00 1.621235907077789307e-02
-1.225002193450927734e+01 -5.326620101928710938e+00 1.631987281143665314e-02
-1.218041229248046875e+01 -5.207718372344970703e+00 1.618426106870174408e-02
-1.184522914886474609e+01 -4.978667736053466797e+00 1.569801196455955505e-02
-2.455861806869506836e+00 -7.151645421981811523e-01 7.591591775417327881e-02
-1.212694740295410156e+01 -5.009745121002197266e+00 1.603032276034355164e-02
-2.434725999832153320e+00 -6.932915449142456055e-01 1.668114215135574341e-01
-2.457319736480712891e+00 -6.992615461349487305e-01 7.582692801952362061e-02
-1.208981895446777344e+01 -4.907783985137939453e+00 1.594113558530807495e-02
-2.451431751251220703e+00 -6.818152070045471191e-01 1.676661968231201172e-01
-2.478899002075195312e+00 -6.889886260032653809e-01 7.636091858148574829e-02
-1.195065307617187500e+01 -4.766089439392089844e+00 1.571878045797348022e-02
-2.451716899871826172e+00 -6.657147407531738281e-01 1.674031764268875122e-01
-2.427128553390502930e+00 -6.585834026336669922e-01 7.464027404785156250e-02
-1.244336509704589844e+01 -4.874309539794921875e+00 1.632720232009887695e-02
-2.466875791549682617e+00 -6.531442999839782715e-01 7.573793083429336548e-02
-1.213424015045166016e+01 -4.667544841766357422e+00 1.588371396064758301e-02
-2.448672294616699219e+00 -7.275674939155578613e-01 5.172453448176383972e-02
-1.216265106201171875e+01 -4.593002319335937500e+00 1.588371396064758301e-02
-2.426438570022583008e+00 -7.057062387466430664e-01 1.426073759794235229e-01
-2.443489313125610352e+00 -7.097402811050415039e-01 5.152209103107452393e-02
-1.219154262542724609e+01 -4.518635272979736328e+00 1.588493585586547852e-02
-2.462415456771850586e+00 -6.998115181922912598e-01 1.444667428731918335e-01
-2.451645374298095703e+00 -6.958258748054504395e-01 5.160306766629219055e-02
-1.221339988708496094e+01 -4.441693305969238281e+00 1.587760634720325470e-02
-2.473397254943847656e+00 -6.865584850311279297e-01 1.448611468076705933e-01
-2.439489841461181641e+00 -6.762294769287109375e-01 5.125891417264938354e-02
-1.205864429473876953e+01 -4.301821708679199219e+00 1.564181223511695862e-02
-2.469854116439819336e+00 -6.692801117897033691e-01 1.444104015827178955e-01
-2.447453498840332031e+00 -6.622929573059082031e-01 5.133989080786705017e-02
-1.214050292968750000e+01 -4.247232913970947266e+00 1.571389473974704742e-02
-2.449537992477416992e+00 -6.467527747154235840e-01 5.129940435290336609e-02
-2.427809000015258789e+00 -7.357882261276245117e-01 2.700968272984027863e-02
-1.231957340240478516e+01 -4.225215435028076172e+00 1.591181382536888123e-02
-2.474461555480957031e+00 -7.333799600601196289e-01 2.747811935842037201e-02
-1.236327648162841797e+01 -4.155598163604736328e+00 1.593502610921859741e-02
-2.475947856903076172e+00 -7.187289595603942871e-01 1.211317852139472961e-01
-2.450101613998413086e+00 -7.098354697227478027e-01 2.715873159468173981e-02
-1.251866817474365234e+01 -4.122511863708496094e+00 1.610240340232849121e-02
-2.469740390777587891e+00 -7.005249857902526855e-01 1.206155344843864441e-01
-2.458259344100952148e+00 -6.958779692649841309e-01 2.720131538808345795e-02
-1.244189357757568359e+01 -4.012777805328369141e+00 1.597167924046516418e-02
-2.485543727874755859e+00 -6.885578036308288574e-01 1.211787089705467224e-01
-2.451881408691406250e+00 -6.778503060340881348e-01 2.708420716226100922e-02
-1.182832908630371094e+01 -3.734920024871826172e+00 1.515434123575687408e-02
-2.475258111953735352e+00 -6.693823933601379395e-01 1.204747334122657776e-01
-2.449236631393432617e+00 -6.609693765640258789e-01 2.700968272984027863e-02
-1.221790504455566406e+01 -3.775648355484008789e+00 1.562348660081624985e-02
-2.449378252029418945e+00 -6.449103355407714844e-01 2.696709893643856049e-02
-2.471524238586425781e+00 -7.471827864646911621e-01 3.154507372528314590e-03
-2.476940155029296875e+00 -7.332035303115844727e-01 9.697827696800231934e-02
-2.454965114593505859e+00 -7.257667183876037598e-01 3.127629403024911880e-03
-2.473713159561157227e+00 -7.157695293426513672e-01 9.667815268039703369e-02
-2.446883201599121094e+00 -7.070806622505187988e-01 3.111746860668063164e-03
-2.470365524291992188e+00 -6.984027028083801270e-01 9.637802094221115112e-02
-2.473310232162475586e+00 -6.983029842376708984e-01 3.139846725389361382e-03
-2.457265853881835938e+00 -6.784445643424987793e-01 9.570274502038955688e-02
-2.457303762435913086e+00 -6.775319576263427734e-01 3.114190185442566872e-03
-2.456557989120483398e+00 -6.620541214942932129e-01 9.551516175270080566e-02
-2.474933862686157227e+00 -6.660798788070678711e-01 3.131294623017311096e-03
-2.436416625976562500e+00 -6.397075057029724121e-01 3.077538451179862022e-03
-1.252213859558105469e+01 -3.205821990966796875e+00 1.579208485782146454e-02
-1.258523464202880859e+01 -3.139820098876953125e+00 1.584706269204616547e-02
-1.253041172027587891e+01 -3.044595241546630859e+00 1.575421169400215149e-02
-1.268120765686035156e+01 -2.998951911926269531e+00 1.592036709189414978e-02
-1.284847640991210938e+01 -2.955382108688354492e+00 1.610729098320007324e-02
-1.254431819915771484e+01 -2.804490327835083008e+00 1.570412144064903259e-02
-1.271666908264160156e+01 -2.761204719543457031e+00 1.589837484061717987e-02
-1.299952793121337891e+01 -2.739207983016967773e+00 1.623068563640117645e-02
-1.300139427185058594e+01 -2.656390190124511719e+00 1.621235907077789307e-02
-1.275847244262695312e+01 -2.525305509567260742e+00 1.588982343673706055e-02
-1.303988742828369141e+01 -2.497959852218627930e+00 1.622091233730316162e-02
-1.330275535583496094e+01 -2.463793992996215820e+00 1.652878709137439728e-02
-1.278310680389404297e+01 -2.286514520645141602e+00 1.586538925766944885e-02
-1.264908027648925781e+01 -2.182530879974365234e+00 1.568212918937206268e-02
-1.318604564666748047e+01 -2.191951274871826172e+00 1.633086800575256348e-02
-1.317061042785644531e+01 -2.106421947479248047e+00 1.629543676972389221e-02
-1.293420982360839844e+01 -1.987299084663391113e+00 1.598756201565265656e-02
-1.311434364318847656e+01 -1.932684421539306641e+00 1.619525626301765442e-02
-1.312100505828857422e+01 -1.851481199264526367e+00 1.618914678692817688e-02
-1.314500236511230469e+01 -1.772674918174743652e+00 1.620502956211566925e-02
-1.363270187377929688e+01 -1.753342747688293457e+00 1.679268293082714081e-02
-1.245506763458251953e+01 -1.524256467819213867e+00 1.533027086406946182e-02
-1.373067092895507812e+01 -1.594916224479675293e+00 1.688797771930694580e-02
-1.375510787963867188e+01 -1.512275576591491699e+00 1.690630242228507996e-02
-1.304200363159179688e+01 -1.352936506271362305e+00 1.601932570338249207e-02
-1.367111206054687500e+01 -1.333463549613952637e+00 1.678168773651123047e-02
-1.368202400207519531e+01 -1.249826908111572266e+00 1.678535155951976776e-02
-1.357584667205810547e+01 -1.156178355216979980e+00 1.664607413113117218e-02
-1.393458938598632812e+01 -1.100652575492858887e+00 1.707734540104866028e-02
-1.347531414031982422e+01 -9.812156558036804199e-01 1.650679670274257660e-02
-1.311888504028320312e+01 -8.743738532066345215e-01 1.606330834329128265e-02
-1.376183605194091797e+01 -8.324435353279113770e-01 1.684399507939815521e-02
-1.377766895294189453e+01 -7.485836148262023926e-01 1.685743406414985657e-02
-1.389287376403808594e+01 -6.693732142448425293e-01 1.699304580688476562e-02
-1.388373184204101562e+01 -5.835696458816528320e-01 1.697716303169727325e-02
-1.333140945434570312e+01 -4.784291386604309082e-01 1.629788242280483246e-02
-1.396081638336181641e+01 -4.152618944644927979e-01 1.706390641629695892e-02
-1.374816131591796875e+01 -3.245185613632202148e-01 1.680123433470726013e-02
-1.397485828399658203e+01 -2.440845519304275513e-01 1.707612350583076477e-02
-1.380310440063476562e+01 -1.563721001148223877e-01 1.686476357281208038e-02
-1.391280269622802734e+01 -7.224085181951522827e-02 1.699793338775634766e-02
-1.394798469543457031e+01 1.316088438034057617e-02 1.704069413244724274e-02
-1.394864082336425781e+01 9.875093400478363037e-02 1.704191416501998901e-02
-1.394277191162109375e+01 1.842702478170394897e-01 1.703580655157566071e-02
-1.391038608551025391e+01 2.692181766033172607e-01 1.699793338775634766e-02
-1.394645881652832031e+01 3.555340170860290527e-01 1.704435795545578003e-02
-1.387904739379882812e+01 4.390460550785064697e-01 1.696494594216346741e-02
-1.396403026580810547e+01 5.275200605392456055e-01 1.707245782017707825e-02
-1.397151947021484375e+01 6.136744618415832520e-01 1.708589680492877960e-02
-1.406237220764160156e+01 7.041414976119995117e-01 1.720196194946765900e-02
-1.396293640136718750e+01 7.850803136825561523e-01 1.708589680492877960e-02
-1.388599681854248047e+01 8.662576079368591309e-01 1.699793338775634766e-02
-1.397420024871826172e+01 9.578723907470703125e-01 1.711277477443218231e-02
-1.386534500122070312e+01 1.035924315452575684e+00 1.698693633079528809e-02
-1.357266235351562500e+01 1.097842216491699219e+00 1.663630083203315735e-02
-1.402393722534179688e+01 1.221001029014587402e+00 1.719829626381397247e-02
-1.396141815185546875e+01 1.301920533180236816e+00 1.713110134005546570e-02
-1.388649654388427734e+01 1.380931735038757324e+00 1.704924553632736206e-02
-1.351677131652832031e+01 1.427974939346313477e+00 1.660575717687606812e-02
-1.410105419158935547e+01 1.577247858047485352e+00 1.733512990176677704e-02
-1.389745616912841797e+01 1.640875697135925293e+00 1.709689199924468994e-02
-1.404590415954589844e+01 1.745853543281555176e+00 1.729236915707588196e-02
-1.437937736511230469e+01 3.475250959396362305e+00 3.757037878036499023e+00
-1.468540668487548828e+01 3.546500444412231445e+00 3.244299888610839844e+00
-1.407657432556152344e+01 1.837440967559814453e+00 1.734368316829204559e-02
-1.396551418304443359e+01 3.466059684753417969e+00 3.654392004013061523e+00
-1.460832977294921875e+01 3.622891664505004883e+00 3.232122421264648438e+00
-1.492405700683593750e+01 3.703957796096801758e+00 2.716884136199951172e+00
-1.408485031127929688e+01 1.926488876342773438e+00 1.736811734735965729e-02
-1.389890003204345703e+01 3.540201902389526367e+00 3.642576456069946289e+00
-1.408167362213134766e+01 2.014149904251098633e+00 1.737911254167556763e-02
-1.373812866210937500e+01 3.589158296585083008e+00 3.606145858764648438e+00
-6.177476882934570312e+00 1.384403228759765625e+00 1.281877756118774414e-01
-1.410465526580810547e+01 2.105831384658813477e+00 1.742309518158435822e-02
-6.139639377593994141e+00 1.415542960166931152e+00 1.275804489850997925e-01
-1.412407684326171875e+01 2.197409391403198242e+00 1.746341213583946228e-02
-1.378752994537353516e+01 2.231780767440795898e+00 1.706390641629695892e-02
-1.422866249084472656e+01 3.428149700164794922e+00 4.147036552429199219e+00
-1.450659465789794922e+01 3.500470638275146484e+00 3.629547357559204102e+00
-1.423805332183837891e+01 2.394449710845947266e+00 1.763934083282947540e-02
-1.420362472534179688e+01 3.514466285705566406e+00 4.145946025848388672e+00
-1.447069549560546875e+01 3.585909605026245117e+00 3.626002311706542969e+00
-1.470140647888183594e+01 3.648528575897216797e+00 3.098291635513305664e+00
-1.495839118957519531e+01 3.717849254608154297e+00 2.568274021148681641e+00
-1.399651718139648438e+01 2.442232608795166016e+00 1.735834404826164246e-02
-6.122345924377441406e+00 1.337056159973144531e+00 6.672041118144989014e-02
-1.384153461456298828e+01 2.502801179885864258e+00 1.718485727906227112e-02
-1.379754352569580078e+01 3.599375486373901367e+00 3.468134403228759766e+00
-6.152074813842773438e+00 1.383151292800903320e+00 6.713561713695526123e-02
-1.401463890075683594e+01 2.623005867004394531e+00 1.741942949593067169e-02
-6.150291919708251953e+00 1.422450900077819824e+00 6.721013784408569336e-02
-1.413474845886230469e+01 2.735357999801635742e+00 1.758925057947635651e-02
-1.414613628387451172e+01 2.827720165252685547e+00 1.762467995285987854e-02
-1.427987957000732422e+01 3.435051202774047852e+00 4.006950855255126953e+00
-1.451961612701416016e+01 3.500763416290283203e+00 3.481138229370117188e+00
-1.441645717620849609e+01 2.973862409591674805e+00 1.798386871814727783e-02
-1.426321697235107422e+01 3.523763179779052734e+00 4.008266925811767578e+00
-1.450637054443359375e+01 3.591894865036010742e+00 3.483181238174438477e+00
-1.476279067993164062e+01 3.666326999664306641e+00 2.962276935577392578e+00
-1.437250709533691406e+01 3.056855201721191406e+00 1.795210316777229309e-02
-6.147165775299072266e+00 1.346903204917907715e+00 7.688348181545734406e-03
-6.136834621429443359e+00 1.384156107902526855e+00 7.685904856771230698e-03
-6.133096694946289062e+00 1.422914981842041016e+00 7.692013867199420929e-03
-1.396243476867675781e+01 3.329781770706176758e+00 1.753671653568744659e-02
-1.431406402587890625e+01 3.440466165542602539e+00 3.870412588119506836e+00
-1.375137042999267578e+01 3.368754863739013672e+00 1.729725673794746399e-02
-1.405043411254882812e+01 3.468430280685424805e+00 3.804812192916870117e+00
-1.461165142059326172e+01 3.620500802993774414e+00 3.364859819412231445e+00
-1.483570003509521484e+01 3.689760684967041016e+00 2.827879667282104492e+00
-1.387106132507324219e+01 3.488432884216308594e+00 1.747440733015537262e-02
-1.396045017242431641e+01 3.537236452102661133e+00 3.786250829696655273e+00
-1.387844562530517578e+01 3.580973863601684570e+00 1.751106046140193939e-02
-1.445461940765380859e+01 3.824389219284057617e+00 1.826731115579605103e-02
-1.467409896850585938e+01 3.978958606719970703e+00 1.857518590986728668e-02
-1.379187297821044922e+01 3.830739021301269531e+00 1.748784631490707397e-02
-1.393931961059570312e+01 3.963980436325073242e+00 1.770531386137008667e-02
-1.432376575469970703e+01 4.168471336364746094e+00 1.822577230632305145e-02
-1.425287151336669922e+01 4.242871761322021484e+00 1.816834881901741028e-02
-1.394435405731201172e+01 4.244346141815185547e+00 1.780794002115726471e-02
-1.443367385864257812e+01 4.490234851837158203e+00 1.846767403185367584e-02
-1.440013217926025391e+01 4.576896190643310547e+00 1.846034452319145203e-02
-1.433468341827392578e+01 4.653126716613769531e+00 1.841269619762897491e-02
-1.439793777465820312e+01 4.771509170532226562e+00 1.853120513260364532e-02
-1.413251590728759766e+01 4.779984474182128906e+00 1.822699233889579773e-02
-1.420123100280761719e+01 4.900535106658935547e+00 1.835405267775058746e-02
-1.427559852600097656e+01 5.024431705474853516e+00 1.848966628313064575e-02
-1.386612796783447266e+01 4.976143360137939453e+00 1.799852959811687469e-02
-1.417060565948486328e+01 5.183777332305908203e+00 1.843468658626079559e-02
-1.413197231292724609e+01 5.268183708190917969e+00 1.842613518238067627e-02
-1.409657669067382812e+01 5.353731632232666016e+00 1.842246949672698975e-02
-1.380978107452392578e+01 5.341995239257812500e+00 1.809016056358814240e-02
-1.401958274841308594e+01 5.522283554077148438e+00 1.840903051197528839e-02
-1.403926658630371094e+01 5.629789352416992188e+00 1.847989112138748169e-02
-1.399890422821044922e+01 5.713559627532958984e+00 1.847256161272525787e-02
-1.386846065521240234e+01 5.759841442108154297e+00 1.834672316908836365e-02
-1.382825279235839844e+01 5.842882633209228516e+00 1.834061369299888611e-02
-1.397313213348388672e+01 6.005407810211181641e+00 1.858129538595676422e-02
-8.657701492309570312e+00 4.162716388702392578e+00 1.022790744900703430e-01
-1.383706092834472656e+01 6.047779560089111328e+00 1.844934746623039246e-02
-1.387919425964355469e+01 6.167899608612060547e+00 1.855563931167125702e-02
-1.384837818145751953e+01 6.256238460540771484e+00 1.856541261076927185e-02
-1.395149898529052734e+01 6.406189441680908203e+00 1.875600218772888184e-02
-1.391011524200439453e+01 6.490827560424804688e+00 1.875355839729309082e-02
-8.613873481750488281e+00 4.084009170532226562e+00 1.164675410836935043e-02
-8.599464416503906250e+00 4.141993522644042969e+00 1.166141498833894730e-02
-1.388260173797607422e+01 6.791911602020263672e+00 1.888184063136577606e-02
-1.382454586029052734e+01 6.868956089019775391e+00 1.885984838008880615e-02
-1.336698722839355469e+01 6.744192123413085938e+00 1.829174533486366272e-02
-1.344202899932861328e+01 6.990303993225097656e+00 1.851043477654457092e-02
-3.561164617538452148e+00 4.396299362182617188e+00 6.023681163787841797e-02
-3.540368556976318359e+00 4.425875663757324219e+00 6.034327298402786255e-02
-3.515055656433105469e+00 4.400427818298339844e+00 6.880784872919321060e-03
-9.093491435050964355e-01 2.799728155136108398e+00 8.736709505319595337e-02
-8.891238570213317871e-01 2.795729637145996094e+00 8.707043528556823730e-02
-8.719528317451477051e-01 2.801132440567016602e+00 8.707043528556823730e-02
-9.073302745819091797e-01 2.800060272216796875e+00 5.959962680935859680e-02
-8.865040540695190430e-01 2.794138908386230469e+00 5.935668945312500000e-02
-8.645988106727600098e-01 2.784248590469360352e+00 5.903277918696403503e-02
-8.879204988479614258e-01 2.690088748931884766e+00 3.016099147498607635e-02
-8.873923420906066895e-01 2.744962215423583984e+00 3.071459941565990448e-02
-8.801885843276977539e-01 2.780861854553222656e+00 3.105527907609939575e-02
-8.746486902236938477e-01 2.823461771011352539e+00 3.147048503160476685e-02
-8.399064540863037109e-01 2.771357774734497070e+00 3.083170764148235321e-02
-8.443015217781066895e-01 2.673866033554077148e+00 3.425731556490063667e-03
-9.610575437545776367e-02 7.053367495536804199e-01 1.441403850913047791e-02
-1.081474646925926208e-01 7.006627321243286133e-01 7.548232562839984894e-03
-1.058968007564544678e-01 7.151613235473632812e-01 7.697280496358871460e-03
-4.587329551577568054e-02 6.743029356002807617e-01 1.368524041026830673e-02
-6.794076412916183472e-02 6.916316747665405273e-01 7.399184163659811020e-03
-1.415632572025060654e-02 7.376902103424072266e-01 4.163842275738716125e-02
-5.944764241576194763e-03 6.719625592231750488e-01 1.566239893436431885e-01
-1.276153954677283764e-03 6.340868473052978516e-01 1.234839633107185364e-01
