-3.170878410339355469e+00 -5.776535034179687500e+00 6.124587059020996094e-01
-2.890437602996826172e+00 -5.751136302947998047e+00 5.371050834655761719e-01
-2.605134963989257812e+00 -5.686583995819091797e+00 4.626251161098480225e-01
-3.667645454406738281e+00 -6.137073040008544922e+00 4.711091220378875732e-01
-3.168046474456787109e+00 -5.766603469848632812e+00 3.713088035583496094e-01
-2.901992559432983398e+00 -5.769107818603515625e+00 3.034161031246185303e-01
-2.625895261764526367e+00 -5.723983764648437500e+00 2.364244163036346436e-01
-3.499123811721801758e+00 -5.852765560150146484e+00 2.023831307888031006e-01
-3.212275028228759766e+00 -6.995742321014404297e+00 9.404879063367843628e-03
-3.334326744079589844e+00 -5.996758460998535156e+00 1.143281340599060059e+00
-2.686289310455322266e+00 -5.785792827606201172e+00 9.408301115036010742e-01
-3.631479740142822266e+00 -6.002194404602050781e+00 9.771930575370788574e-01
-3.235287666320800781e+00 -5.813858509063720703e+00 8.617672324180603027e-01
-2.926869392395019531e+00 -5.740589141845703125e+00 7.740652561187744141e-01
-2.655429601669311523e+00 -5.711494922637939453e+00 6.964856982231140137e-01
-3.513008356094360352e+00 -5.801808834075927734e+00 6.949209570884704590e-01
-3.218859195709228516e+00 -5.779587268829345703e+00 6.148648858070373535e-01
-2.932013034820556641e+00 -5.745720386505126953e+00 5.382692813873291016e-01
-2.659760951995849609e+00 -5.712984561920166016e+00 4.660918712615966797e-01
-3.687133073806762695e+00 -6.084584712982177734e+00 4.688077867031097412e-01
-3.225244522094726562e+00 -5.786299705505371094e+00 3.738442957401275635e-01
-2.951421260833740234e+00 -5.778770446777343750e+00 3.048709928989410400e-01
-2.674901485443115234e+00 -5.737651824951171875e+00 2.376624494791030884e-01
-3.527196884155273438e+00 -5.818363666534423828e+00 2.019381225109100342e-01
-3.403044700622558594e+00 -6.032889842987060547e+00 1.154129028320312500e+00
-2.737779855728149414e+00 -5.803200721740722656e+00 9.463747143745422363e-01
-3.687920093536376953e+00 -6.011880874633789062e+00 9.824357032775878906e-01
-3.276262998580932617e+00 -5.803397655487060547e+00 8.631802201271057129e-01
-2.975730180740356445e+00 -5.748974323272705078e+00 7.776433825492858887e-01
-2.709105253219604492e+00 -5.734637260437011719e+00 7.013216614723205566e-01
-3.565716743469238281e+00 -5.808120727539062500e+00 6.982845067977905273e-01
-3.264057636260986328e+00 -5.777066230773925781e+00 6.167157292366027832e-01
-2.973630666732788086e+00 -5.740009307861328125e+00 5.394334793090820312e-01
-2.704147100448608398e+00 -5.716390132904052734e+00 4.677145779132843018e-01
-3.602689027786254883e+00 -5.863752365112304688e+00 4.534877240657806396e-01
-3.243978977203369141e+00 -5.736852169036865234e+00 3.719286024570465088e-01
-3.002456665039062500e+00 -5.790702342987060547e+00 3.064666986465454102e-01
-2.720751285552978516e+00 -5.743708133697509766e+00 2.386003285646438599e-01
-3.586384773254394531e+00 -5.834931850433349609e+00 2.032731175422668457e-01
-3.298737287521362305e+00 -5.828940391540527344e+00 1.356174796819686890e-01
-3.456653833389282227e+00 -6.041004657745361328e+00 1.159717202186584473e+00
-2.778466939926147461e+00 -5.796998023986816406e+00 9.481256008148193359e-01
-3.754030704498291016e+00 -6.036238193511962891e+00 9.901616573333740234e-01
-3.333494901657104492e+00 -5.821052074432373047e+00 8.688319921493530273e-01
-3.037733554840087891e+00 -5.781585216522216797e+00 7.845610976219177246e-01
-2.750262260437011719e+00 -5.730451583862304688e+00 7.028603553771972656e-01
-3.617057561874389648e+00 -5.811470031738281250e+00 7.013422250747680664e-01
-3.310831069946289062e+00 -5.776798725128173828e+00 6.188442707061767578e-01
-3.012041330337524414e+00 -5.727829456329345703e+00 5.400155782699584961e-01
-2.749106884002685547e+00 -5.720364093780517578e+00 4.694110751152038574e-01
-3.614332675933837891e+00 -5.802576065063476562e+00 4.504631757736206055e-01
-3.274647712707519531e+00 -5.709045410156250000e+00 3.714215159416198730e-01
-3.043979167938232422e+00 -5.783661842346191406e+00 3.070768117904663086e-01
-2.771975994110107422e+00 -5.760222911834716797e+00 2.399884164333343506e-01
-3.618947982788085938e+00 -5.807726383209228516e+00 2.030951082706451416e-01
-3.338422775268554688e+00 -5.815526485443115234e+00 1.357794404029846191e-01
-2.872911691665649414e+00 -5.911357879638671875e+00 1.215768218040466309e+00
-3.511480569839477539e+00 -6.050394535064697266e+00 1.165634155273437500e+00
-3.077403306961059570e+00 -5.782959461212158203e+00 1.028171420097351074e+00
-2.843865156173706055e+00 -5.841214656829833984e+00 9.581934213638305664e-01
-3.810541391372680664e+00 -6.044089794158935547e+00 9.952662587165832520e-01
-3.384092330932617188e+00 -5.826214790344238281e+00 8.726854324340820312e-01
-3.085765600204467773e+00 -5.786491394042968750e+00 7.877813577651977539e-01
-2.798873901367187500e+00 -5.741164207458496094e+00 7.062674760818481445e-01
-3.680782079696655273e+00 -5.833756923675537109e+00 7.067442536354064941e-01
-3.361226797103881836e+00 -5.782200336456298828e+00 6.216205954551696777e-01
-3.067775487899780273e+00 -5.747922897338867188e+00 5.436744093894958496e-01
-2.789841890335083008e+00 -5.715038776397705078e+00 4.703699648380279541e-01
-3.729781150817871094e+00 -5.906847000122070312e+00 4.603258967399597168e-01
-3.350785493850708008e+00 -5.759610176086425781e+00 3.760417401790618896e-01
-3.095882177352905273e+00 -5.795713424682617188e+00 3.087194561958312988e-01
-2.816483497619628906e+00 -5.761959075927734375e+00 2.407762408256530762e-01
-3.682807683944702148e+00 -5.830200672149658203e+00 2.046674191951751709e-01
-3.380080223083496094e+00 -5.805301189422607422e+00 1.360223740339279175e-01
-2.943947792053222656e+00 -5.964158535003662109e+00 1.230319499969482422e+00
-2.881406545639038086e+00 -5.827202320098876953e+00 9.587770104408264160e-01
-3.903556823730468750e+00 -6.108224868774414062e+00 1.009752392768859863e+00
-3.456522226333618164e+00 -5.867717742919921875e+00 8.820622563362121582e-01
-3.132553815841674805e+00 -5.788404941558837891e+00 7.906438112258911133e-01
-2.840222835540771484e+00 -5.736353397369384766e+00 7.078062295913696289e-01
-3.739019155502319336e+00 -5.846260070800781250e+00 7.110250592231750488e-01
-3.406755924224853516e+00 -5.778622150421142578e+00 6.234714984893798828e-01
-3.124818325042724609e+00 -5.769299030303955078e+00 5.474995970726013184e-01
-2.845233201980590820e+00 -5.738913536071777344e+00 4.737629294395446777e-01
-3.775099039077758789e+00 -5.898137092590332031e+00 4.614436328411102295e-01
-3.414981842041015625e+00 -5.787955760955810547e+00 3.792533576488494873e-01
-3.142810583114624023e+00 -5.797684192657470703e+00 3.098458051681518555e-01
-2.857117176055908203e+00 -5.755310058593750000e+00 2.412264347076416016e-01
-3.737915754318237305e+00 -5.837798595428466797e+00 2.057354152202606201e-01
-3.408011913299560547e+00 -5.771538734436035156e+00 1.357187032699584961e-01
-3.005604267120361328e+00 -5.996088981628417969e+00 1.240687370300292969e+00
-2.901569604873657227e+00 -5.778469085693359375e+00 9.536702036857604980e-01
-3.992654561996459961e+00 -6.163961410522460938e+00 1.022996902465820312e+00
-3.500598430633544922e+00 -5.860020637512207031e+00 8.841174840927124023e-01
-3.167534112930297852e+00 -5.768204689025878906e+00 7.905245423316955566e-01
-2.884743213653564453e+00 -5.737466335296630859e+00 7.101142406463623047e-01
-3.804581880569458008e+00 -5.869119167327880859e+00 7.166308760643005371e-01
-3.450834512710571289e+00 -5.772138118743896484e+00 6.250447034835815430e-01
-3.172638654708862305e+00 -5.772723674774169922e+00 5.496616363525390625e-01
-2.884877204895019531e+00 -5.730255126953125000e+00 4.745005369186401367e-01
-3.818278074264526367e+00 -5.885745048522949219e+00 4.622984230518341064e-01
-3.461196660995483398e+00 -5.784884929656982422e+00 3.804365992546081543e-01
-3.178325414657592773e+00 -5.778291225433349609e+00 3.098458051681518555e-01
-2.917567729949951172e+00 -5.787641525268554688e+00 2.433273196220397949e-01
-3.769312143325805664e+00 -5.808045387268066406e+00 2.054980844259262085e-01
-3.463392734527587891e+00 -5.783971786499023438e+00 1.365082412958145142e-01
-3.062410116195678711e+00 -6.016969203948974609e+00 1.248872518539428711e+00
-3.542654514312744141e+00 -5.848609924316406250e+00 8.856588602066040039e-01
-3.223163366317749023e+00 -5.785088539123535156e+00 7.955339550971984863e-01
-2.933450937271118164e+00 -5.746215343475341797e+00 7.134114503860473633e-01
-3.869472742080688477e+00 -5.889729022979736328e+00 7.220328450202941895e-01
-3.693169355392456055e+00 -6.092296600341796875e+00 6.621550321578979492e-01
-3.217221021652221680e+00 -5.769685268402099609e+00 5.512415766716003418e-01
-2.929969310760498047e+00 -5.731981754302978516e+00 4.761232733726501465e-01
-3.847742319107055664e+00 -5.852200984954833984e+00 4.615094065666198730e-01
-3.589842557907104492e+00 -5.917187213897705078e+00 3.905785679817199707e-01
-3.220048666000366211e+00 -5.770020008087158203e+00 3.104559183120727539e-01
-2.960764884948730469e+00 -5.784752845764160156e+00 2.439650893211364746e-01
-3.829596281051635742e+00 -5.822387695312500000e+00 2.068330645561218262e-01
-3.510232686996459961e+00 -5.781413555145263672e+00 1.369536221027374268e-01
-3.582189083099365234e+00 -6.992873668670654297e+00 9.599134325981140137e-03
-3.110105514526367188e+00 -6.019032001495361328e+00 1.253237962722778320e+00
-3.378079652786254883e+00 -5.988784790039062500e+00 1.079184532165527344e+00
-3.629335880279541016e+00 -5.909579753875732422e+00 8.982469439506530762e-01
-3.280095100402832031e+00 -5.803233623504638672e+00 8.007818460464477539e-01
-2.979630470275878906e+00 -5.749287605285644531e+00 7.160492539405822754e-01
-3.920975685119628906e+00 -5.889060974121093750e+00 7.248867750167846680e-01
-3.762285947799682617e+00 -6.121267318725585938e+00 6.678002476692199707e-01
-3.263357162475585938e+00 -5.768918514251708984e+00 5.530710816383361816e-01
-2.988052129745483398e+00 -5.758155345916748047e+00 4.798112809658050537e-01
-3.943334102630615234e+00 -5.918162822723388672e+00 4.686105549335479736e-01
-3.589988946914672852e+00 -5.836370944976806641e+00 3.866908252239227295e-01
-3.267695426940917969e+00 -5.771885395050048828e+00 3.116292357444763184e-01
-3.006800889968872070e+00 -5.786872386932373047e+00 2.448279559612274170e-01
-3.349582672119140625e+00 -5.909307479858398438e+00 7.232036441564559937e-02
-3.625029087066650391e+00 -6.970762252807617188e+00 9.599134325981140137e-03
-3.146065473556518555e+00 -5.998093605041503906e+00 1.252874255180358887e+00
-3.445672035217285156e+00 -6.021964550018310547e+00 1.088953018188476562e+00
-3.693309068679809570e+00 -5.931818008422851562e+00 9.050547480583190918e-01
-3.333913564682006836e+00 -5.814867973327636719e+00 8.051948547363281250e-01
-3.032898664474487305e+00 -5.765202522277832031e+00 7.203356623649597168e-01
-3.998765468597412109e+00 -5.926739692687988281e+00 7.325310707092285156e-01
-3.780291080474853516e+00 -6.066799163818359375e+00 6.643760800361633301e-01
-3.311588287353515625e+00 -5.771259307861328125e+00 5.552331209182739258e-01
-3.029369115829467773e+00 -5.751183032989501953e+00 4.807701706886291504e-01
-3.984040021896362305e+00 -5.900471687316894531e+00 4.691365659236907959e-01
-3.628374099731445312e+00 -5.818469047546386719e+00 3.869725465774536133e-01
-3.290613174438476562e+00 -5.730070590972900391e+00 3.104559183120727539e-01
-3.054838657379150391e+00 -5.792179107666015625e+00 2.458408772945404053e-01
-3.698426485061645508e+00 -5.926197052001953125e+00 1.414478868246078491e-01
-3.355873107910156250e+00 -5.836631774902343750e+00 7.168158888816833496e-02
-3.590708971023559570e+00 -6.802469730377197266e+00 9.397548623383045197e-03
-3.493466615676879883e+00 -6.019506931304931641e+00 1.092364192008972168e+00
-3.737576246261596680e+00 -5.921624183654785156e+00 9.069814682006835938e-01
-3.374521255493164062e+00 -5.802884578704833984e+00 8.063875436782836914e-01
-3.067280054092407227e+00 -5.744731426239013672e+00 7.201159000396728516e-01
-4.073795318603515625e+00 -5.958756446838378906e+00 7.395638823509216309e-01
-3.796706676483154297e+00 -6.010658264160156250e+00 6.607668399810791016e-01
-3.352952718734741211e+00 -5.761166572570800781e+00 5.562309622764587402e-01
-3.071183443069458008e+00 -5.744800090789794922e+00 4.818028509616851807e-01
-4.058484077453613281e+00 -5.931915283203125000e+00 4.736076891422271729e-01
-3.713088274002075195e+00 -5.873737812042236328e+00 3.921562135219573975e-01
-3.361405849456787109e+00 -5.771056175231933594e+00 3.137881159782409668e-01
-3.098338127136230469e+00 -5.788302898406982422e+00 2.464786320924758911e-01
-3.718683481216430664e+00 -5.878044605255126953e+00 1.408405452966690063e-01
-3.393134355545043945e+00 -5.818521976470947266e+00 7.171352952718734741e-02
-3.696603536605834961e+00 -6.900189876556396484e+00 9.563704021275043488e-03
-3.545369148254394531e+00 -6.023499011993408203e+00 1.097015857696533203e+00
-3.826217651367187500e+00 -5.980446338653564453e+00 9.195694923400878906e-01
-3.421664237976074219e+00 -5.801739692687988281e+00 8.091307878494262695e-01
-3.119044303894042969e+00 -5.756389141082763672e+00 7.239626646041870117e-01
-4.139170646667480469e+00 -5.975353240966796875e+00 7.447620034217834473e-01
-3.756738185882568359e+00 -5.867335796356201172e+00 6.475329995155334473e-01
-3.408500909805297852e+00 -5.774812698364257812e+00 5.595571994781494141e-01
-3.132530927658081055e+00 -5.774059772491455078e+00 4.858596622943878174e-01
-4.139715671539306641e+00 -5.971686363220214844e+00 4.788020551204681396e-01
-3.715123414993286133e+00 -5.797883510589599609e+00 3.886065185070037842e-01
-3.416566610336303711e+00 -5.783864498138427734e+00 3.156184554100036621e-01
-3.150013685226440430e+00 -5.799038410186767578e+00 2.477541714906692505e-01
-3.750362873077392578e+00 -5.848383903503417969e+00 1.406785994768142700e-01
-3.424190759658813477e+00 -5.789846420288085938e+00 7.161771506071090698e-02
-3.594920158386230469e+00 -6.022839069366455078e+00 1.100892305374145508e+00
-3.888740777969360352e+00 -5.996796131134033203e+00 9.257350564002990723e-01
-3.483188867568969727e+00 -5.824092388153076172e+00 8.152135610580444336e-01
-3.181601762771606445e+00 -5.786788463592529297e+00 7.302274107933044434e-01
-4.226046562194824219e+00 -6.021499156951904297e+00 7.537313699722290039e-01
-3.802425622940063477e+00 -5.859209060668945312e+00 6.491988301277160645e-01
-3.445405960083007812e+00 -5.756354808807373047e+00 5.598067045211791992e-01
-3.183290719985961914e+00 -5.782686710357666016e+00 4.882199764251708984e-01
-4.206101417541503906e+00 -5.988633632659912109e+00 4.822210967540740967e-01
-3.787607431411743164e+00 -5.831916332244873047e+00 3.924379050731658936e-01
-3.464824199676513672e+00 -5.784214973449707031e+00 3.167917728424072266e-01
-3.194219112396240234e+00 -5.795354366302490234e+00 2.484294623136520386e-01
-3.791080951690673828e+00 -5.832806587219238281e+00 1.408607959747314453e-01
-3.485881328582763672e+00 -5.812461853027343750e+00 7.216067612171173096e-02
-3.989190101623535156e+00 -6.069786548614501953e+00 9.407636523246765137e-01
-3.534303903579711914e+00 -5.828078746795654297e+00 8.187916874885559082e-01
-3.230606555938720703e+00 -5.791462421417236328e+00 7.333047986030578613e-01
-4.293466567993164062e+00 -6.038424491882324219e+00 7.591333985328674316e-01
-3.853625774383544922e+00 -5.859060764312744141e+00 6.517900228500366211e-01
-3.555631160736083984e+00 -5.858633995056152344e+00 5.718643069267272949e-01
-3.237191677093505859e+00 -5.796131610870361328e+00 4.910228848457336426e-01
-4.284420013427734375e+00 -6.021250247955322266e+00 4.869551956653594971e-01
-3.828260660171508789e+00 -5.816072463989257812e+00 3.929450213909149170e-01
-3.526696443557739258e+00 -5.806387424468994141e+00 3.191852867603302002e-01
-3.242887258529663086e+00 -5.799195289611816406e+00 2.494423836469650269e-01
-3.826248884201049805e+00 -5.808599948883056641e+00 1.408405452966690063e-01
-3.506413459777832031e+00 -5.766186714172363281e+00 7.185193151235580444e-02
-4.040651798248291016e+00 -6.066655158996582031e+00 9.441033601760864258e-01
-3.598599672317504883e+00 -5.852801322937011719e+00 8.253515958786010742e-01
-3.277340173721313477e+00 -5.791426181793212891e+00 7.358326911926269531e-01
-3.917668581008911133e+00 -5.877559661865234375e+00 6.565098166465759277e-01
-3.551298618316650391e+00 -5.771354675292968750e+00 5.654612779617309570e-01
-3.278594255447387695e+00 -5.786571502685546875e+00 4.919079840183258057e-01
-4.372632026672363281e+00 -6.066081047058105469e+00 4.927413463592529297e-01
-3.950859546661376953e+00 -5.922874450683593750e+00 4.017910957336425781e-01
-3.606255292892456055e+00 -5.856085777282714844e+00 3.231275975704193115e-01
-3.304049015045166016e+00 -5.824385643005371094e+00 2.513931989669799805e-01
-3.557471275329589844e+00 -5.770098209381103516e+00 7.217132300138473511e-02
-3.445881366729736328e+00 -6.010309219360351562e+00 1.021810293197631836e+00
-4.088341236114501953e+00 -6.057366371154785156e+00 9.465439319610595703e-01
-3.641796827316284180e+00 -5.842406749725341797e+00 8.270213603973388672e-01
-3.328153610229492188e+00 -5.797930717468261719e+00 7.392398118972778320e-01
-3.991556882858276367e+00 -5.909518718719482422e+00 6.628028154373168945e-01
-3.595083475112915039e+00 -5.762983798980712891e+00 5.667918324470520020e-01
-3.329940080642700195e+00 -5.794014453887939453e+00 4.942683279514312744e-01
-3.999428033828735352e+00 -5.916718482971191406e+00 4.030306637287139893e-01
-3.631539821624755859e+00 -5.816901206970214844e+00 3.221889436244964600e-01
-3.341718196868896484e+00 -5.807467460632324219e+00 2.515432834625244141e-01
-3.604468822479248047e+00 -5.766815662384033203e+00 7.240553945302963257e-02
-3.788751363754272461e+00 -6.579038619995117188e+00 9.275375865399837494e-03
-3.487171173095703125e+00 -5.996749877929687500e+00 1.023123621940612793e+00
-4.243556976318359375e+00 -6.204888343811035156e+00 9.736467599868774414e-01
-3.707807540893554688e+00 -5.867792606353759766e+00 8.338197469711303711e-01
-3.379669427871704102e+00 -5.804887294769287109e+00 7.427569031715393066e-01
-4.049112319946289062e+00 -5.916140079498291016e+00 6.663194894790649414e-01
-3.700683355331420898e+00 -5.851994037628173828e+00 5.777683854103088379e-01
-3.372459888458251953e+00 -5.785535335540771484e+00 4.953009486198425293e-01
-4.076842784881591797e+00 -5.952198505401611328e+00 4.071437716484069824e-01
-3.663958072662353516e+00 -5.789444923400878906e+00 3.219073712825775146e-01
-3.418592214584350586e+00 -5.857624530792236328e+00 2.546195685863494873e-01
-3.666544675827026367e+00 -5.786824226379394531e+00 7.293785363435745239e-02
-3.412956953048706055e+00 -5.843282222747802734e+00 8.267448283731937408e-03
-3.550033330917358398e+00 -6.019551277160644531e+00 1.030710816383361816e+00
-3.770517349243164062e+00 -5.886734962463378906e+00 8.397832512855529785e-01
-3.432911634445190430e+00 -5.813996315002441406e+00 7.466036081314086914e-01
-4.116544246673583984e+00 -5.936185836791992188e+00 6.714094281196594238e-01
-3.833321809768676758e+00 -5.980191707611083984e+00 5.927364826202392578e-01
-3.410433530807495117e+00 -5.769025802612304688e+00 4.956697821617126465e-01
-4.143457412719726562e+00 -5.970544338226318359e+00 4.101300239562988281e-01
-3.754426479339599609e+00 -5.852612972259521484e+00 3.266944587230682373e-01
-3.468212127685546875e+00 -5.859757423400878906e+00 2.556324899196624756e-01
-3.736565828323364258e+00 -5.818065643310546875e+00 7.361921668052673340e-02
-3.474228620529174805e+00 -5.865250110626220703e+00 8.328534662723541260e-03
-3.595534086227416992e+00 -6.012089252471923828e+00 1.033191323280334473e+00
-3.839545011520385742e+00 -5.914287090301513672e+00 8.470587730407714844e-01
-3.484349727630615234e+00 -5.819258689880371094e+00 7.500107884407043457e-01
-4.192387104034423828e+00 -5.967031478881835938e+00 6.777949929237365723e-01
-3.869943618774414062e+00 -5.956558227539062500e+00 5.927364826202392578e-01
-3.442690610885620117e+00 -5.742858886718750000e+00 4.952272176742553711e-01
-4.223657608032226562e+00 -6.007080078125000000e+00 4.144122004508972168e-01
-3.793533802032470703e+00 -5.834490776062011719e+00 3.269760310649871826e-01
-3.519529342651367188e+00 -5.864070892333984375e+00 2.567579746246337891e-01
-3.784195661544799805e+00 -5.813465595245361328e+00 7.385343313217163086e-02
-3.510666370391845703e+00 -5.844679832458496094e+00 8.329756557941436768e-03
-3.648257970809936523e+00 -6.016137599945068359e+00 1.037714600563049316e+00
-3.911234378814697266e+00 -5.944530010223388672e+00 8.548113703727722168e-01
-3.529275417327880859e+00 -5.813062667846679688e+00 7.519891262054443359e-01
-4.289548873901367188e+00 -6.026370525360107422e+00 6.875121593475341797e-01
-3.877921342849731445e+00 -5.889420509338378906e+00 5.884123444557189941e-01
-3.517231702804565430e+00 -5.786393642425537109e+00 5.008330345153808594e-01
-4.284765720367431641e+00 -6.015204906463623047e+00 4.167786538600921631e-01
-3.824315309524536133e+00 -5.803597450256347656e+00 3.265536427497863770e-01
-3.558561325073242188e+00 -5.847486972808837891e+00 2.569830715656280518e-01
-3.527216672897338867e+00 -5.791428089141845703e+00 8.284552022814750671e-03
-3.730700969696044922e+00 -6.067800998687744141e+00 1.050554633140563965e+00
-3.965261459350585938e+00 -5.946853160858154297e+00 8.586280345916748047e-01
-3.596659898757934570e+00 -5.842930316925048828e+00 7.586935162544250488e-01
-4.350322723388671875e+00 -6.033050060272216797e+00 6.913064718246459961e-01
-3.917304039001464844e+00 -5.870489120483398438e+00 5.889112949371337891e-01
-3.606561660766601562e+00 -5.852150440216064453e+00 5.084303021430969238e-01
-4.371253967285156250e+00 -6.057619094848632812e+00 4.215679168701171875e-01
-3.967472553253173828e+00 -5.941178798675537109e+00 3.356584906578063965e-01
-3.594898462295532227e+00 -5.826392650604248047e+00 2.570205628871917725e-01
-3.564787387847900391e+00 -5.773079872131347656e+00 8.289439603686332703e-03
-3.778851747512817383e+00 -6.062426090240478516e+00 1.053618788719177246e+00
-4.026134490966796875e+00 -5.958608627319335938e+00 8.638759255409240723e-01
-3.641389369964599609e+00 -5.835086822509765625e+00 7.605619430541992188e-01
-3.997907638549804688e+00 -5.912384033203125000e+00 5.955637693405151367e-01
-3.612282037734985352e+00 -5.781702041625976562e+00 5.042259693145751953e-01
-4.022886276245117188e+00 -5.944850444793701172e+00 3.372541666030883789e-01
-3.687813758850097656e+00 -5.895723342895507812e+00 2.610722780227661133e-01
-3.622959375381469727e+00 -5.787546157836914062e+00 8.341974578797817230e-03
-4.150120735168457031e+00 -6.061594486236572266e+00 8.824820518493652344e-01
-3.695190906524658203e+00 -5.841192722320556641e+00 7.642987966537475586e-01
-4.080297946929931641e+00 -5.955152988433837891e+00 6.023826003074645996e-01
-3.646089076995849609e+00 -5.756900787353515625e+00 5.040047168731689453e-01
-4.096570014953613281e+00 -5.974427700042724609e+00 3.403516709804534912e-01
-3.686996459960937500e+00 -5.814752578735351562e+00 2.584836781024932861e-01
-3.734485387802124023e+00 -5.885104179382324219e+00 8.515459485352039337e-03
-4.218361377716064453e+00 -6.080884456634521484e+00 8.890419602394104004e-01
-3.756715297698974609e+00 -5.858571052551269531e+00 7.695743441581726074e-01
-4.128695487976074219e+00 -5.947195053100585938e+00 6.041288971900939941e-01
-3.793944835662841797e+00 -5.909818172454833984e+00 5.194206237792968750e-01
-4.157658576965332031e+00 -5.984454154968261719e+00 3.423697650432586670e-01
-3.767449855804443359e+00 -5.861793518066406250e+00 2.615975141525268555e-01
-4.337456703186035156e+00 -6.743493556976318359e+00 9.795833379030227661e-03
-3.834298610687255859e+00 -5.899581432342529297e+00 7.780373096466064453e-01
-4.190335273742675781e+00 -5.957614898681640625e+00 6.077877283096313477e-01
-3.835030317306518555e+00 -5.893950939178466797e+00 5.200844407081604004e-01
-4.225347518920898438e+00 -6.002939701080322266e+00 3.449040949344635010e-01
-3.796801090240478516e+00 -5.828518867492675781e+00 2.611473202705383301e-01
-4.377113819122314453e+00 -6.714239120483398438e+00 9.792167693376541138e-03
-3.893935680389404297e+00 -5.911635398864746094e+00 7.827633023262023926e-01
-4.295629501342773438e+00 -6.028368473052978516e+00 6.176833510398864746e-01
-3.913946151733398438e+00 -5.935247421264648438e+00 5.258377790451049805e-01
-4.280660152435302734e+00 -6.002925872802734375e+00 3.464059233665466309e-01
-3.799458742141723633e+00 -5.755075454711914062e+00 2.588963806629180908e-01
-4.442483901977539062e+00 -6.723966121673583984e+00 9.845923632383346558e-03
-3.965452671051025391e+00 -5.940539360046386719e+00 7.897974252700805664e-01
-4.380949020385742188e+00 -6.068962097167968750e+00 6.245852708816528320e-01
-3.947520256042480469e+00 -5.906974792480468750e+00 5.254690051078796387e-01
-4.389945030212402344e+00 -6.076952934265136719e+00 3.522255122661590576e-01
-3.983064174652099609e+00 -5.953412055969238281e+00 2.689130604267120361e-01
-4.445269584655761719e+00 -6.639245986938476562e+00 9.761624038219451904e-03
-4.025774955749511719e+00 -5.951497077941894531e+00 7.945234775543212891e-01
-4.007176399230957031e+00 -5.917323589324951172e+00 5.285668969154357910e-01
-4.046996116638183594e+00 -5.969389915466308594e+00 2.707513570785522461e-01
-4.469080448150634766e+00 -6.587019920349121094e+00 9.724972769618034363e-03
-4.113352775573730469e+00 -6.001289367675781250e+00 8.045250177383422852e-01
-4.078392505645751953e+00 -5.943606853485107422e+00 5.331400632858276367e-01
-4.116930961608886719e+00 -5.993041992187500000e+00 2.729647755622863770e-01
-4.532073497772216797e+00 -6.592436313629150391e+00 9.773841127753257751e-03
-4.180714130401611328e+00 -6.020022392272949219e+00 8.104600906372070312e-01
-4.147803306579589844e+00 -5.965962409973144531e+00 5.374181270599365234e-01
-4.186165332794189453e+00 -6.014418601989746094e+00 2.751031816005706787e-01
-4.534716129302978516e+00 -6.510346889495849609e+00 9.693208150565624237e-03
-4.184972286224365234e+00 -5.947921752929687500e+00 8.041953444480895996e-01
-4.211897850036621094e+00 -5.979535102844238281e+00 5.409586429595947266e-01
-4.473676204681396484e+00 -6.339417457580566406e+00 9.479404427111148834e-03
-4.321498870849609375e+00 -6.055862903594970703e+00 5.502524971961975098e-01
-4.510163784027099609e+00 -6.308594703674316406e+00 9.474517777562141418e-03
-4.367923736572265625e+00 -6.042163848876953125e+00 5.514326095581054688e-01
-4.503036022186279297e+00 -6.217629432678222656e+00 9.379222989082336426e-03
-4.538735389709472656e+00 -6.186656951904296875e+00 9.374336339533329010e-03
-3.848337173461914062e+00 -5.178662300109863281e+00 7.882603444159030914e-03
-4.560190200805664062e+00 -6.058586597442626953e+00 9.264379739761352539e-03
-4.333555698394775391e+00 -5.684551715850830078e+00 8.732927963137626648e-03
-4.979483604431152344e+00 -6.449384689331054688e+00 9.954658336937427521e-03
-4.965988159179687500e+00 -6.350961685180664062e+00 9.849589318037033081e-03
-4.988722801208496094e+00 -6.299987792968750000e+00 9.817823767662048340e-03
-5.036043167114257812e+00 -6.280180931091308594e+00 9.834928438067436218e-03
-5.082047462463378906e+00 -6.258477687835693359e+00 9.849589318037033081e-03
-4.638930797576904297e+00 -5.641689777374267578e+00 8.923517540097236633e-03
-4.926840305328369141e+00 -5.917445182800292969e+00 9.407322853803634644e-03
-4.498978614807128906e+00 -5.336621284484863281e+00 8.527677506208419800e-03
-5.060762882232666016e+00 -5.928795814514160156e+00 9.523387067019939423e-03
-5.378871440887451172e+00 -6.223723411560058594e+00 1.004995312541723251e-02
-5.355715751647949219e+00 -6.120613098144531250e+00 9.936331771314144135e-03
-5.330836772918701172e+00 -6.017275810241699219e+00 9.821489453315734863e-03
-5.454459190368652344e+00 -6.081229209899902344e+00 9.980314411222934723e-03
-5.518560409545898438e+00 -6.077259063720703125e+00 1.002918370068073273e-02
-5.276232719421386719e+00 -5.739242076873779297e+00 9.524608962237834930e-03
-5.548438072204589844e+00 -5.961499214172363281e+00 9.949770756065845490e-03
-5.556796550750732422e+00 -5.897502422332763672e+00 9.899680502712726593e-03
-5.745417118072509766e+00 -6.023210048675537109e+00 1.016968209296464920e-02
-5.760732650756835938e+00 -5.965543746948242188e+00 1.013180892914533615e-02
-5.823092937469482422e+00 -5.956541538238525391e+00 1.017701253294944763e-02
-5.836318969726562500e+00 -5.897243976593017578e+00 1.013669557869434357e-02
-5.791707992553710938e+00 -5.780788421630859375e+00 9.997419081628322601e-03
-5.856264591217041016e+00 -5.773927688598632812e+00 1.004750933498144150e-02
-5.893015861511230469e+00 -5.739281177520751953e+00 1.004995312541723251e-02
-6.020364284515380859e+00 -5.791755199432373047e+00 1.020633429288864136e-02
-6.062313079833984375e+00 -5.760906219482421875e+00 1.021733041852712631e-02
-6.093172073364257812e+00 -5.719493389129638672e+00 1.020999904721975327e-02
-6.197081089019775391e+00 -5.745910167694091797e+00 1.032484229654073715e-02
-6.256556987762451172e+00 -5.730065345764160156e+00 1.036515925079584122e-02
-6.319778442382812500e+00 -5.717060565948486328e+00 1.041158474981784821e-02
-6.261527538299560547e+00 -5.594888687133789062e+00 1.025886833667755127e-02
-6.281494140625000000e+00 -5.543790817260742188e+00 1.023565605282783508e-02
-6.392280101776123047e+00 -5.572167873382568359e+00 1.036027260124683380e-02
-6.439990520477294922e+00 -5.544584751129150391e+00 1.038226298987865448e-02
-6.489888191223144531e+00 -5.518568992614746094e+00 1.040791906416416168e-02
-2.713185548782348633e+00 -1.817283987998962402e+00 9.691962599754333496e-02
-6.540474891662597656e+00 -5.492792606353759766e+00 1.043479796499013901e-02
-2.705939769744873047e+00 -1.788476586341857910e+00 9.626696258783340454e-02
-6.561739444732666016e+00 -5.442343235015869141e+00 1.041525043547153473e-02
-2.666627883911132812e+00 -1.739078402519226074e+00 9.448698908090591431e-02
-6.627501010894775391e+00 -5.428592205047607422e+00 1.046656258404254913e-02
-2.731886386871337891e+00 -1.757840394973754883e+00 9.641530364751815796e-02
-6.844171047210693359e+00 -5.536246299743652344e+00 1.075489167124032974e-02
-2.758654356002807617e+00 -1.751223087310791016e+00 9.697895497083663940e-02
-6.770970344543457031e+00 -5.408641815185546875e+00 1.058751437813043594e-02
-6.543363094329833984e+00 -5.161381721496582031e+00 1.018190011382102966e-02
-2.715903520584106445e+00 -1.816401839256286621e+00 6.615882366895675659e-02
-6.592265605926513672e+00 -5.134653568267822266e+00 1.020877715200185776e-02
-2.730927228927612305e+00 -1.803665399551391602e+00 1.846965551376342773e-01
-2.705301761627197266e+00 -1.785384893417358398e+00 6.563246250152587891e-02
-6.890781402587890625e+00 -5.299554824829101562e+00 1.062050182372331619e-02
-2.723540544509887695e+00 -1.774882197380065918e+00 1.834569722414016724e-01
-2.721232652664184570e+00 -1.772025346755981445e+00 6.575392931699752808e-02
-6.951839447021484375e+00 -5.278944969177246094e+00 1.066448260098695755e-02
-2.701627731323242188e+00 -1.737078785896301270e+00 1.812595576047897339e-01
-2.720278501510620117e+00 -1.747728943824768066e+00 6.547050923109054565e-02
-6.963296890258789062e+00 -5.220593452453613281e+00 1.063271798193454742e-02
-2.707306385040283203e+00 -1.716017603874206543e+00 6.490366160869598389e-02
-6.996002674102783203e+00 -5.178364276885986328e+00 1.063393987715244293e-02
-2.716305255889892578e+00 -1.838169574737548828e+00 3.491989150643348694e-02
-7.055097103118896484e+00 -5.155400276184082031e+00 1.067547965794801712e-02
-2.724206686019897461e+00 -1.819246768951416016e+00 3.487730398774147034e-02
-7.129580020904541016e+00 -5.143020153045654297e+00 1.074023079127073288e-02
-2.738186120986938477e+00 -1.806443929672241211e+00 1.541250646114349365e-01
-2.708599567413330078e+00 -1.784890294075012207e+00 3.453662246465682983e-02
-6.791996479034423828e+00 -4.836416721343994141e+00 1.018678676337003708e-02
-2.734149932861328125e+00 -1.779799818992614746e+00 1.532802879810333252e-01
-2.714470386505126953e+00 -1.764966487884521484e+00 3.447274491190910339e-02
-7.048165798187255859e+00 -4.953936100006103516e+00 1.052520610392093658e-02
-2.722325801849365234e+00 -1.748415112495422363e+00 1.520131081342697144e-01
-2.699157953262329102e+00 -1.731539964675903320e+00 3.414271026849746704e-02
-7.307667255401611328e+00 -5.069627285003662109e+00 1.086606830358505249e-02
-2.698747396469116211e+00 -1.707993984222412109e+00 3.400430828332901001e-02
-7.129880905151367188e+00 -4.881760120391845703e+00 1.055697165429592133e-02
-2.702390909194946289e+00 -1.687166094779968262e+00 3.391913697123527527e-02
-2.697834014892578125e+00 -1.822968006134033203e+00 3.977953456342220306e-03
-2.718070507049560547e+00 -1.813820242881774902e+00 1.226765885949134827e-01
-2.683176994323730469e+00 -1.789181828498840332e+00 3.940079826861619949e-03
-2.729148864746093750e+00 -1.797108411788940430e+00 1.226765885949134827e-01
-2.698281764984130859e+00 -1.775432825088500977e+00 3.946188837289810181e-03
-2.740124225616455078e+00 -1.780328869819641113e+00 1.226765885949134827e-01
-2.699059963226318359e+00 -1.752308607101440430e+00 3.931527957320213318e-03
-2.754361629486083984e+00 -1.765639305114746094e+00 1.228266507387161255e-01
-2.701340436935424805e+00 -1.730320811271667480e+00 3.919310402125120163e-03
-2.731349706649780273e+00 -1.725999712944030762e+00 3.947410266846418381e-03
-7.450877666473388672e+00 -4.644644260406494141e+00 1.072679180651903152e-02
-7.740754127502441406e+00 -4.759641647338867188e+00 1.110186334699392319e-02
-7.759552478790283203e+00 -4.705832958221435547e+00 1.108720246702432632e-02
-7.881825447082519531e+00 -4.714081287384033203e+00 1.122036948800086975e-02
-7.649614334106445312e+00 -4.511701583862304688e+00 1.085018645972013474e-02
-7.667644977569580078e+00 -4.459149360656738281e+00 1.083674747496843338e-02
-7.969863414764404297e+00 -4.569696426391601562e+00 1.122403517365455627e-02
-7.988176822662353516e+00 -4.515295505523681641e+00 1.121059712022542953e-02
-7.863733768463134766e+00 -4.381505489349365234e+00 1.099801622331142426e-02
-8.049996376037597656e+00 -4.420778751373291016e+00 1.122036948800086975e-02
-1.399508190155029297e+01 -6.932763576507568359e+00 1.662846803665161133e-01
-7.903717041015625000e+00 -4.277535915374755859e+00 1.097968965768814087e-02
-1.432225704193115234e+01 -6.985721588134765625e+00 1.696595549583435059e-01
-8.123935699462890625e+00 -4.332483291625976562e+00 1.124847028404474258e-02
-1.409532928466796875e+01 -6.768291473388671875e+00 1.664763242006301880e-01
-8.202594757080078125e+00 -4.309997558593750000e+00 1.132055278867483139e-02
-1.478117942810058594e+01 -6.986340999603271484e+00 1.740671247243881226e-01
-8.116988182067871094e+00 -4.201663970947265625e+00 1.116661448031663895e-02
-1.427252388000488281e+01 -6.639093399047851562e+00 1.675941795110702515e-01
-8.131926536560058594e+00 -4.146328926086425781e+00 1.115195360034704208e-02
-1.361834526062011719e+01 -6.233438014984130859e+00 1.594603955745697021e-01
-7.545959472656250000e+00 -3.789397001266479492e+00 1.031628996133804321e-02
-1.494829940795898438e+01 -6.731560707092285156e+00 1.745462119579315186e-01
-8.106899261474609375e+00 -4.008990287780761719e+00 1.104932837188243866e-02
-8.441531181335449219e+00 -4.110201835632324219e+00 1.147082541137933731e-02
-1.473459339141845703e+01 -6.419018745422363281e+00 1.711180955171585083e-01
-8.527911186218261719e+00 -4.087720870971679688e+00 1.155390311032533646e-02
-1.471855354309082031e+01 -6.304864406585693359e+00 1.704793274402618408e-01
-8.626087188720703125e+00 -4.069880008697509766e+00 1.165286265313625336e-02
-1.471180534362792969e+01 -6.195418357849121094e+00 1.699576526880264282e-01
-8.668130874633789062e+00 -4.024876594543457031e+00 1.167607586830854416e-02
-8.545314788818359375e+00 -3.904291629791259766e+00 1.147815585136413574e-02
-8.649374961853027344e+00 -3.887863636016845703e+00 1.158566772937774658e-02
-8.655690193176269531e+00 -3.827035665512084961e+00 1.156245544552803040e-02
-8.621234893798828125e+00 -3.748731136322021484e+00 1.148548536002635956e-02
-8.905207633972167969e+00 -3.807409286499023438e+00 1.183245703577995300e-02
-8.923792839050292969e+00 -3.750758886337280273e+00 1.182634849101305008e-02
-8.564003944396972656e+00 -3.537863254547119141e+00 1.132055278867483139e-02
-8.965442657470703125e+00 -3.639463424682617188e+00 1.182146184146404266e-02
-1.454360008239746094e+01 -5.199578285217285156e+00 1.644428670406341553e-01
-8.963454246520996094e+00 -3.574752330780029297e+00 1.178969722241163254e-02
-8.951700210571289062e+00 -3.506555795669555664e+00 1.174571458250284195e-02
-9.163447380065917969e+00 -3.524802446365356445e+00 1.199494767934083939e-02
-9.226064682006835938e+00 -3.484054327011108398e+00 1.204870361834764481e-02
-8.941589355468750000e+00 -3.314082622528076172e+00 1.165041886270046234e-02
-9.167568206787109375e+00 -3.334004163742065430e+00 1.191797759383916855e-02
-9.285805702209472656e+00 -3.312634229660034180e+00 1.204503793269395828e-02
-9.306901931762695312e+00 -3.255925655364990234e+00 1.204625982791185379e-02
-9.333325386047363281e+00 -3.201029300689697266e+00 1.205481216311454773e-02
-9.340468406677246094e+00 -3.139558792114257812e+00 1.203892938792705536e-02
-9.182888984680175781e+00 -3.024009466171264648e+00 1.181168761104345322e-02
-9.461092948913574219e+00 -3.051405429840087891e+00 1.214522123336791992e-02
-9.508245468139648438e+00 -3.002328872680664062e+00 1.218187250196933746e-02
-9.566616058349609375e+00 -2.956331253051757812e+00 1.223318465054035187e-02
-9.619034767150878906e+00 -2.907993793487548828e+00 1.227716729044914246e-02
-9.678891181945800781e+00 -2.861391782760620117e+00 1.233092322945594788e-02
-9.899932861328125000e+00 -2.860803365707397461e+00 1.258992962539196014e-02
-9.694991111755371094e+00 -2.737238883972167969e+00 1.230771001428365707e-02
-9.742453575134277344e+00 -2.686205863952636719e+00 1.234680600464344025e-02
-9.658326148986816406e+00 -2.599348783493041992e+00 1.221974659711122513e-02
-9.785323143005371094e+00 -2.569242238998413086e+00 1.236024498939514160e-02
-9.828028678894042969e+00 -2.516096591949462891e+00 1.239445339888334274e-02
-9.885003089904785156e+00 -2.466154336929321289e+00 1.244698744267225266e-02
-9.941733360290527344e+00 -2.415607213973999023e+00 1.249952241778373718e-02
-1.026388549804687500e+01 -2.427284717559814453e+00 1.288558915257453918e-02
-9.987195014953613281e+00 -2.297235727310180664e+00 1.252029091119766235e-02
-9.964017868041992188e+00 -2.227621316909790039e+00 1.247386541217565536e-02
-1.022864723205566406e+01 -2.220973730087280273e+00 1.278785057365894318e-02
-1.003952980041503906e+01 -2.115489244461059570e+00 1.253495179116725922e-02
-1.014147949218750000e+01 -2.072064399719238281e+00 1.264613028615713120e-02
-1.017264080047607422e+01 -2.013487577438354492e+00 1.266934257000684738e-02
-1.028203582763671875e+01 -1.969657540321350098e+00 1.279029436409473419e-02
-1.053089714050292969e+01 -1.950420022010803223e+00 1.308473013341426849e-02
-1.067654228210449219e+01 -1.909713268280029297e+00 1.325088646262884140e-02
-1.074915599822998047e+01 -1.854709267616271973e+00 1.332663372159004211e-02
-1.074257755279541016e+01 -1.785767078399658203e+00 1.330464240163564682e-02
-1.074938297271728516e+01 -1.719186544418334961e+00 1.329975575208663940e-02
-1.047704601287841797e+01 -1.609763860702514648e+00 1.295034028589725494e-02
-1.097346973419189453e+01 -1.617179870605468750e+00 1.355143263936042786e-02
-1.119805717468261719e+01 -1.580137491226196289e+00 1.381654758006334305e-02
-7.521210193634033203e+00 -1.930501312017440796e-01 2.232978343963623047e-01
-1.141268444061279297e+01 -1.539062380790710449e+00 1.406944543123245239e-02
-7.451297760009765625e+00 -1.455115824937820435e-01 2.211915254592895508e-01
-1.087541389465332031e+01 -1.398719668388366699e+00 1.339627150446176529e-02
-9.429641723632812500e+00 -1.154003500938415527e+00 1.160643622279167175e-02
-1.116094970703125000e+01 -1.296424627304077148e+00 1.372736040502786636e-02
-1.130387973785400391e+01 -1.242780685424804688e+00 1.389351673424243927e-02
-7.497832775115966797e+00 -2.333365678787231445e-01 1.518940031528472900e-01
-1.126653289794921875e+01 -1.168754696846008301e+00 1.383853796869516373e-02
-7.485130786895751953e+00 -1.869768053293228149e-01 1.516105830669403076e-01
-1.031504058837890625e+01 -1.006116390228271484e+00 1.266201213002204895e-02
-7.466144561767578125e+00 -1.406687051057815552e-01 1.512057036161422729e-01
-1.142542171478271484e+01 -1.043690562248229980e+00 1.401691045612096786e-02
-1.114265632629394531e+01 -9.489572644233703613e-01 1.366260927170515060e-02
-1.132870674133300781e+01 -8.948215842247009277e-01 1.388374250382184982e-02
-1.114648151397705078e+01 -8.116399049758911133e-01 1.365405693650245667e-02
-7.483111858367919922e+00 -2.277310043573379517e-01 7.970891147851943970e-02
-1.133185005187988281e+01 -7.552679777145385742e-01 1.387519016861915588e-02
-7.469373226165771484e+00 -1.814469397068023682e-01 7.954920828342437744e-02
-1.131530952453613281e+01 -6.844549179077148438e-01 1.384953409433364868e-02
-7.459348678588867188e+00 -1.354126781225204468e-01 7.943210005760192871e-02
-1.091189765930175781e+01 -5.928773283958435059e-01 1.335106790065765381e-02
-1.149166107177734375e+01 -5.536802411079406738e-01 1.405600551515817642e-02
-1.142190647125244141e+01 -4.800926446914672852e-01 1.396681927144527435e-02
-1.138666248321533203e+01 -4.086373150348663330e-01 1.392039470374584198e-02
-7.499677658081054688e+00 -2.230765223503112793e-01 9.166642092168331146e-03
-7.496906757354736328e+00 -1.769607812166213989e-01 9.161755442619323730e-03
-7.482853412628173828e+00 -1.306953430175781250e-01 9.143428876996040344e-03
-1.156124973297119141e+01 -1.309746503829956055e-01 1.412564422935247421e-02
-1.156183624267578125e+01 -6.003369018435478210e-02 1.412564422935247421e-02
-1.154998683929443359e+01 1.089820824563503265e-02 1.411098334938287735e-02
-1.164370059967041016e+01 8.243285864591598511e-02 1.422582753002643585e-02
-1.161397743225097656e+01 1.534924656152725220e-01 1.419039722532033920e-02
-1.158782196044921875e+01 2.242678403854370117e-01 1.415985263884067535e-02
-1.175517272949218750e+01 2.996720671653747559e-01 1.436632592231035233e-02
-1.162517642974853516e+01 3.677476942539215088e-01 1.420994382351636887e-02
-1.177359390258789062e+01 4.447717964649200439e-01 1.439442578703165054e-02
-1.177463912963867188e+01 5.171803236007690430e-01 1.439931243658065796e-02
-1.177623748779296875e+01 5.896685123443603516e-01 1.440542098134756088e-02
-1.175542449951171875e+01 6.609606742858886719e-01 1.438465155661106110e-02
-1.179206848144531250e+01 7.356309294700622559e-01 1.443474274128675461e-02
-1.176239109039306641e+01 8.062622547149658203e-01 1.440420001745223999e-02
-1.175024223327636719e+01 8.778982162475585938e-01 1.439564768224954605e-02
-1.171772193908691406e+01 9.478029608726501465e-01 1.436266023665666580e-02
-1.172961807250976562e+01 1.021245002746582031e+00 1.438465155661106110e-02
-1.159170055389404297e+01 1.080941319465637207e+00 1.422338280826807022e-02
-1.175003528594970703e+01 1.168473124504089355e+00 1.442619040608406067e-02
-1.175358390808105469e+01 1.241703510284423828e+00 1.443962939083576202e-02
-1.172984313964843750e+01 1.312020301818847656e+00 1.442008186131715775e-02
-1.168979263305664062e+01 1.380216360092163086e+00 1.438098680227994919e-02
-1.180316448211669922e+01 1.467089295387268066e+00 1.453126035630702972e-02
-1.173543739318847656e+01 1.531847953796386719e+00 1.445917785167694092e-02
-1.191604518890380859e+01 1.629845380783081055e+00 1.469374913722276688e-02
-1.155439758300781250e+01 1.652665019035339355e+00 1.426003593951463699e-02
-1.188822364807128906e+01 1.774917244911193848e+00 1.468519680202007294e-02
-1.187513351440429688e+01 1.847521066665649414e+00 1.468275394290685654e-02
-1.172833347320556641e+01 1.898459553718566895e+00 1.451537664979696274e-02
-1.106918144226074219e+01 2.695561408996582031e+00 2.306853532791137695e-01
-1.171843624114990234e+01 1.970719218254089355e+00 1.451782044023275375e-02
-1.189428043365478516e+01 2.075416326522827148e+00 1.475117076188325882e-02
-1.191576385498046875e+01 2.154586791992187500e+00 1.479393057525157928e-02
-1.192296028137207031e+01 2.231523275375366211e+00 1.481958758085966110e-02
-1.196696853637695312e+01 2.315848827362060547e+00 1.489166915416717529e-02
-1.196037864685058594e+01 2.390801429748535156e+00 1.490144338458776474e-02
-1.101845455169677734e+01 2.691231012344360352e+00 1.207610666751861572e-01
-1.199445343017578125e+01 2.474245548248291016e+00 1.496253069490194321e-02
-1.220988273620605469e+01 2.596891641616821289e+00 1.525085885077714920e-02
-1.148356533050537109e+01 2.516159772872924805e+00 1.436266023665666580e-02
-1.206003570556640625e+01 2.720127582550048828e+00 1.510425098240375519e-02
-1.173432064056396484e+01 2.722432136535644531e+00 1.471696235239505768e-02
-1.104913520812988281e+01 2.635013818740844727e+00 1.387763302773237228e-02
-1.099779415130615234e+01 2.694194793701171875e+00 1.383365225046873093e-02
-1.100530052185058594e+01 2.767722606658935547e+00 1.386419497430324554e-02
-1.215005397796630859e+01 3.135007143020629883e+00 1.533027086406946182e-02
-1.310022449493408203e+01 3.466044664382934570e+00 1.655566692352294922e-02
-1.414326763153076172e+01 3.835021018981933594e+00 1.790323480963706970e-02
-1.395278072357177734e+01 3.875432014465332031e+00 1.769187487661838531e-02
-1.259655857086181641e+01 3.582134008407592773e+00 1.599977910518646240e-02
-1.319859504699707031e+01 3.929028987884521484e+00 1.682444661855697632e-02
-1.231419658660888672e+01 3.748162746429443359e+00 1.572611182928085327e-02
-1.270346641540527344e+01 3.951977014541625977e+00 1.625389978289604187e-02
-1.367774200439453125e+01 4.347293853759765625e+00 1.753427088260650635e-02
-1.377808952331542969e+01 4.566089630126953125e+00 1.773341372609138489e-02
-1.422819137573242188e+01 4.812344551086425781e+00 1.835038699209690094e-02
-1.475423145294189453e+01 5.091363430023193359e+00 1.906876638531684875e-02
-1.457839202880859375e+01 5.131002426147460938e+00 1.888184063136577606e-02
-1.474110794067382812e+01 6.228593349456787109e+00 1.955134794116020203e-02
-1.466035079956054688e+01 6.300762653350830078e+00 1.949515007436275482e-02
-1.232749176025390625e+01 6.690844058990478516e+00 1.493357568979263306e-01
-1.231303691864013672e+01 6.693957328796386719e+00 1.712254807353019714e-02
-1.230938339233398438e+01 6.790152549743652344e+00 1.717508397996425629e-02
-3.500275373458862305e+00 2.975348711013793945e+00 1.363460570573806763e-01
-3.480437994003295898e+00 2.995465993881225586e+00 1.362867355346679688e-01
-3.393415927886962891e+00 2.957007646560668945e+00 1.335871070623397827e-01
-5.754199028015136719e+00 4.837498664855957031e+00 1.522179245948791504e-01
-3.484587669372558594e+00 2.966140985488891602e+00 9.265878796577453613e-02
-3.463293075561523438e+00 2.984855651855468750e+00 9.257781505584716797e-02
-3.420807123184204102e+00 2.985014677047729492e+00 9.192999452352523804e-02
-5.708123207092285156e+00 4.805462360382080078e+00 7.944274693727493286e-02
-3.480782270431518555e+00 2.967029333114624023e+00 4.869621247053146362e-02
-3.443586349487304688e+00 2.971997976303100586e+00 4.843005537986755371e-02
-3.378600835800170898e+00 2.952277421951293945e+00 4.776998236775398254e-02
-5.726089000701904297e+00 4.767518043518066406e+00 9.103111922740936279e-03
-5.708196640014648438e+00 4.812231063842773438e+00 9.121438488364219666e-03
-3.391043901443481445e+00 2.930719614028930664e+00 5.475794896483421326e-03
-6.887500286102294922e-01 2.261399030685424805e+00 7.016066461801528931e-02
-6.617350578308105469e-01 2.221516370773315430e+00 6.879602372646331787e-02
-6.500480175018310547e-01 2.232252836227416992e+00 6.900369375944137573e-02
-6.379803419113159180e-01 2.241967678070068359e+00 6.918168067932128906e-02
-6.247472167015075684e-01 2.247766256332397461e+00 6.924101710319519043e-02
-6.062318086624145508e-01 2.234193325042724609e+00 6.870702654123306274e-02
