-3.692211210727691650e-02 -7.425588965415954590e-01 2.791173569858074188e-02
-4.028942808508872986e-02 -7.278946042060852051e-01 5.391883850097656250e-02
-7.879985868930816650e-02 -7.508335709571838379e-01 8.037962950766086578e-03
-8.674970269203186035e-02 -7.048985958099365234e-01 3.336873278021812439e-02
-1.167723536491394043e-01 -6.995383501052856445e-01 3.332180157303810120e-02
-2.197234630584716797e+00 -2.521512269973754883e+00 9.926325827836990356e-02
-2.207374572753906250e+00 -2.501986265182495117e+00 9.902592748403549194e-02
-2.231341361999511719e+00 -2.498086214065551758e+00 9.941158443689346313e-02
-2.238582134246826172e+00 -2.475451469421386719e+00 9.905559569597244263e-02
-2.259128808975219727e+00 -2.467567205429077148e+00 9.929291903972625732e-02
-2.236295938491821289e+00 -2.562780380249023438e+00 6.887157261371612549e-02
-2.271100759506225586e+00 -2.572463750839233398e+00 1.936553120613098145e-01
-2.235429763793945312e+00 -2.530278682708740234e+00 6.836546212434768677e-02
-5.321155071258544922e+00 -6.980037689208984375e+00 1.072312612086534500e-02
-2.270208358764648438e+00 -2.539870262145996094e+00 1.922466903924942017e-01
-2.235582590103149414e+00 -2.499375343322753906e+00 6.789983808994293213e-02
-2.243494272232055664e+00 -2.477458953857421875e+00 6.767715513706207275e-02
-2.238384485244750977e+00 -2.441537857055664062e+00 6.706982105970382690e-02
-2.242881536483764648e+00 -2.598775863647460938e+00 3.654877468943595886e-02
-2.251787424087524414e+00 -2.579681396484375000e+00 1.608832925558090210e-01
-2.235098600387573242e+00 -2.557857751846313477e+00 3.616550564765930176e-02
-2.267573595046997070e+00 -2.565816164016723633e+00 1.608832925558090210e-01
-2.252076387405395508e+00 -2.545593261718750000e+00 3.618679940700531006e-02
-2.265290737152099609e+00 -2.531754970550537109e+00 1.596161276102066040e-01
-2.264317512512207031e+00 -2.528002500534057617e+00 3.613356873393058777e-02
-2.263665437698364258e+00 -2.496283769607543945e+00 3.587805852293968201e-02
-2.265414953231811523e+00 -2.467615127563476562e+00 3.566513210535049438e-02
-5.965142726898193359e+00 -6.988297462463378906e+00 1.122525800019502640e-02
-2.230407238006591797e+00 -2.580734252929687500e+00 4.167322069406509399e-03
-2.229253768920898438e+00 -2.549428462982177734e+00 1.271409690380096436e-01
-2.241590499877929688e+00 -2.561732053756713867e+00 4.158769734203815460e-03
-2.246179580688476562e+00 -2.537198543548583984e+00 1.272159963846206665e-01
-2.255277633666992188e+00 -2.545684337615966797e+00 4.155104514211416245e-03
-2.263705968856811523e+00 -2.525600671768188477e+00 1.273285299539566040e-01
-6.735013961791992188e+00 -6.984062194824218750e+00 1.033011227846145630e-01
-2.255497932434082031e+00 -2.514676332473754883e+00 4.127004649490118027e-03
-2.259014368057250977e+00 -2.489462375640869141e+00 1.262030601501464844e-01
-6.808475971221923828e+00 -6.974088191986083984e+00 1.037695631384849548e-01
-2.264162778854370117e+00 -2.493386507034301758e+00 4.114787559956312180e-03
-6.822320938110351562e+00 -6.903021335601806641e+00 1.033330634236335754e-01
-2.290247678756713867e+00 -2.491225481033325195e+00 4.134335089474916458e-03
-6.860305309295654297e+00 -6.856789112091064453e+00 1.032691895961761475e-01
-5.884996414184570312e+00 -6.323112964630126953e+00 1.055330596864223480e-02
-6.938538551330566406e+00 -6.850395202636718750e+00 1.038121432065963745e-01
-5.829732894897460938e+00 -6.187173366546630859e+00 1.038592867553234100e-02
-6.973282337188720703e+00 -6.800710201263427734e+00 1.037056818604469299e-01
-5.931777954101562500e+00 -6.218581199645996094e+00 1.049955002963542938e-02
-7.017040252685546875e+00 -6.759876251220703125e+00 1.037376224994659424e-01
-5.978852748870849609e+00 -6.191418647766113281e+00 1.051543187350034714e-02
-7.085912704467773438e+00 -6.742887496948242188e+00 1.041421815752983093e-01
-5.818898677825927734e+00 -5.952251434326171875e+00 1.016968209296464920e-02
-7.133709907531738281e+00 -6.705445766448974609e+00 1.042379960417747498e-01
-6.438451290130615234e+00 -6.505662441253662109e+00 1.118249725550413132e-02
-7.191573619842529297e+00 -6.677196502685546875e+00 1.044828593730926514e-01
-6.675716400146484375e+00 -6.663130283355712891e+00 1.152335945516824722e-02
-7.249359130859375000e+00 -6.648489475250244141e+00 1.047277376055717468e-01
-6.596843719482421875e+00 -6.504094123840332031e+00 1.131810899823904037e-02
-7.320400714874267578e+00 -6.631407260894775391e+00 1.051642298698425293e-01
-6.445351600646972656e+00 -6.277207851409912109e+00 1.099190674722194672e-02
-7.367659091949462891e+00 -6.592366218566894531e+00 1.052600443363189697e-01
-6.483025550842285156e+00 -6.236848354339599609e+00 1.099068485200405121e-02
-7.418459892272949219e+00 -6.556305408477783203e+00 1.054090857505798340e-01
-6.750964641571044922e+00 -6.415319442749023438e+00 1.137797348201274872e-02
-7.454029560089111328e+00 -6.506718158721923828e+00 1.053452193737030029e-01
-6.658961296081542969e+00 -6.250584125518798828e+00 1.115806214511394501e-02
-7.517291069030761719e+00 -6.481099605560302734e+00 1.056752502918243408e-01
-6.773451805114746094e+00 -6.280318737030029297e+00 1.128512248396873474e-02
-7.565291404724121094e+00 -6.441983222961425781e+00 1.057923585176467896e-01
-6.845782279968261719e+00 -6.269707202911376953e+00 1.134132128208875656e-02
-7.624573707580566406e+00 -6.412176132202148438e+00 1.060691624879837036e-01
-6.581557273864746094e+00 -5.953873634338378906e+00 1.084285508841276169e-02
-7.669158935546875000e+00 -6.369743824005126953e+00 1.061436831951141357e-01
-6.610509395599365234e+00 -5.906715393066406250e+00 1.083063893020153046e-02
-7.724334239959716797e+00 -6.335884094238281250e+00 1.063672602176666260e-01
-6.589645862579345703e+00 -5.815752983093261719e+00 1.073778700083494186e-02
-7.835327148437500000e+00 -6.346904277801513672e+00 1.073573678731918335e-01
-6.638021469116210938e+00 -5.786381244659423828e+00 1.075855642557144165e-02
-7.855382919311523438e+00 -6.283717155456542969e+00 1.071018576622009277e-01
-7.162955284118652344e+00 -6.167029380798339844e+00 1.154779456555843353e-02
-7.900853157043457031e+00 -6.240977287292480469e+00 1.071976721286773682e-01
-6.526455879211425781e+00 -5.549663066864013672e+00 1.046656258404254913e-02
-7.950825214385986328e+00 -6.201606273651123047e+00 1.073573678731918335e-01
-6.564979076385498047e+00 -5.513371467590332031e+00 1.047389302402734756e-02
-8.007740974426269531e+00 -6.167347431182861328e+00 1.076128855347633362e-01
-7.319129943847656250e+00 -6.070527076721191406e+00 1.161743327975273132e-02
-8.062147140502929688e+00 -6.130807876586914062e+00 1.078364551067352295e-01
-7.351598262786865234e+00 -6.021700859069824219e+00 1.161010190844535828e-02
-8.096415519714355469e+00 -6.078822612762451172e+00 1.077938750386238098e-01
-7.142724037170410156e+00 -5.777745246887207031e+00 1.122403517365455627e-02
-8.199433326721191406e+00 -6.077857017517089844e+00 1.086668670177459717e-01
-6.944425106048583984e+00 -5.547197341918945312e+00 1.085873879492282867e-02
-8.255131721496582031e+00 -6.041013717651367188e+00 1.089117303490638733e-01
-6.563776969909667969e+00 -5.177483558654785156e+00 1.021366473287343979e-02
-8.317980766296386719e+00 -6.008985042572021484e+00 1.092524081468582153e-01
-7.021441936492919922e+00 -5.468934535980224609e+00 1.087339967489242554e-02
-8.376677513122558594e+00 -5.973509311676025391e+00 1.095398589968681335e-01
-7.667609214782714844e+00 -5.896996498107910156e+00 1.181779615581035614e-02
-8.419713973999023438e+00 -5.926603317260742188e+00 1.096250340342521667e-01
-7.558701992034912109e+00 -5.739771366119384766e+00 1.159544102847576141e-02
-8.487946510314941406e+00 -5.897079944610595703e+00 1.100402399897575378e-01
-7.409754753112792969e+00 -5.555316448211669922e+00 1.131444424390792847e-02
-8.566029548645019531e+00 -5.873727798461914062e+00 1.105831936001777649e-01
-7.550602912902832031e+00 -5.588872909545898438e+00 1.147693302482366562e-02
-8.621784210205078125e+00 -5.834506988525390625e+00 1.108387112617492676e-01
-7.680027008056640625e+00 -5.612058162689208984e+00 1.162109710276126862e-02
-8.689022064208984375e+00 -5.802597522735595703e+00 1.112432703375816345e-01
-6.575661182403564453e+00 -4.743443489074707031e+00 9.905789047479629517e-03
-8.738656997680664062e+00 -5.758526802062988281e+00 1.114242598414421082e-01
-6.868567466735839844e+00 -4.890941143035888672e+00 1.030162908136844635e-02
-8.783885955810546875e+00 -5.711340427398681641e+00 1.115520149469375610e-01
-7.477682590484619141e+00 -5.255829811096191406e+00 1.116661448031663895e-02
-8.830547332763671875e+00 -5.664894580841064453e+00 1.117010638117790222e-01
-6.956826686859130859e+00 -4.826234817504882812e+00 1.034438982605934143e-02
-8.883728981018066406e+00 -5.622369766235351562e+00 1.119352877140045166e-01
-7.561419486999511719e+00 -5.177230358123779297e+00 1.119593624025583267e-02
-8.942657470703125000e+00 -5.583110809326171875e+00 1.122440174221992493e-01
-7.324586391448974609e+00 -4.949335575103759766e+00 1.080009527504444122e-02
-9.049970626831054688e+00 -5.573228359222412109e+00 1.131596043705940247e-01
-7.653502464294433594e+00 -5.103467464447021484e+00 1.123869605362415314e-02
-9.108781814575195312e+00 -5.532648086547851562e+00 1.134683564305305481e-01
-8.154992103576660156e+00 -5.365874290466308594e+00 1.192652992904186249e-02
-9.163145065307617188e+00 -5.488985538482666016e+00 1.137238591909408569e-01
-8.139116287231445312e+00 -5.284152507781982422e+00 1.185567025095224380e-02
-9.221620559692382812e+00 -5.447407245635986328e+00 1.140326038002967834e-01
-8.132651329040527344e+00 -5.209300994873046875e+00 1.179946959018707275e-02
-9.343868255615234375e+00 -5.442560672760009766e+00 1.151291653513908386e-01
-8.139101028442382812e+00 -5.143275737762451172e+00 1.176281832158565521e-02
-1.290455913543701172e+01 -6.232230186462402344e+00 4.223184108734130859e+00
-9.388360977172851562e+00 -5.391599178314208984e+00 1.152675747871398926e-01
-7.930346965789794922e+00 -4.943530559539794922e+00 1.141706854104995728e-02
-1.293822479248046875e+01 -6.150872707366943359e+00 4.221770763397216797e+00
-9.461293220520019531e+00 -5.356553077697753906e+00 1.157573014497756958e-01
-7.507347106933593750e+00 -4.616124153137207031e+00 1.076710876077413559e-02
-1.297659111022949219e+01 -6.071776390075683594e+00 4.222053527832031250e+00
-9.506206512451171875e+00 -5.305221080780029297e+00 1.159063503146171570e-01
-7.674902915954589844e+00 -4.654496669769287109e+00 1.096625067293643951e-02
-1.343443584442138672e+01 -6.185809612274169922e+00 4.358586311340332031e+00
-9.615680694580078125e+00 -5.289202213287353516e+00 1.168432235717773438e-01
-7.741078853607177734e+00 -4.629901409149169922e+00 1.102000661194324493e-02
-1.342932510375976562e+01 -6.083865642547607422e+00 4.344735145568847656e+00
-1.316503906250000000e+01 -5.966905593872070312e+00 3.670884370803833008e+00
-9.670809745788574219e+00 -5.242492198944091797e+00 1.171200275421142578e-01
-8.139720916748046875e+00 -4.800763607025146484e+00 1.154535077512264252e-02
-1.345764064788818359e+01 -5.997445583343505859e+00 4.341907978057861328e+00
-1.318900966644287109e+01 -5.880488395690917969e+00 3.667438268661499023e+00
-9.743367195129394531e+00 -5.204727649688720703e+00 1.176097691059112549e-01
-7.939945697784423828e+00 -4.617506980895996094e+00 1.122159231454133987e-02
-1.323638248443603516e+01 -5.804511547088623047e+00 3.670638084411621094e+00
-9.796355247497558594e+00 -5.156022548675537109e+00 1.178652718663215637e-01
-7.782480716705322266e+00 -4.462255954742431641e+00 1.096014212816953659e-02
-1.298501491546630859e+01 -6.187189102172851562e+00 4.075611114501953125e+00
-1.337944030761718750e+01 -5.769625186920166016e+00 3.700422763824462891e+00
-9.867754936218261719e+00 -5.116528987884521484e+00 1.183443516492843628e-01
-7.956836700439453125e+00 -4.497580528259277344e+00 1.116661448031663895e-02
-1.301315212249755859e+01 -6.102904796600341797e+00 4.072612285614013672e+00
-1.336892795562744141e+01 -5.670814990997314453e+00 3.118533849716186523e+00
-9.971986770629882812e+00 -5.093181610107421875e+00 1.192173585295677185e-01
-8.001754760742187500e+00 -4.458408355712890625e+00 1.119104959070682526e-02
-1.307568740844726562e+01 -6.034634113311767578e+00 4.080518245697021484e+00
-1.332135295867919922e+01 -5.554438114166259766e+00 3.099427700042724609e+00
-1.005843353271484375e+01 -5.059758663177490234e+00 1.198774203658103943e-01
-8.234943389892578125e+00 -4.522345066070556641e+00 1.147815585136413574e-02
-1.281148052215576172e+01 -5.244578361511230469e+00 4.079584598541259766e+00
-1.343134593963623047e+01 -6.099089622497558594e+00 4.179750442504882812e+00
-1.336694431304931641e+01 -5.477414608001708984e+00 3.102157115936279297e+00
-1.010721111297607422e+01 -5.006823539733886719e+00 1.200903505086898804e-01
-8.104233741760253906e+00 -4.386056900024414062e+00 1.125824358314275742e-02
-1.285676860809326172e+01 -5.171238899230957031e+00 4.083824634552001953e+00
-1.345621776580810547e+01 -6.011067390441894531e+00 4.175933837890625000e+00
-1.317486476898193359e+01 -5.879868030548095703e+00 3.509019136428833008e+00
-1.339576625823974609e+01 -5.393467426300048828e+00 3.101107358932495117e+00
-1.019256496429443359e+01 -4.971452236175537109e+00 1.207397803664207458e-01
-8.223642349243164062e+00 -4.385656833648681641e+00 1.138652581721544266e-02
-1.293107795715332031e+01 -5.109172821044921875e+00 4.097393035888671875e+00
-1.347611141204833984e+01 -5.921035289764404297e+00 4.170753955841064453e+00
-1.304626655578613281e+01 -5.157317638397216797e+00 3.562823057174682617e+00
-1.322760009765625000e+01 -5.806338310241699219e+00 3.513509511947631836e+00
-1.343133544921875000e+01 -5.312250137329101562e+00 3.101737260818481445e+00
-1.342728900909423828e+01 -5.307939529418945312e+00 2.551069736480712891e+00
-1.326478004455566406e+01 -5.227643489837646484e+00 4.231593310832977295e-01
-1.031842613220214844e+01 -4.954699516296386719e+00 1.218682825565338135e-01
-8.018465995788574219e+00 -4.213248252868652344e+00 1.106643304228782654e-02
-1.298632812500000000e+01 -5.039102077484130859e+00 4.105025291442871094e+00
-1.307495498657226562e+01 -5.076117515563964844e+00 3.562084436416625977e+00
-1.324959564208984375e+01 -5.719289302825927734e+00 3.509964466094970703e+00
-1.327867031097412109e+01 -5.157873630523681641e+00 3.059115409851074219e+00
-1.342655658721923828e+01 -5.212620735168457031e+00 2.544806003570556641e+00
-1.339333057403564453e+01 -5.197031497955322266e+00 2.001155853271484375e+00
-1.333809661865234375e+01 -5.170242786407470703e+00 1.465673804283142090e+00
-1.330441570281982422e+01 -5.151845932006835938e+00 9.401141405105590820e-01
-1.327237033843994141e+01 -5.136773586273193359e+00 4.223880171775817871e-01
-1.035044193267822266e+01 -4.892148017883300781e+00 1.218895763158798218e-01
-7.648974418640136719e+00 -3.959401845932006836e+00 1.052276324480772018e-02
-1.304549121856689453e+01 -6.123800754547119141e+00 3.931675672531127930e+00
-1.312125205993652344e+01 -5.001664638519287109e+00 3.566269159317016602e+00
-1.333542346954345703e+01 -5.659521102905273438e+00 3.523435354232788086e+00
-1.326621818542480469e+01 -5.059576511383056641e+00 3.049037218093872070e+00
-1.335983180999755859e+01 -5.092608451843261719e+00 2.526189088821411133e+00
-1.337035942077636719e+01 -5.093949317932128906e+00 1.993015885353088379e+00
-1.334818458557128906e+01 -5.080165863037109375e+00 1.463329434394836426e+00
-1.328447818756103516e+01 -5.050611972808837891e+00 9.364978671073913574e-01
-1.325598526000976562e+01 -5.037131309509277344e+00 4.208750128746032715e-01
-1.053711605072021484e+01 -4.901508331298828125e+00 1.237313896417617798e-01
-7.649070739746093750e+00 -3.900129318237304688e+00 1.048977579921483994e-02
-1.366801166534423828e+01 -5.111534595489501953e+00 4.300354480743408203e+00
-1.305917358398437500e+01 -6.032716274261474609e+00 3.924569368362426758e+00
-1.340314483642578125e+01 -5.015146732330322266e+00 3.634453535079956055e+00
-1.330433940887451172e+01 -4.980823516845703125e+00 3.050716876983642578e+00
-1.340203666687011719e+01 -5.585505962371826172e+00 2.969839096069335938e+00
-1.338898277282714844e+01 -5.009848117828369141e+00 2.525840997695922852e+00
-1.336332798004150391e+01 -4.997590065002441406e+00 1.987359404563903809e+00
-1.334835243225097656e+01 -4.986679077148437500e+00 1.459965944290161133e+00
-1.330119514465332031e+01 -4.963771343231201172e+00 9.355115890502929688e-01
-1.326041984558105469e+01 -4.945918560028076172e+00 4.200443625450134277e-01
-1.069519233703613281e+01 -4.895442008972167969e+00 1.252325177192687988e-01
-8.444075584411621094e+00 -4.240408897399902344e+00 1.154412887990474701e-02
-1.332541561126708984e+01 -4.890424251556396484e+00 4.183043956756591797e+00
-1.311087512969970703e+01 -5.959259510040283203e+00 3.929043769836425781e+00
-1.343184471130371094e+01 -4.932144165039062500e+00 3.633961200714111328e+00
-1.339797401428222656e+01 -4.922360897064208984e+00 3.065204143524169922e+00
-1.337984657287597656e+01 -5.480144500732421875e+00 2.957414627075195312e+00
-1.341392421722412109e+01 -4.925563812255859375e+00 2.524796962738037109e+00
-1.338165473937988281e+01 -4.911064147949218750e+00 1.985565900802612305e+00
-1.339924716949462891e+01 -4.912214279174804688e+00 1.462208271026611328e+00
-1.335388946533203125e+01 -4.890298843383789062e+00 9.370896220207214355e-01
-1.332055568695068359e+01 -4.875454902648925781e+00 4.209936857223510742e-01
-1.075147056579589844e+01 -4.841632366180419922e+00 1.255412697792053223e-01
-8.260180473327636719e+00 -4.084790229797363281e+00 1.125824358314275742e-02
-1.334614753723144531e+01 -4.805319786071777344e+00 4.180217266082763672e+00
-1.289650535583496094e+01 -5.200465202331542969e+00 3.940120935440063477e+00
-1.341668987274169922e+01 -5.999204635620117188e+00 4.009582996368408203e+00
-1.346823787689208984e+01 -4.851934432983398438e+00 3.635684251785278320e+00
-1.346103668212890625e+01 -4.851994514465332031e+00 3.072762727737426758e+00
-1.338322734832763672e+01 -5.385874271392822266e+00 2.950801610946655273e+00
-1.345408535003662109e+01 -4.846836090087890625e+00 2.526710748672485352e+00
-1.342644596099853516e+01 -4.834231853485107422e+00 1.987773299217224121e+00
-1.345534610748291016e+01 -4.839332103729248047e+00 1.465062141418457031e+00
-1.345031833648681641e+01 -4.832222461700439453e+00 9.417579770088195801e-01
-1.338690948486328125e+01 -4.806803703308105469e+00 4.221506714820861816e-01
-1.065937900543212891e+01 -4.721708774566650391e+00 1.241253018379211426e-01
-8.333640098571777344e+00 -4.057669162750244141e+00 1.132421661168336868e-02
-1.336814498901367188e+01 -4.720783710479736328e+00 4.177956104278564453e+00
-1.293085479736328125e+01 -5.122298240661621094e+00 3.940938472747802734e+00
-1.343028736114501953e+01 -5.906670093536376953e+00 4.002739906311035156e+00
-1.361929988861083984e+01 -4.812149047851562500e+00 3.668422698974609375e+00
-1.308811855316162109e+01 -5.179310321807861328e+00 3.423468112945556641e+00
-1.328265285491943359e+01 -5.833442211151123047e+00 3.381262302398681641e+00
-1.355047225952148438e+01 -4.790490627288818359e+00 3.086410045623779297e+00
-1.337866783142089844e+01 -5.288887500762939453e+00 2.942585706710815430e+00
-1.353278160095214844e+01 -4.781579494476318359e+00 2.535932540893554688e+00
-1.357539653778076172e+01 -4.793971538543701172e+00 2.005432367324829102e+00
-1.351480770111083984e+01 -4.767270565032958984e+00 1.468323826789855957e+00
-1.350230216979980469e+01 -4.757560253143310547e+00 9.433360099792480469e-01
-1.343217945098876953e+01 -4.730216979980468750e+00 4.226549863815307617e-01
-1.326218795776367188e+01 -5.216094970703125000e+00 2.885642051696777344e-01
-1.070373439788818359e+01 -4.663004398345947266e+00 1.243062913417816162e-01
-7.895779609680175781e+00 -3.784718275070190430e+00 1.069747004657983780e-02
-1.340773677825927734e+01 -4.642435550689697266e+00 4.181348323822021484e+00
-1.297190475463867188e+01 -5.046697139739990234e+00 3.943937540054321289e+00
-1.343617057800292969e+01 -5.811131477355957031e+00 3.993790864944458008e+00
-1.379785060882568359e+01 -4.780209541320800781e+00 3.708545684814453125e+00
-1.310697174072265625e+01 -5.093977928161621094e+00 3.420159578323364258e+00
-1.326365756988525391e+01 -5.728277206420898438e+00 3.367415904998779297e+00
-1.367845630645751953e+01 -4.741519927978515625e+00 3.108875989913940430e+00
-1.330309867858886719e+01 -5.164857387542724609e+00 2.918939113616943359e+00
-1.363165283203125000e+01 -4.722631454467773438e+00 2.548981904983520508e+00
-1.340764331817626953e+01 -5.200061321258544922e+00 2.396190166473388672e+00
-1.334855556488037109e+01 -5.171784877777099609e+00 1.854167580604553223e+00
-1.333724880218505859e+01 -5.162050724029541016e+00 1.329214930534362793e+00
-1.330169105529785156e+01 -5.142950534820556641e+00 8.048217296600341797e-01
-1.346284008026123047e+01 -4.648362159729003906e+00 4.227143228054046631e-01
-1.323891735076904297e+01 -5.113368034362792969e+00 2.873697876930236816e-01
-1.072754859924316406e+01 -4.595271110534667969e+00 1.242530569434165955e-01
-8.274279594421386719e+00 -3.903892993927001953e+00 1.117760967463254929e-02
-1.360128593444824219e+01 -4.616187095642089844e+00 4.232795238494873047e+00
-1.360480880737304688e+01 -5.197041511535644531e+00 4.126590251922607422e+00
-1.384619426727294922e+01 -4.702002525329589844e+00 3.713714838027954102e+00
-1.314615154266357422e+01 -5.016576766967773438e+00 3.422286510467529297e+00
-1.329945182800292969e+01 -5.647165775299072266e+00 3.367642641067504883e+00
-1.330158233642578125e+01 -5.070570945739746094e+00 2.911725044250488281e+00
-1.337569141387939453e+01 -5.093474388122558594e+00 2.384849309921264648e+00
-1.334852313995361328e+01 -5.077794075012207031e+00 1.849800348281860352e+00
-1.331654930114746094e+01 -5.060310840606689453e+00 1.324032425880432129e+00
-1.329472732543945312e+01 -5.046708583831787109e+00 8.025116324424743652e-01
-1.325882530212402344e+01 -5.027785301208496094e+00 2.871268391609191895e-01
-1.086152172088623047e+01 -4.573991298675537109e+00 1.254773736000061035e-01
-8.313496589660644531e+00 -3.860209226608276367e+00 1.119837909936904907e-02
-1.386509609222412109e+01 -4.611043453216552734e+00 4.306008338928222656e+00
-1.362563037872314453e+01 -5.109412670135498047e+00 4.123318672180175781e+00
-1.389777565002441406e+01 -4.624605655670166016e+00 3.719868659973144531e+00
-1.329770565032958984e+01 -4.981151580810546875e+00 3.453718185424804688e+00
-1.335182666778564453e+01 -5.572958469390869141e+00 3.372182607650756836e+00
-1.334620857238769531e+01 -4.994008541107177734e+00 2.914731025695800781e+00
-1.338728904724121094e+01 -5.004054069519042969e+00 2.381397724151611328e+00
-1.335898876190185547e+01 -4.988161563873291016e+00 1.846974492073059082e+00
-1.328577423095703125e+01 -4.955540180206298828e+00 1.317924499511718750e+00
-1.328614807128906250e+01 -4.950397491455078125e+00 8.001451492309570312e-01
-1.328661441802978516e+01 -4.945289611816406250e+00 2.870661020278930664e-01
-1.100764560699462891e+01 -4.556210517883300781e+00 1.268401145935058594e-01
-8.095992088317871094e+00 -3.698999166488647461e+00 1.087462063878774643e-02
-1.393052196502685547e+01 -4.538064002990722656e+00 4.317598342895507812e+00
-1.339397335052490234e+01 -4.929018020629882812e+00 4.043987274169921875e+00
-1.314581489562988281e+01 -5.978082180023193359e+00 3.796675920486450195e+00
-1.345387554168701172e+01 -4.945730686187744141e+00 3.486331701278686523e+00
-1.333621311187744141e+01 -5.470599651336669922e+00 3.359698057174682617e+00
-1.340418910980224609e+01 -4.922154903411865234e+00 2.920742750167846680e+00
-1.340503501892089844e+01 -5.487900733947753906e+00 2.820824861526489258e+00
-1.341774177551269531e+01 -4.921816825866699219e+00 2.381397724151611328e+00
-1.338841247558593750e+01 -4.905757427215576172e+00 1.846845984458923340e+00
-1.340288925170898438e+01 -4.905755996704101562e+00 1.326531052589416504e+00
-1.335753250122070312e+01 -4.883867740631103516e+00 8.026242852210998535e-01
-1.331389045715332031e+01 -4.862642765045166016e+00 2.870053946971893311e-01
-1.105114173889160156e+01 -4.494987964630126953e+00 1.270211040973663330e-01
-9.365366935729980469e+00 -4.209699630737304688e+00 1.254472602158784866e-02
-1.395627593994140625e+01 -4.451919078826904297e+00 4.317032814025878906e+00
-1.337690734863281250e+01 -4.829751014709472656e+00 4.029811382293701172e+00
-1.293151569366455078e+01 -5.219995498657226562e+00 3.804550409317016602e+00
-1.316724014282226562e+01 -5.890594482421875000e+00 3.792353391647338867e+00
-1.383344554901123047e+01 -4.415397644042968750e+00 3.687868833541870117e+00
-1.350316333770751953e+01 -4.870008945465087891e+00 3.491294622421264648e+00
-1.346732139587402344e+01 -4.851770401000976562e+00 2.927956819534301758e+00
-1.342479610443115234e+01 -5.400050640106201172e+00 2.817957639694213867e+00
-1.344861698150634766e+01 -4.839728832244873047e+00 2.381562232971191406e+00
-1.343972778320312500e+01 -4.831231117248535156e+00 1.849800348281860352e+00
-1.345804119110107422e+01 -4.832510471343994141e+00 1.329029798507690430e+00
-1.343705654144287109e+01 -4.819680690765380859e+00 8.056105375289916992e-01
-1.332841682434082031e+01 -4.775463104248046875e+00 2.866814732551574707e-01
-1.107201385498046875e+01 -4.424497604370117188e+00 1.269465833902359009e-01
-7.811522483825683594e+00 -3.453794479370117188e+00 1.043479796499013901e-02
-1.367201995849609375e+01 -4.268996715545654297e+00 4.220922946929931641e+00
-1.344256782531738281e+01 -4.760427951812744141e+00 4.040716171264648438e+00
-1.296868133544921875e+01 -5.142684459686279297e+00 3.806129455566406250e+00
-1.341647529602050781e+01 -5.903565406799316406e+00 3.853631019592285156e+00
-1.386767959594726562e+01 -4.332746505737304688e+00 3.689837932586669922e+00
-1.357676219940185547e+01 -4.802617549896240234e+00 3.502638578414916992e+00
-1.312344741821289062e+01 -5.196105957031250000e+00 3.289784669876098633e+00
-1.355041503906250000e+01 -4.787976264953613281e+00 2.939579725265502930e+00
-1.340107822418212891e+01 -5.295212268829345703e+00 2.806106090545654297e+00
-1.359247016906738281e+01 -4.797500133514404297e+00 2.401778221130371094e+00
-1.354394149780273438e+01 -4.775055408477783203e+00 1.860076308250427246e+00
-1.355224132537841797e+01 -4.772664070129394531e+00 1.335415363311767578e+00
-1.352477073669433594e+01 -4.757683277130126953e+00 8.091039061546325684e-01
-1.331249809265136719e+01 -5.233366966247558594e+00 6.720678806304931641e-01
-1.341406345367431641e+01 -4.713478088378906250e+00 2.878961563110351562e-01
-1.120413494110107422e+01 -4.397762298583984375e+00 1.281496137380599976e-01
-7.808723926544189453e+00 -3.395431041717529297e+00 1.040303241461515427e-02
-1.394013881683349609e+01 -4.259018421173095703e+00 4.295549392700195312e+00
-1.299999237060546875e+01 -5.063013553619384766e+00 3.806129455566406250e+00
-1.346576023101806641e+01 -5.826893329620361328e+00 3.857444763183593750e+00
-1.374092292785644531e+01 -4.766028404235839844e+00 3.537378787994384766e+00
-1.317142105102539062e+01 -5.121837615966796875e+00 3.293870449066162109e+00
-1.334049034118652344e+01 -5.758870124816894531e+00 3.247934818267822266e+00
-1.365915107727050781e+01 -4.732325077056884766e+00 2.956813573837280273e+00
-1.335370540618896484e+01 -5.181991100311279297e+00 2.789475917816162109e+00
-1.363283729553222656e+01 -4.717878818511962891e+00 2.403750658035278320e+00
-1.340133571624755859e+01 -5.197783470153808594e+00 2.256053924560546875e+00
-1.336292648315429688e+01 -5.169475078582763672e+00 1.721191883087158203e+00
-1.331473445892333984e+01 -5.145489215850830078e+00 1.191127538681030273e+00
-1.328378772735595703e+01 -5.128201484680175781e+00 6.690173149108886719e-01
-1.348337936401367188e+01 -4.645085334777832031e+00 2.887666523456573486e-01
-1.126543045043945312e+01 -4.342238903045654297e+00 1.285435110330581665e-01
-8.999914169311523438e+00 -3.847900867462158203e+00 1.195829547941684723e-02
-1.416728305816650391e+01 -4.233549118041992188e+00 4.357455253601074219e+00
-1.391803455352783203e+01 -4.737407684326171875e+00 4.165846824645996094e+00
-1.353723239898681641e+01 -5.176812648773193359e+00 3.954047679901123047e+00
-1.385362434387207031e+01 -4.710088729858398438e+00 3.558884859085083008e+00
-1.321351814270019531e+01 -5.045091629028320312e+00 3.296594381332397461e+00
-1.328394317626953125e+01 -5.638015270233154297e+00 3.225684165954589844e+00
-1.333388519287109375e+01 -5.080386161804199219e+00 2.778771400451660156e+00
-1.334249973297119141e+01 -5.081001758575439453e+00 2.240858316421508789e+00
-1.334705829620361328e+01 -5.069405555725097656e+00 1.715109229087829590e+00
-1.329574203491210938e+01 -5.044604778289794922e+00 1.186637163162231445e+00
-1.326736640930175781e+01 -5.028541564941406250e+00 6.666237115859985352e-01
-1.132740020751953125e+01 -4.286481857299804688e+00 1.289480775594711304e-01
-7.905116081237792969e+00 -3.322598934173583984e+00 1.047633681446313858e-02
-1.382930564880371094e+01 -4.040287494659423828e+00 4.245798110961914062e+00
-1.394318962097167969e+01 -4.650701045989990234e+00 4.164756298065185547e+00
-1.356512928009033203e+01 -5.092296123504638672e+00 3.952995061874389648e+00
-1.325516891479492188e+01 -4.968021392822265625e+00 3.299318313598632812e+00
-1.330747890472412109e+01 -5.551890850067138672e+00 3.223066568374633789e+00
-1.334825897216796875e+01 -4.992286205291748047e+00 2.775330781936645508e+00
-1.336509704589843750e+01 -4.995924949645996094e+00 2.239462852478027344e+00
-1.336860847473144531e+01 -4.983945369720458984e+00 1.713916420936584473e+00
-1.332364463806152344e+01 -4.961885929107666016e+00 1.186387777328491211e+00
-1.328954505920410156e+01 -4.943905353546142578e+00 6.662013530731201172e-01
-1.145378780364990234e+01 -4.254150867462158203e+00 1.300872415304183960e-01
-9.434637069702148438e+00 -3.897529125213623047e+00 1.247142162173986435e-02
-1.382616519927978516e+01 -3.947456598281860352e+00 4.237318038940429688e+00
-1.391659069061279297e+01 -4.547131061553955078e+00 4.148399353027343750e+00
-1.338428878784179688e+01 -4.930925369262695312e+00 3.891406297683715820e+00
-1.345541191101074219e+01 -4.949128150939941406e+00 3.341538667678833008e+00
-1.336206150054931641e+01 -5.478648662567138672e+00 3.228083848953247070e+00
-1.339706802368164062e+01 -4.917052745819091797e+00 2.779153823852539062e+00
-1.341868591308593750e+01 -4.922329425811767578e+00 2.243339300155639648e+00
-1.340080261230468750e+01 -4.902505874633789062e+00 1.714154958724975586e+00
-1.338191890716552734e+01 -4.890301227569580078e+00 1.188882350921630859e+00
-1.333370590209960938e+01 -4.867407321929931641e+00 6.669053435325622559e-01
-1.154262065887451172e+01 -4.206732273101806641e+00 1.308005303144454956e-01
-8.388192176818847656e+00 -3.405132293701171875e+00 1.106032356619834900e-02
-1.392219448089599609e+01 -3.882645130157470703e+00 4.259366989135742188e+00
-1.398088359832763672e+01 -4.473382949829101562e+00 4.159304141998291016e+00
-1.343425273895263672e+01 -4.855922698974609375e+00 3.897196769714355469e+00
-1.294648361206054688e+01 -5.228829860687255859e+00 3.670814752578735352e+00
-1.350384807586669922e+01 -4.873085498809814453e+00 3.346078634262084961e+00
-1.345064544677734375e+01 -5.418803215026855469e+00 3.241390705108642578e+00
-1.345469188690185547e+01 -4.844733238220214844e+00 2.784888267517089844e+00
-1.344975566864013672e+01 -5.404807567596435547e+00 2.681274414062500000e+00
-1.350069141387939453e+01 -4.858634948730468750e+00 2.252022504806518555e+00
-1.344745254516601562e+01 -4.826224327087402344e+00 1.716301798820495605e+00
-1.347077178955078125e+01 -4.829286575317382812e+00 1.194121241569519043e+00
-1.342914962768554688e+01 -4.809075355529785156e+00 6.701905727386474609e-01
-1.159457969665527344e+01 -4.145254611968994141e+00 1.310986280441284180e-01
-8.425646781921386719e+00 -3.360267162322998047e+00 1.108231488615274429e-02
-1.414196681976318359e+01 -3.850571155548095703e+00 4.319293975830078125e+00
-1.347288799285888672e+01 -4.776623725891113281e+00 3.899828433990478516e+00
-1.299360561370849609e+01 -5.155356884002685547e+00 3.675137281417846680e+00
-1.362254810333251953e+01 -4.821656227111816406e+00 3.368096590042114258e+00
-1.350174999237060547e+01 -4.768295764923095703e+00 2.788520097732543945e+00
-1.342778778076171875e+01 -5.300516605377197266e+00 2.670360803604125977e+00
-1.360104846954345703e+01 -4.800694465637207031e+00 2.263806581497192383e+00
-1.355829143524169922e+01 -4.772300720214843750e+00 1.726678371429443359e+00
-1.355467700958251953e+01 -4.765711307525634766e+00 1.198944211006164551e+00
-1.348950576782226562e+01 -4.737507820129394531e+00 6.717393398284912109e-01
-1.331300544738769531e+01 -5.220325469970703125e+00 5.368507504463195801e-01
-1.164716148376464844e+01 -4.083628177642822266e+00 1.314073801040649414e-01
-8.918179512023925781e+00 -3.493425369262695312e+00 1.170173194259405136e-02
-1.418757629394531250e+01 -3.769636869430541992e+00 4.326078414916992188e+00
-1.386370849609375000e+01 -4.819631576538085938e+00 4.004318714141845703e+00
-1.305202865600585938e+01 -5.086067199707031250e+00 3.682765483856201172e+00
-1.375400352478027344e+01 -4.773422718048095703e+00 3.393292665481567383e+00
-1.321504402160644531e+01 -5.136311531066894531e+00 3.169185161590576172e+00
-1.367266654968261719e+01 -4.734501838684082031e+00 2.817766427993774414e+00
-1.334820461273193359e+01 -5.174663543701171875e+00 2.648169994354248047e+00
-1.338410186767578125e+01 -5.177834510803222656e+00 2.116575956344604492e+00
-1.338289546966552734e+01 -5.169313430786132812e+00 1.586409091949462891e+00
-1.329558277130126953e+01 -5.127589225769042969e+00 1.053962111473083496e+00
-1.330934906005859375e+01 -5.124894618988037109e+00 5.354251265525817871e-01
-1.175521564483642578e+01 -4.040689945220947266e+00 1.323442608118057251e-01
-9.115846633911132812e+00 -3.506492376327514648e+00 1.193263847380876541e-02
-1.422529602050781250e+01 -3.686362504959106445e+00 4.330601215362548828e+00
-1.389681053161621094e+01 -4.166103839874267578e+00 4.110778331756591797e+00
-1.387384319305419922e+01 -4.727939605712890625e+00 3.998791694641113281e+00
-1.311460494995117188e+01 -5.017982006072998047e+00 3.691664695739746094e+00
-1.322625160217285156e+01 -5.047473430633544922e+00 3.164386034011840820e+00
-1.335672855377197266e+01 -5.083918094635009766e+00 2.643622636795043945e+00
-1.333885955810546875e+01 -5.066457748413085938e+00 2.104465246200561523e+00
-1.332607269287109375e+01 -5.053618431091308594e+00 1.575967907905578613e+00
-1.332026672363281250e+01 -5.043440818786621094e+00 1.053445816040039062e+00
-1.330315494537353516e+01 -5.028999328613281250e+00 5.339245200157165527e-01
-1.181863880157470703e+01 -3.981574058532714844e+00 1.327807456254959106e-01
-9.252259254455566406e+00 -3.493946075439453125e+00 1.208291202783584595e-02
-1.417789745330810547e+01 -3.581389188766479492e+00 4.309400558471679688e+00
-1.388610363006591797e+01 -4.070201873779296875e+00 4.100146293640136719e+00
-1.389801692962646484e+01 -4.641194343566894531e+00 3.997475624084472656e+00
-1.348466300964355469e+01 -5.064942836761474609e+00 3.787013769149780273e+00
-1.324783420562744141e+01 -4.962800025939941406e+00 3.162204504013061523e+00
-1.338675117492675781e+01 -5.001523017883300781e+00 2.643440961837768555e+00
-1.336320686340332031e+01 -4.982097625732421875e+00 2.103443861007690430e+00
-1.332795333862304688e+01 -4.961007595062255859e+00 1.572560667991638184e+00
-1.332665634155273438e+01 -4.952581882476806641e+00 1.051527976989746094e+00
-1.329815959930419922e+01 -4.934068679809570312e+00 5.324988961219787598e-01
-1.190646743774414062e+01 -3.929980516433715820e+00 1.334940493106842041e-01
-9.115995407104492188e+00 -3.378723859786987305e+00 1.187766063958406448e-02
-1.431593227386474609e+01 -4.100971698760986328e+00 4.219552516937255859e+00
-1.395282363891601562e+01 -4.564529418945312500e+00 4.005108356475830078e+00
-1.343926143646240234e+01 -4.954008579254150391e+00 3.765655517578125000e+00
-1.337146568298339844e+01 -4.915767192840576172e+00 3.184455156326293945e+00
-1.342180442810058594e+01 -4.920981884002685547e+00 2.644350290298461914e+00
-1.340467357635498047e+01 -4.904087543487548828e+00 2.105194807052612305e+00
-1.338428401947021484e+01 -4.888683319091796875e+00 1.575638055801391602e+00
-1.339333438873291016e+01 -4.884042739868164062e+00 1.054404735565185547e+00
-1.332536792755126953e+01 -4.851354122161865234e+00 5.323863625526428223e-01
-1.206356143951416016e+01 -3.899912357330322266e+00 1.349845379590988159e-01
-9.086747169494628906e+00 -3.304611682891845703e+00 1.181290950626134872e-02
-1.404155635833740234e+01 -3.929307937622070312e+00 4.131497383117675781e+00
-1.397138118743896484e+01 -4.475886821746826172e+00 4.002476692199707031e+00
-1.346031188964843750e+01 -4.868164539337158203e+00 3.763113021850585938e+00
-1.347573757171630859e+01 -4.860449314117431641e+00 3.202124834060668945e+00
-1.345914745330810547e+01 -4.841197013854980469e+00 2.645805358886718750e+00
-1.344475555419921875e+01 -4.825422286987304688e+00 2.106799840927124023e+00
-1.344864940643310547e+01 -4.818872451782226562e+00 1.579704761505126953e+00
-1.347845172882080078e+01 -4.821588993072509766e+00 1.058756589889526367e+00
-1.338405799865722656e+01 -4.779919147491455078e+00 5.335493683815002441e-01
-1.210156345367431641e+01 -3.830344200134277344e+00 1.351442337036132812e-01
-8.585062026977539062e+00 -3.062649726867675781e+00 1.113607175648212433e-02
-1.392897033691406250e+01 -3.805799484252929688e+00 4.091422557830810547e+00
-1.378133487701416016e+01 -4.321945667266845703e+00 3.940361261367797852e+00
-1.352365303039550781e+01 -4.797445297241210938e+00 3.772520780563354492e+00
-1.356510925292968750e+01 -4.798828125000000000e+00 3.216304063796997070e+00
-1.349694538116455078e+01 -4.761466026306152344e+00 2.647442340850830078e+00
-1.362435150146484375e+01 -4.795719623565673828e+00 2.130291461944580078e+00
-1.356892299652099609e+01 -4.768225669860839844e+00 1.590365767478942871e+00
-1.351342868804931641e+01 -4.740777015686035156e+00 1.059199094772338867e+00
-1.346312046051025391e+01 -4.715212345123291016e+00 5.355376601219177246e-01
-1.224518966674804688e+01 -3.793300628662109375e+00 1.364856660366058350e-01
-8.321464538574218750e+00 -2.911180496215820312e+00 1.077077351510524750e-02
-1.392603015899658203e+01 -3.713320493698120117e+00 4.083789348602294922e+00
-1.385061931610107422e+01 -4.817960262298583984e+00 3.855410814285278320e+00
-1.376948356628417969e+01 -4.776270866394042969e+00 3.257751464843750000e+00
-1.359002876281738281e+01 -4.700740337371826172e+00 2.659992933273315430e+00
-1.233330726623535156e+01 -3.737815618515014648e+00 1.372096091508865356e-01
-9.133737564086914062e+00 -3.132576942443847656e+00 1.179702673107385635e-02
-1.392758369445800781e+01 -4.180793762207031250e+00 3.967207670211791992e+00
-1.386527442932128906e+01 -4.727889537811279297e+00 3.851342439651489258e+00
-1.239435863494873047e+01 -3.673435211181640625e+00 1.376354694366455078e-01
-8.868421554565429688e+00 -2.980892419815063477e+00 1.143050845712423325e-02
-1.389743232727050781e+01 -4.078955173492431641e+00 3.951415777206420898e+00
-1.390411376953125000e+01 -4.646096706390380859e+00 3.854139566421508789e+00
-1.246180629730224609e+01 -3.610393762588500977e+00 1.381358355283737183e-01
-9.274072647094726562e+00 -3.054037094116210938e+00 1.192897465080022812e-02
-1.391581535339355469e+01 -4.555279254913330078e+00 3.849562644958496094e+00
-1.254434013366699219e+01 -3.551020622253417969e+00 1.388065665960311890e-01
-9.336416244506835938e+00 -3.011194705963134766e+00 1.198517344892024994e-02
-1.381548881530761719e+01 -4.428770542144775391e+00 3.814219951629638672e+00
-1.276443195343017578e+01 -3.528871774673461914e+00 1.409997045993804932e-01
-9.745688438415527344e+00 -3.077304124832153320e+00 1.248608250170946121e-02
-1.282349586486816406e+01 -3.460644960403442383e+00 1.414149105548858643e-01
-8.778394699096679688e+00 -2.712750673294067383e+00 1.122525800019502640e-02
-1.286672973632812500e+01 -3.387752294540405273e+00 1.416597664356231689e-01
-9.335700035095214844e+00 -2.822336912155151367e+00 1.191553473472595215e-02
-1.310809898376464844e+01 -3.365435361862182617e+00 1.440871208906173706e-01
-9.602173805236816406e+00 -2.838711738586425781e+00 1.223318465054035187e-02
-1.316051292419433594e+01 -3.292951822280883789e+00 1.444384604692459106e-01
-9.358102798461914062e+00 -2.704229593276977539e+00 1.190087385475635529e-02
-1.319504356384277344e+01 -3.215689897537231445e+00 1.445981562137603760e-01
-1.015789508819580078e+01 -2.867933034896850586e+00 1.289536245167255402e-02
-1.411161327362060547e+01 -3.957212924957275391e+00 3.853122234344482422e+00
-1.334976577758789062e+01 -3.166746854782104492e+00 1.460779905319213867e-01
-9.782942771911621094e+00 -2.697369575500488281e+00 1.239811908453702927e-02
-1.344591712951660156e+01 -3.102535247802734375e+00 1.469190418720245361e-01
-1.008996582031250000e+01 -2.715516328811645508e+00 1.276585925370454788e-02
-1.359349441528320312e+01 -3.048861265182495117e+00 1.483243703842163086e-01
-9.478714942932128906e+00 -2.488739013671875000e+00 1.197295635938644409e-02
-1.377120113372802734e+01 -3.000089645385742188e+00 1.500597000122070312e-01
-1.017581176757812500e+01 -2.605133295059204102e+00 1.283305417746305466e-02
-1.387544155120849609e+01 -2.933737516403198242e+00 1.509965807199478149e-01
-9.761780738830566406e+00 -2.435412168502807617e+00 1.229182817041873932e-02
-1.404109668731689453e+01 -2.878871202468872070e+00 1.526041775941848755e-01
-9.697830200195312500e+00 -2.356344461441040039e+00 1.219286769628524780e-02
-1.413891983032226562e+01 -2.808638334274291992e+00 1.534771770238876343e-01
-9.662474632263183594e+00 -2.285058259963989258e+00 1.213056035339832306e-02
-1.413232135772705078e+01 -2.717299461364746094e+00 1.532216668128967285e-01
-9.697752952575683594e+00 -2.230658769607543945e+00 1.215743739157915115e-02
-1.436992454528808594e+01 -2.671658992767333984e+00 1.556170731782913208e-01
-9.698571205139160156e+00 -2.168276309967041016e+00 1.214155554771423340e-02
-1.445691013336181641e+01 -2.596161842346191406e+00 1.563836187124252319e-01
-9.460545539855957031e+00 -2.054193973541259766e+00 1.182757038623094559e-02
-1.452084541320800781e+01 -2.515771389007568359e+00 1.569052934646606445e-01
-9.835021018981933594e+00 -2.072395801544189453e+00 1.227961108088493347e-02
-1.458433628082275391e+01 -2.434693574905395508e+00 1.574269533157348633e-01
-9.319461822509765625e+00 -1.904113173484802246e+00 1.162109710276126862e-02
-1.469575595855712891e+01 -2.360702514648437500e+00 1.584703028202056885e-01
-9.295655250549316406e+00 -1.839904427528381348e+00 1.157711632549762726e-02
-1.492144680023193359e+01 -2.303129196166992188e+00 1.607486009597778320e-01
-8.634984970092773438e+00 -1.654143691062927246e+00 1.074145268648862839e-02
-9.069746971130371094e+00 -1.679801464080810547e+00 1.126923877745866776e-02
-9.599635124206542969e+00 -1.717086911201477051e+00 1.191431377083063126e-02
-1.024855327606201172e+01 -1.768332958221435547e+00 1.270599476993083954e-02
-9.773871421813964844e+00 -1.624736547470092773e+00 1.210490334779024124e-02
-1.004335594177246094e+01 -1.606269121170043945e+00 1.242621801793575287e-02
-1.082595157623291016e+01 -1.663372039794921875e+00 1.338161062449216843e-02
-1.010979843139648438e+01 -1.489899039268493652e+00 1.248486153781414032e-02
-1.085644149780273438e+01 -1.531932711601257324e+00 1.339505054056644440e-02
-1.085077095031738281e+01 -1.463285326957702637e+00 1.337672397494316101e-02
-1.052926540374755859e+01 -1.354200482368469238e+00 1.296988781541585922e-02
-9.668856620788574219e+00 -1.183278799057006836e+00 1.190087385475635529e-02
-5.721330642700195312e+00 -4.150339961051940918e-02 1.698095947504043579e-01
-9.732554435729980469e+00 -1.130506277084350586e+00 1.197051256895065308e-02
-5.703485488891601562e+00 -6.377078592777252197e-03 1.692755967378616333e-01
-8.942111968994140625e+00 -9.831212162971496582e-01 1.099068485200405121e-02
-1.047577667236328125e+01 -1.086724162101745605e+00 1.286726258695125580e-02
-1.057978439331054688e+01 -1.031939148902893066e+00 1.298699155449867249e-02
-1.081894683837890625e+01 -9.882901906967163086e-01 1.327287685126066208e-02
-5.719366073608398438e+00 -7.265543937683105469e-02 1.158184260129928589e-01
-1.041030883789062500e+01 -8.865872621536254883e-01 1.276463828980922699e-02
-5.709706783294677734e+00 -3.749505057930946350e-02 1.156159862875938416e-01
-1.038066005706787109e+01 -8.199381232261657715e-01 1.272187661379575729e-02
-5.711829185485839844e+00 -2.461102558299899101e-03 1.156564727425575256e-01
-1.036056232452392578e+01 -7.544125914573669434e-01 1.269133388996124268e-02
-1.074814605712890625e+01 -7.163640856742858887e-01 1.316047739237546921e-02
-1.108772659301757812e+01 -6.706885695457458496e-01 1.357097923755645752e-02
-1.016899394989013672e+01 -5.525130629539489746e-01 1.244209986180067062e-02
-5.713263988494873047e+00 -6.865103542804718018e-02 6.083300337195396423e-02
-1.078947544097900391e+01 -5.198482275009155273e-01 1.319712959229946136e-02
-5.706578254699707031e+00 -3.355265781283378601e-02 6.075847893953323364e-02
-1.078047370910644531e+01 -4.531315863132476807e-01 1.318246964365243912e-02
-5.690677642822265625e+00 1.458778162486851215e-03 6.058814004063606262e-02
-1.268382549285888672e+01 -4.551890790462493896e-01 1.550619956105947495e-02
-5.679562568664550781e+00 3.630578145384788513e-02 6.047102808952331543e-02
-1.183475685119628906e+01 -3.520226478576660156e-01 1.446528546512126923e-02
-1.300037002563476562e+01 -3.068673014640808105e-01 1.588737964630126953e-02
-1.212614154815673828e+01 -2.117949128150939941e-01 1.481714379042387009e-02
-5.717629432678222656e+00 -6.477366387844085693e-02 6.985853426158428192e-03
-5.724879264831542969e+00 -3.172428533434867859e-02 2.149278670549392700e-01
-5.686919212341308594e+00 -2.952876687049865723e-02 6.947979796677827835e-03
-5.699984073638916016e+00 3.388656768947839737e-03 2.139899879693984985e-01
-5.656993389129638672e+00 5.337763112038373947e-03 6.911327596753835678e-03
-5.671854019165039062e+00 4.015451669692993164e-02 6.929654162377119064e-03
-1.386677932739257812e+01 1.832659095525741577e-01 1.694295555353164673e-02
-1.219770717620849609e+01 2.360714226961135864e-01 1.490510907024145126e-02
-1.340528488159179688e+01 4.240591526031494141e-01 1.638584583997726440e-02
-1.075851345062255859e+01 5.387082695960998535e-01 1.316047739237546921e-02
-1.149783229827880859e+01 6.464772820472717285e-01 1.406944543123245239e-02
-7.995566368103027344e+00 3.540069580078125000e+00 1.770578473806381226e-01
-7.952725410461425781e+00 3.579624414443969727e+00 1.765922307968139648e-01
-7.971931457519531250e+00 3.477777957916259766e+00 9.260158240795135498e-02
-7.961410522460937500e+00 3.531492710113525391e+00 9.272933751344680786e-02
-7.928653240203857422e+00 3.575343847274780273e+00 9.260158240795135498e-02
-7.963571071624755859e+00 3.480647087097167969e+00 1.061805710196495056e-02
-7.950289249420166016e+00 3.533100366592407227e+00 1.062905322760343552e-02
-7.946687221527099609e+00 3.590049743652343750e+00 1.065348740667104721e-02
-3.470060825347900391e+00 4.674624443054199219e+00 1.178833618760108948e-01
-3.444267272949218750e+00 4.699860095977783203e+00 1.179845780134201050e-01
-3.472125291824340820e+00 4.684128284454345703e+00 6.207862123847007751e-02
-3.438004255294799805e+00 4.698081970214843750e+00 6.198280677199363708e-02
-3.407236576080322266e+00 4.662758350372314453e+00 7.055491674691438675e-03
-3.379732608795166016e+00 4.685199260711669922e+00 7.057935930788516998e-03
-1.069330692291259766e+00 2.290577173233032227e+00 7.502593100070953369e-02
-1.050248861312866211e+00 2.286195993423461914e+00 7.466994225978851318e-02
-1.030849337577819824e+00 2.280755996704101562e+00 7.428427785634994507e-02
-1.020490169525146484e+00 2.295258283615112305e+00 7.455126941204071045e-02
-1.001982331275939941e+00 2.291402816772460938e+00 7.422494888305664062e-02
-9.906676411628723145e-01 2.303935527801513672e+00 7.443261146545410156e-02
