-1.474519014358520508e+00 -6.120046138763427734e+00 1.783727288246154785e+00
-1.040493249893188477e+00 -6.356522083282470703e+00 1.693400740623474121e+00
-1.112753033638000488e+00 -6.760952472686767578e+00 1.531583786010742188e+00
-1.158316880464553833e-01 -6.924613118171691895e-01 5.192731320858001709e-02
-1.730890989303588867e+00 -6.138814449310302734e+00 4.202832281589508057e-01
-1.736040234565734863e+00 -6.152965068817138672e+00 1.897453069686889648e-01
-1.580907106399536133e+00 -6.491911888122558594e+00 1.352935731410980225e-01
-1.234240770339965820e+00 -6.004106044769287109e+00 6.526186317205429077e-02
-1.513429641723632812e+00 -6.116487026214599609e+00 1.785362958908081055e+00
-1.295633435249328613e+00 -6.219299793243408203e+00 1.733169436454772949e+00
-1.082880258560180664e+00 -6.370040416717529297e+00 1.698740363121032715e+00
-1.771845698356628418e+00 -6.139583110809326172e+00 4.210722744464874268e-01
-1.524067878723144531e+00 -6.104616641998291016e+00 3.550816774368286133e-01
-1.776257395744323730e+00 -6.150839805603027344e+00 1.900123059749603271e-01
-1.621680974960327148e+00 -6.485969066619873047e+00 1.353745460510253906e-01
-1.273546218872070312e+00 -6.008158683776855469e+00 6.538961827754974365e-02
-1.328098654747009277e+00 -6.184821605682373047e+00 1.725799798965454102e+00
-1.817113041877746582e+00 -6.154434680938720703e+00 4.228475391864776611e-01
-1.824443578720092773e+00 -6.175293445587158203e+00 1.911099553108215332e-01
-1.660453796386718750e+00 -6.472023010253906250e+00 1.352935731410980225e-01
-1.307187438011169434e+00 -5.985577583312988281e+00 6.522992998361587524e-02
-1.362689733505249023e+00 -6.161484718322753906e+00 1.721588611602783203e+00
-1.178519964218139648e+00 -6.452363491058349609e+00 1.724421143531799316e+00
-1.862629175186157227e+00 -6.168960571289062500e+00 4.246228337287902832e-01
-1.353567123413085938e+00 -6.035252571105957031e+00 2.906036376953125000e-01
-1.873285531997680664e+00 -6.200343132019042969e+00 1.922372728586196899e-01
-1.692502260208129883e+00 -6.432706356048583984e+00 1.346862465143203735e-01
-1.346521735191345215e+00 -5.989151477813720703e+00 6.535768508911132812e-02
-1.398543357849121094e+00 -6.144541740417480469e+00 1.719219923019409180e+00
-1.213778138160705566e+00 -6.422203063964843750e+00 1.718318700790405273e+00
-1.904271721839904785e+00 -6.169810295104980469e+00 4.254775941371917725e-01
-1.918668508529663086e+00 -6.212607860565185547e+00 1.929789185523986816e-01
-1.735064625740051270e+00 -6.433784008026123047e+00 1.349291801452636719e-01
-1.378963947296142578e+00 -5.962265968322753906e+00 6.515540182590484619e-02
-1.229425549507141113e+00 -6.293138027191162109e+00 1.685772776603698730e+00
-1.947195291519165039e+00 -6.174187660217285156e+00 4.265953898429870605e-01
-1.712988734245300293e+00 -6.208780765533447266e+00 3.634769618511199951e-01
-1.955549120903015137e+00 -6.196905612945556641e+00 1.928602606058120728e-01
-1.777970075607299805e+00 -6.435544490814208984e+00 1.351923495531082153e-01
-1.404651045799255371e+00 -5.907969951629638672e+00 6.465502828359603882e-02
-1.096510887145996094e+00 -5.485476970672607422e+00 6.834358908236026764e-03
-1.265530109405517578e+00 -6.273151397705078125e+00 1.682467341423034668e+00
-2.000340461730957031e+00 -6.209612369537353516e+00 4.298829436302185059e-01
-1.771682381629943848e+00 -6.271174430847167969e+00 3.677591383457183838e-01
-1.998135566711425781e+00 -6.199059963226318359e+00 1.933052539825439453e-01
-1.822867393493652344e+00 -6.443755149841308594e+00 1.355972439050674438e-01
-1.466261863708496094e+00 -6.003178596496582031e+00 6.579418480396270752e-02
-1.125299811363220215e+00 -5.455140113830566406e+00 6.805037148296833038e-03
-1.623397588729858398e+00 -6.571063518524169922e+00 1.846608400344848633e+00
-1.298676848411560059e+00 -6.239703178405761719e+00 1.675602197647094727e+00
-2.039027929306030273e+00 -6.199117660522460938e+00 4.300144612789154053e-01
-1.981794953346252441e+00 -6.853881835937500000e+00 4.026362299919128418e-01
-1.530851244926452637e+00 -6.118437767028808594e+00 2.963293492794036865e-01
-2.053946256637573242e+00 -6.240802764892578125e+00 1.949962377548217773e-01
-1.849858999252319336e+00 -6.389232635498046875e+00 1.346862465143203735e-01
-1.508419752120971680e+00 -6.015406608581542969e+00 6.602840125560760498e-02
-1.162079334259033203e+00 -5.463783264160156250e+00 6.824585143476724625e-03
-1.336127042770385742e+00 -6.227835178375244141e+00 1.674585223197937012e+00
-2.083378314971923828e+00 -6.205408573150634766e+00 4.313294887542724609e-01
-2.024661779403686523e+00 -6.844464778900146484e+00 4.028052687644958496e-01
-1.332494020462036133e+00 -6.091572761535644531e+00 2.340984344482421875e-01
-2.110343456268310547e+00 -6.282091140747070312e+00 1.966872066259384155e-01
-1.891583204269409180e+00 -6.386389255523681641e+00 1.348684430122375488e-01
-1.543806195259094238e+00 -6.000227451324462891e+00 6.596451997756958008e-02
-1.192586064338684082e+00 -5.442873954772949219e+00 6.807480473071336746e-03
-2.135967254638671875e+00 -6.234987735748291016e+00 4.342883229255676270e-01
-1.893173694610595703e+00 -6.258525371551513672e+00 3.689987063407897949e-01
-2.147877693176269531e+00 -6.266187191009521484e+00 1.965982019901275635e-01
-1.928994774818420410e+00 -6.368921279907226562e+00 1.347469687461853027e-01
-1.583144903182983398e+00 -6.000310420989990234e+00 6.607098877429962158e-02
-1.219799876213073730e+00 -5.408140182495117188e+00 6.773272063583135605e-03
-1.919152379035949707e+00 -6.206729412078857422e+00 3.666322529315948486e-01
-2.174409151077270508e+00 -6.218922138214111328e+00 1.955302208662033081e-01
-1.965376377105712891e+00 -6.348370075225830078e+00 1.345647722482681274e-01
-1.571381449699401855e+00 -5.810943126678466797e+00 6.409077346324920654e-02
-1.255898714065551758e+00 -5.413217544555664062e+00 6.789154838770627975e-03
-2.069392204284667969e+00 -6.549942493438720703e+00 3.876486420631408691e-01
-1.707692742347717285e+00 -6.177230358123779297e+00 3.011164367198944092e-01
-2.003387689590454102e+00 -6.333331584930419922e+00 1.345040500164031982e-01
-1.624892354011535645e+00 -5.865756511688232422e+00 6.480407714843750000e-02
-1.290017843246459961e+00 -5.409300327301025391e+00 6.794041953980922699e-03
-2.068762540817260742e+00 -6.410749912261962891e+00 3.801548779010772705e-01
-1.967023491859436035e+00 -6.948998928070068359e+00 3.393191993236541748e-01
-1.556616425514221191e+00 -6.363771915435791016e+00 2.459534108638763428e-01
-2.039444208145141602e+00 -6.312356948852539062e+00 1.343218386173248291e-01
-1.686501502990722656e+00 -5.946103572845458984e+00 6.580483168363571167e-02
-1.321518898010253906e+00 -5.394484519958496094e+00 6.785489618778228760e-03
-2.049944639205932617e+00 -6.221558570861816406e+00 3.696748316287994385e-01
-1.987666249275207520e+00 -6.861002445220947266e+00 3.356115520000457764e-01
-1.522862315177917480e+00 -6.064309120178222656e+00 2.347362041473388672e-01
-2.055586576461791992e+00 -6.231362819671630859e+00 1.328642368316650391e-01
-1.735776782035827637e+00 -5.979817390441894531e+00 6.629455834627151489e-02
-1.353374361991882324e+00 -5.381424903869628906e+00 6.779381074011325836e-03
-2.099219799041748047e+00 -6.241984844207763672e+00 3.716468811035156250e-01
-2.025469541549682617e+00 -6.834311008453369141e+00 3.349075615406036377e-01
-2.125047683715820312e+00 -6.311490535736083984e+00 1.348481923341751099e-01
-1.778412938117980957e+00 -5.989184379577636719e+00 6.651812791824340820e-02
-1.383870244026184082e+00 -5.363336563110351562e+00 6.767163518816232681e-03
-2.146554231643676758e+00 -6.255428791046142578e+00 3.732245266437530518e-01
-1.890063762664794922e+00 -6.236704826354980469e+00 3.061850965023040771e-01
-2.159511327743530273e+00 -6.286040306091308594e+00 1.345850229263305664e-01
-1.814257025718688965e+00 -5.975289344787597656e+00 6.648619472980499268e-02
-1.412404894828796387e+00 -5.338310241699218750e+00 6.746394559741020203e-03
-2.191163301467895508e+00 -6.260044574737548828e+00 3.742950558662414551e-01
-1.944552302360534668e+00 -6.277469635009765625e+00 3.087663650512695312e-01
-2.203000545501708984e+00 -6.286824703216552734e+00 1.348886787891387939e-01
-1.842587947845458984e+00 -5.937304496765136719e+00 6.618809700012207031e-02
-1.436758995056152344e+00 -5.298658370971679688e+00 6.707299035042524338e-03
-2.065019369125366211e+00 -6.524455547332763672e+00 3.215318918228149414e-01
-1.710225462913513184e+00 -6.165698528289794922e+00 2.402135133743286133e-01
-2.235142469406127930e+00 -6.255300998687744141e+00 1.345040500164031982e-01
-1.897117853164672852e+00 -5.983077049255371094e+00 6.682687252759933472e-02
-1.495470881462097168e+00 -5.384168148040771484e+00 6.827028468251228333e-03
-2.049400329589843750e+00 -6.339627265930175781e+00 3.130372166633605957e-01
-2.430545330047607422e+00 -6.672659397125244141e+00 1.437962353229522705e-01
-1.913460612297058105e+00 -5.908538341522216797e+00 6.612421572208404541e-02
-1.531214594841003418e+00 -5.384509086608886719e+00 6.839245557785034180e-03
-2.066032171249389648e+00 -6.259584903717041016e+00 3.097050189971923828e-01
-1.992419958114624023e+00 -6.855302810668945312e+00 2.680127024650573730e-01
-2.482228755950927734e+00 -6.686676502227783203e+00 1.444238126277923584e-01
-1.939319729804992676e+00 -5.865355968475341797e+00 6.577289104461669922e-02
-1.574563264846801758e+00 -5.410538673400878906e+00 6.884449627250432968e-03
-2.100574493408203125e+00 -6.235430240631103516e+00 3.091418445110321045e-01
-2.016220092773437500e+00 -6.781645298004150391e+00 2.656116783618927002e-01
-2.519673824310302734e+00 -6.661968708038330078e+00 1.442213803529739380e-01
-1.958006978034973145e+00 -5.802183628082275391e+00 6.519798934459686279e-02
-1.646249175071716309e+00 -5.530164241790771484e+00 7.049383595585823059e-03
-2.131002187728881836e+00 -6.199752330780029297e+00 3.080154657363891602e-01
-1.889217257499694824e+00 -6.214612007141113281e+00 2.438525408506393433e-01
-2.657546758651733398e+00 -6.898281097412109375e+00 1.496873795986175537e-01
-1.986410021781921387e+00 -5.769259929656982422e+00 6.496377289295196533e-02
-1.703736782073974609e+00 -5.597448825836181641e+00 7.148343604058027267e-03
-2.158096790313720703e+00 -6.155452728271484375e+00 3.064666986465454102e-01
-2.034057140350341797e+00 -6.546447753906250000e+00 2.573582231998443604e-01
-2.057224273681640625e+00 -5.857912540435791016e+00 6.610292196273803711e-02
-1.757952451705932617e+00 -5.650865077972412109e+00 7.230199407786130905e-03
-2.068442344665527344e+00 -6.515747547149658203e+00 2.566454112529754639e-01
-2.099534273147583008e+00 -5.863066196441650391e+00 6.630520522594451904e-02
-1.739886999130249023e+00 -5.474146842956542969e+00 7.017618510872125626e-03
-2.039963483810424805e+00 -6.291903972625732422e+00 2.483169138431549072e-01
-1.212134122848510742e+00 -2.697907924652099609e+00 8.778242021799087524e-02
-2.833396911621093750e+00 -6.969525814056396484e+00 1.523393988609313965e-01
-2.164271831512451172e+00 -5.928976058959960938e+00 6.719949096441268921e-02
-1.826547503471374512e+00 -5.626964569091796875e+00 7.227756083011627197e-03
-1.243480563163757324e+00 -2.724118709564208984e+00 1.973200887441635132e-01
-2.063457965850830078e+00 -6.233731746673583984e+00 2.465161532163619995e-01
-1.235724210739135742e+00 -2.705876350402832031e+00 8.828674256801605225e-02
-2.737748622894287109e+00 -6.617573261260986328e+00 1.450109034776687622e-01
-2.198867321014404297e+00 -5.910898685455322266e+00 6.714626401662826538e-02
-1.861983180046081543e+00 -5.618498802185058594e+00 7.231421303004026413e-03
-1.255553007125854492e+00 -2.706480741500854492e+00 1.965968310832977295e-01
-2.101348876953125000e+00 -6.220006942749023438e+00 2.464786320924758911e-01
-1.232526302337646484e+00 -2.655629873275756836e+00 8.689243346452713013e-02
-2.192923069000244141e+00 -5.786026000976562500e+00 6.587935239076614380e-02
-1.898985743522644043e+00 -5.614546298980712891e+00 7.241194602102041245e-03
-1.256819367408752441e+00 -2.666232824325561523e+00 1.942297816276550293e-01
-2.142730951309204102e+00 -6.216443538665771484e+00 2.468537986278533936e-01
-1.242402434349060059e+00 -2.634456157684326172e+00 8.644743263721466064e-02
-2.954513072967529297e+00 -6.900566577911376953e+00 1.519952416419982910e-01
-2.222262382507324219e+00 -5.756603240966796875e+00 6.569837033748626709e-02
-1.928180932998657227e+00 -5.587664127349853516e+00 7.221647538244724274e-03
-1.280051231384277344e+00 -2.672869920730590820e+00 1.952817887067794800e-01
-1.259839415550231934e+00 -2.629487752914428711e+00 8.653643727302551270e-02
-2.255713224411010742e+00 -5.738205909729003906e+00 6.564513593912124634e-02
-1.951474070549011230e+00 -5.544599533081054688e+00 7.181330118328332901e-03
-1.275075197219848633e+00 -2.619910478591918945e+00 8.647710829973220825e-02
-3.074185609817504883e+00 -6.943325519561767578e+00 1.537564992904663086e-01
-2.296452522277832031e+00 -5.738182544708251953e+00 6.580483168363571167e-02
-1.978365063667297363e+00 -5.512755393981933594e+00 7.155674044042825699e-03
-1.210990667343139648e+00 -2.690415382385253906e+00 5.974133685231208801e-02
-2.338031053543090820e+00 -5.739727020263671875e+00 6.598581373691558838e-02
-2.010435581207275391e+00 -5.495817184448242188e+00 7.149565033614635468e-03
-1.248915314674377441e+00 -2.732315540313720703e+00 1.695399433374404907e-01
-1.233299255371093750e+00 -2.695662498474121094e+00 6.002475693821907043e-02
-2.386223793029785156e+00 -5.756679534912109375e+00 6.634779274463653564e-02
-1.931294798851013184e+00 -5.180723667144775391e+00 6.754946429282426834e-03
-1.264395117759704590e+00 -2.721884489059448242e+00 1.693709045648574829e-01
-1.244758009910583496e+00 -2.677165031433105469e+00 5.978182330727577209e-02
-2.467739820480346680e+00 -5.851572036743164062e+00 6.761470437049865723e-02
-1.915115475654602051e+00 -5.042571544647216797e+00 6.590012460947036743e-03
-1.273401379585266113e+00 -2.697823047637939453e+00 1.683567166328430176e-01
-1.252619862556457520e+00 -2.651397228240966797e+00 5.937693268060684204e-02
-2.531192302703857422e+00 -5.900647163391113281e+00 6.835994124412536621e-02
-2.079867601394653320e+00 -5.376739501953125000e+00 7.043275050818920135e-03
-1.279138326644897461e+00 -2.667452573776245117e+00 1.669481098651885986e-01
-1.264971375465393066e+00 -2.635549306869506836e+00 5.919473245739936829e-02
-2.610532760620117188e+00 -5.983989715576171875e+00 6.950974464416503906e-02
-2.123814344406127930e+00 -5.391788959503173828e+00 7.079926319420337677e-03
-1.271918058395385742e+00 -2.608865737915039062e+00 5.876960232853889465e-02
-1.198518157005310059e+00 -2.701943874359130859e+00 3.147048503160476685e-02
-2.188866138458251953e+00 -5.458477497100830078e+00 7.184995338320732117e-03
-1.230031013488769531e+00 -2.731522321701049805e+00 1.407494097948074341e-01
-3.385012388229370117e+00 -6.836281299591064453e+00 1.544650644063949585e-01
-1.213430166244506836e+00 -2.690892934799194336e+00 3.142790123820304871e-02
-2.219294548034667969e+00 -5.437537193298339844e+00 7.175221573561429977e-03
-1.237622261047363281e+00 -2.703941822052001953e+00 1.397169083356857300e-01
-3.439022064208984375e+00 -6.839499950408935547e+00 1.550116539001464844e-01
-1.228251814842224121e+00 -2.679760694503784180e+00 3.138531744480133057e-02
-2.255301713943481445e+00 -5.430282115936279297e+00 7.183773443102836609e-03
-1.268935203552246094e+00 -2.727996587753295898e+00 1.413595229387283325e-01
-3.338176965713500977e+00 -6.538664340972900391e+00 1.486549079418182373e-01
-1.242982625961303711e+00 -2.668548107147216797e+00 3.134272992610931396e-02
-2.301423072814941406e+00 -5.446739196777343750e+00 7.224090863019227982e-03
-1.276259541511535645e+00 -2.700290918350219727e+00 1.403270214796066284e-01
-3.320726871490478516e+00 -6.407101631164550781e+00 1.461243480443954468e-01
-1.266605019569396973e+00 -2.676236152648925781e+00 3.152371942996978760e-02
-2.349804878234863281e+00 -5.467427730560302734e+00 7.270516362041234970e-03
-1.309666752815246582e+00 -2.727527379989624023e+00 1.421573609113693237e-01
-3.357650041580200195e+00 -6.382181167602539062e+00 1.460231244564056396e-01
-1.276069521903991699e+00 -2.653995037078857422e+00 3.135337680578231812e-02
-2.384910106658935547e+00 -5.456572055816650391e+00 7.275403477251529694e-03
-3.514477252960205078e+00 -6.581944942474365234e+00 1.510842293500900269e-01
-1.298473477363586426e+00 -2.658694267272949219e+00 3.150242567062377930e-02
-1.197193026542663574e+00 -2.693960189819335938e+00 3.601660719141364098e-03
-1.225064754486083984e+00 -2.714243888854980469e+00 1.117970123887062073e-01
-3.583376646041870117e+00 -6.612998485565185547e+00 1.522988975048065186e-01
-3.047192096710205078e+00 -6.143407821655273438e+00 7.301238179206848145e-02
-1.205466270446777344e+00 -2.668337106704711914e+00 3.577226307243108749e-03
-1.231695652008056641e+00 -2.684876918792724609e+00 1.108966320753097534e-01
-3.753946781158447266e+00 -6.827433586120605469e+00 1.577648967504501343e-01
-3.091127395629882812e+00 -6.137097358703613281e+00 7.316142320632934570e-02
-1.220981597900390625e+00 -2.659072637557983398e+00 3.574782516807317734e-03
-1.249413251876831055e+00 -2.679986000061035156e+00 1.110091805458068848e-01
-3.876622915267944336e+00 -6.949210166931152344e+00 1.611254811286926270e-01
-3.148758411407470703e+00 -6.157187938690185547e+00 7.362986356019973755e-02
-1.247845768928527832e+00 -2.674185991287231445e+00 3.605325939133763313e-03
-1.266261577606201172e+00 -2.673172235488891602e+00 1.110466867685317993e-01
-3.734531164169311523e+00 -6.598997592926025391e+00 1.535338163375854492e-01
-3.215044736862182617e+00 -6.192774295806884766e+00 7.428993284702301025e-02
-1.266801238059997559e+00 -2.671900510787963867e+00 3.612656379118561745e-03
-1.276140213012695312e+00 -2.651845693588256836e+00 1.104839593172073364e-01
-3.923779249191284180e+00 -6.835216522216796875e+00 1.595868915319442749e-01
-3.240395545959472656e+00 -6.149045944213867188e+00 7.400248199701309204e-02
-1.282737851142883301e+00 -2.663176059722900391e+00 3.611434483900666237e-03
-3.985080718994140625e+00 -6.320935249328613281e+00 2.202048540115356445e+00
-3.264859676361083984e+00 -6.104358673095703125e+00 7.370439171791076660e-02
-2.573060035705566406e+00 -5.259309768676757812e+00 7.153230719268321991e-03
-4.209742069244384766e+00 -6.587338447570800781e+00 2.303812026977539062e+00
-3.349476575851440430e+00 -6.171216011047363281e+00 7.475837320089340210e-02
-2.595937728881835938e+00 -5.224616050720214844e+00 7.127574179321527481e-03
-3.409951448440551758e+00 -6.191714763641357422e+00 7.525874674320220947e-02
-2.672991991043090820e+00 -5.297869682312011719e+00 7.249747402966022491e-03
-4.271837711334228516e+00 -6.507117748260498047e+00 2.293918371200561523e+00
-4.140673637390136719e+00 -6.819760322570800781e+00 1.615506112575531006e-01
-3.243513107299804688e+00 -5.804921150207519531e+00 7.079794257879257202e-02
-2.636604309082031250e+00 -5.146975994110107422e+00 7.065266370773315430e-03
-4.232232093811035156e+00 -6.875109195709228516e+00 1.634738445281982422e-01
-3.265263795852661133e+00 -5.760552883148193359e+00 7.049985229969024658e-02
-2.570785522460937500e+00 -4.943500995635986328e+00 6.807480473071336746e-03
-3.314504146575927734e+00 -5.764681339263916016e+00 7.079794257879257202e-02
-2.702834844589233398e+00 -5.120423793792724609e+00 7.073818240314722061e-03
-3.646007299423217773e+00 -6.252147197723388672e+00 7.705798000097274780e-02
-2.857453584671020508e+00 -5.333807945251464844e+00 7.392689585685729980e-03
-3.699062585830688477e+00 -6.254617691040039062e+00 7.736671715974807739e-02
-2.777884960174560547e+00 -5.109713077545166016e+00 7.105583325028419495e-03
-4.017413139343261719e+00 -6.752077579498291016e+00 2.143497467041015625e+00
-4.465063095092773438e+00 -6.869768619537353516e+00 1.659031659364700317e-01
-3.731199026107788086e+00 -6.221512317657470703e+00 7.723896205425262451e-02
-2.803389310836791992e+00 -5.082064628601074219e+00 7.090922445058822632e-03
-4.440582752227783203e+00 -6.741215705871582031e+00 1.634535789489746094e-01
-3.780214071273803711e+00 -6.216443061828613281e+00 7.746253907680511475e-02
-2.788612127304077148e+00 -4.982739448547363281e+00 6.976079195737838745e-03
-4.430238246917724609e+00 -6.636508941650390625e+00 1.615708470344543457e-01
-3.821434974670410156e+00 -6.198238372802734375e+00 7.752641290426254272e-02
-2.598934888839721680e+00 -4.577684402465820312e+00 6.431187968701124191e-03
-4.643414497375488281e+00 -6.864260673522949219e+00 1.678061485290527344e-01
-3.870524406433105469e+00 -6.192480087280273438e+00 7.774998992681503296e-02
-2.900450706481933594e+00 -5.036534786224365234e+00 7.100696209818124771e-03
-4.696750164031982422e+00 -6.852132797241210938e+00 1.682110279798507690e-01
-3.959825277328491211e+00 -6.249702453613281250e+00 7.877203077077865601e-02
-3.067475080490112305e+00 -5.251787185668945312e+00 7.430563215166330338e-03
-4.675971984863281250e+00 -6.732855319976806641e+00 1.659841388463973999e-01
-4.011607170104980469e+00 -6.246322154998779297e+00 7.903818786144256592e-02
-3.139903306961059570e+00 -5.300837039947509766e+00 7.527079898864030838e-03
-4.827085494995117188e+00 -6.860211372375488281e+00 1.698508262634277344e-01
-4.106591224670410156e+00 -6.308745861053466797e+00 8.014540374279022217e-02
-3.014291763305664062e+00 -5.018297672271728516e+00 7.152008358389139175e-03
-4.832526683807373047e+00 -6.779174804687500000e+00 1.685754358768463135e-01
-4.129806041717529297e+00 -6.260058879852294922e+00 7.984731346368789673e-02
-3.007054805755615234e+00 -4.937360763549804688e+00 7.062822114676237106e-03
-4.932564258575439453e+00 -6.830449104309082031e+00 1.705998629331588745e-01
-4.226493358612060547e+00 -6.321885108947753906e+00 8.096516877412796021e-02
-2.595438241958618164e+00 -4.203244686126708984e+00 6.035347003489732742e-03
-4.985007762908935547e+00 -6.814580440521240234e+00 1.709642708301544189e-01
-4.272494792938232422e+00 -6.306594848632812500e+00 8.110357820987701416e-02
-2.972970008850097656e+00 -4.749211788177490234e+00 6.845354568213224411e-03
-5.062440872192382812e+00 -6.832062244415283203e+00 1.721789389848709106e-01
-4.260179042816162109e+00 -6.206064701080322266e+00 8.014540374279022217e-02
-3.042239427566528320e+00 -4.794207096099853516e+00 6.936984602361917496e-03
-5.163681030273437500e+00 -6.880034446716308594e+00 1.741831302642822266e-01
-4.088636398315429688e+00 -5.878534317016601562e+00 7.623820751905441284e-02
-3.078090190887451172e+00 -4.785542011260986328e+00 6.951644551008939743e-03
-5.139849662780761719e+00 -6.761465072631835938e+00 1.719765067100524902e-01
-4.123477458953857422e+00 -5.851701259613037109e+00 7.621692121028900146e-02
-3.015648603439331055e+00 -4.625830173492431641e+00 6.746394559741020203e-03
-5.183069705963134766e+00 -6.732176303863525391e+00 1.720372289419174194e-01
-4.197650909423828125e+00 -5.880003452301025391e+00 7.691957801580429077e-02
-3.096894741058349609e+00 -4.687335968017578125e+00 6.863680202513933182e-03
-5.235346317291259766e+00 -6.714439392089843750e+00 1.724016368389129639e-01
-4.381901741027832031e+00 -6.059132575988769531e+00 7.961308956146240234e-02
-2.881914615631103516e+00 -4.304292201995849609e+00 6.328562740236520767e-03
-5.402843475341796875e+00 -6.842260360717773438e+00 1.765314936637878418e-01
-4.401269435882568359e+00 -6.007932186126708984e+00 7.929369807243347168e-02
-3.138462066650390625e+00 -4.625809192657470703e+00 6.829471793025732040e-03
-5.424119949340820312e+00 -6.783212184906005859e+00 1.758634299039840698e-01
-4.315896987915039062e+00 -5.816196918487548828e+00 7.711120694875717163e-02
-3.196244955062866211e+00 -4.649315834045410156e+00 6.893001962453126907e-03
-5.458088397979736328e+00 -6.740478992462158203e+00 1.756204813718795776e-01
-4.607438564300537109e+00 -6.130123138427734375e+00 8.164653182029724121e-02
-3.237858295440673828e+00 -4.648489475250244141e+00 6.921101827174425125e-03
-5.468916416168212891e+00 -6.669752120971679688e+00 1.746487617492675781e-01
-4.660713195800781250e+00 -6.122423648834228516e+00 8.192333579063415527e-02
-3.421419858932495117e+00 -4.848319053649902344e+00 7.249747402966022491e-03
-5.563385486602783203e+00 -6.700684070587158203e+00 1.763492971658706665e-01
-4.529679775238037109e+00 -5.875144958496093750e+00 7.898495346307754517e-02
-3.378988027572631836e+00 -4.726361751556396484e+00 7.098252885043621063e-03
-5.549065589904785156e+00 -6.600606918334960938e+00 1.746082603931427002e-01
-4.865342617034912109e+00 -6.231066703796386719e+00 8.416970819234848022e-02
-3.376837015151977539e+00 -4.662614822387695312e+00 7.033501286059617996e-03
-5.590109825134277344e+00 -6.567195892333984375e+00 1.746285110712051392e-01
-4.894801139831542969e+00 -6.190115451812744141e+00 8.402065932750701904e-02
-3.337357759475708008e+00 -4.549083709716796875e+00 6.893001962453126907e-03
-5.668810367584228516e+00 -6.577454566955566406e+00 1.758229434490203857e-01
-4.911440372467041016e+00 -6.133426666259765625e+00 8.365868777036666870e-02
-3.528040409088134766e+00 -4.747642517089843750e+00 7.226534653455018997e-03
-5.787286758422851562e+00 -6.632192611694335938e+00 1.782320290803909302e-01
-5.035894393920898438e+00 -6.210357666015625000e+00 8.512787520885467529e-02
-3.504785537719726562e+00 -4.656394958496093750e+00 7.120243739336729050e-03
-5.817942619323730469e+00 -6.585318088531494141e+00 1.779283583164215088e-01
-4.661444664001464844e+00 -5.677018165588378906e+00 7.820777595043182373e-02
-3.272598266601562500e+00 -4.292838573455810547e+00 6.594899576157331467e-03
-5.819580078125000000e+00 -6.506274700164794922e+00 1.767541766166687012e-01
-5.111086368560791016e+00 -6.147323131561279297e+00 8.511722832918167114e-02
-3.341045141220092773e+00 -4.327293395996093750e+00 6.679199635982513428e-03
-5.846642017364501953e+00 -6.456363677978515625e+00 1.763695478439331055e-01
-4.490550994873046875e+00 -5.334058284759521484e+00 7.423670589923858643e-02
-3.371229648590087891e+00 -4.311437606811523438e+00 6.686529144644737244e-03
-5.886147022247314453e+00 -6.420367717742919922e+00 1.763695478439331055e-01
-5.201058387756347656e+00 -6.101642131805419922e+00 8.536209911108016968e-02
-3.405070304870605469e+00 -4.300078868865966797e+00 6.701190024614334106e-03
-6.002287387847900391e+00 -6.466936111450195312e+00 1.786571592092514038e-01
-4.470736980438232422e+00 -5.180140972137451172e+00 7.285268604755401611e-02
-3.498329877853393555e+00 -4.362580776214599609e+00 6.831915583461523056e-03
-6.056231975555419922e+00 -6.445285797119140625e+00 1.790822893381118774e-01
-5.290676116943359375e+00 -6.054676055908203125e+00 8.560696244239807129e-02
-3.441192865371704102e+00 -4.237785816192626953e+00 6.669424939900636673e-03
-6.205230236053466797e+00 -6.523182868957519531e+00 1.823011487722396851e-01
-5.138232707977294922e+00 -5.807907104492187500e+00 8.256211876869201660e-02
-3.575101375579833984e+00 -4.347901344299316406e+00 6.877119187265634537e-03
-6.228494644165039062e+00 -6.467702388763427734e+00 1.818152964115142822e-01
-4.773480415344238281e+00 -5.329362869262695312e+00 7.617433369159698486e-02
-3.377125263214111328e+00 -4.056139945983886719e+00 6.448292173445224762e-03
-6.288301944732666016e+00 -6.450123310089111328e+00 1.824023723602294922e-01
-4.869232177734375000e+00 -5.369602680206298828e+00 7.717508822679519653e-02
-3.454158306121826172e+00 -4.097270965576171875e+00 6.547252181917428970e-03
-6.438023090362548828e+00 -6.523137569427490234e+00 1.855807602405548096e-01
-5.286193847656250000e+00 -5.758014202117919922e+00 8.322218805551528931e-02
-3.537664651870727539e+00 -4.144452571868896484e+00 6.657208316028118134e-03
-6.588871955871582031e+00 -6.594552516937255859e+00 1.887591332197189331e-01
-5.308490276336669922e+00 -5.711554050445556641e+00 8.301990479230880737e-02
-3.445328235626220703e+00 -3.986481428146362305e+00 6.437296513468027115e-03
-6.729459762573242188e+00 -6.653110980987548828e+00 1.916135847568511963e-01
-4.713022708892822266e+00 -5.008886337280273438e+00 7.322530448436737061e-02
-3.438773632049560547e+00 -3.929895639419555664e+00 6.379874888807535172e-03
-6.893184661865234375e+00 -6.731843471527099609e+00 1.950956284999847412e-01
-5.351282119750976562e+00 -5.617743492126464844e+00 8.260469883680343628e-02
-3.457517385482788086e+00 -3.902733802795410156e+00 6.370101589709520340e-03
-7.040135383605957031e+00 -6.791459560394287109e+00 1.980715692043304443e-01
-5.544604301452636719e+00 -5.749633312225341797e+00 8.504270762205123901e-02
-3.589566946029663086e+00 -4.002042770385742188e+00 6.568022072315216064e-03
-7.274929523468017578e+00 -6.932287216186523438e+00 2.034768462181091309e-01
-5.594448089599609375e+00 -5.730529785156250000e+00 8.526628464460372925e-02
-3.678591966629028320e+00 -4.051012516021728516e+00 6.685307715088129044e-03
-7.138235569000244141e+00 -6.718945503234863281e+00 1.984966993331909180e-01
-5.425663948059082031e+00 -5.489843368530273438e+00 8.217885345220565796e-02
-3.837383031845092773e+00 -4.174128055572509766e+00 6.927210371941328049e-03
-7.121483325958251953e+00 -6.621238231658935547e+00 1.968974024057388306e-01
-4.593575477600097656e+00 -4.591221332550048828e+00 6.914777308702468872e-02
-3.867010593414306641e+00 -4.154895782470703125e+00 6.934540811926126480e-03
-7.284214019775390625e+00 -6.689677715301513672e+00 2.002579718828201294e-01
-5.901778697967529297e+00 -5.826805114746093750e+00 8.830048143863677979e-02
-3.754592180252075195e+00 -3.984798908233642578e+00 6.688972935080528259e-03
-4.695386886596679688e+00 -4.579186916351318359e+00 6.982913613319396973e-02
-3.758264780044555664e+00 -3.939978122711181641e+00 6.652321200817823410e-03
-4.872464656829833984e+00 -4.693896293640136719e+00 7.203292101621627808e-02
-3.763613939285278320e+00 -3.897421360015869141e+00 6.619334220886230469e-03
-4.938117504119873047e+00 -4.699066162109375000e+00 7.257588207721710205e-02
-3.774175167083740234e+00 -3.860668420791625977e+00 6.596121471375226974e-03
-5.239353656768798828e+00 -4.924814701080322266e+00 7.655759900808334351e-02
-3.814675092697143555e+00 -3.854496479034423828e+00 6.625443231314420700e-03
-5.347881317138671875e+00 -4.965373992919921875e+00 7.769675552845001221e-02
-3.894875764846801758e+00 -3.887532472610473633e+00 6.723181344568729401e-03
-5.379721164703369141e+00 -4.933818340301513672e+00 7.771804183721542358e-02
-3.868097066879272461e+00 -3.813712835311889648e+00 6.636438425630331039e-03
-5.205354690551757812e+00 -4.715428829193115234e+00 7.477966696023941040e-02
-3.824800729751586914e+00 -3.725020885467529297e+00 6.522817537188529968e-03
-5.480847358703613281e+00 -4.904101848602294922e+00 7.830359786748886108e-02
-4.014056682586669922e+00 -3.861632347106933594e+00 6.805037148296833038e-03
-5.614233493804931641e+00 -4.961761474609375000e+00 7.977278530597686768e-02
-4.028976917266845703e+00 -3.828663587570190430e+00 6.790376268327236176e-03
-5.588827133178710938e+00 -4.878558635711669922e+00 7.898495346307754517e-02
-4.035623550415039062e+00 -3.788129329681396484e+00 6.762276869267225266e-03
-5.263466835021972656e+00 -4.537945270538330078e+00 7.399184256792068481e-02
-4.079323291778564453e+00 -3.782333135604858398e+00 6.796485278755426407e-03
-5.921589851379394531e+00 -5.042341709136962891e+00 8.280698210000991821e-02
-4.099504947662353516e+00 -3.754530429840087891e+00 6.791598629206418991e-03
-8.910585403442382812e+00 -6.960068702697753906e+00 2.289443463087081909e-01
-5.695280551910400391e+00 -4.789663314819335938e+00 7.922982424497604370e-02
-4.110599517822265625e+00 -3.718571662902832031e+00 6.772050634026527405e-03
-9.001416206359863281e+00 -6.942509651184082031e+00 2.301792502403259277e-01
-5.447641372680664062e+00 -4.524626731872558594e+00 7.539714872837066650e-02
-4.148998260498046875e+00 -3.707271575927734375e+00 6.797706708312034607e-03
-9.071684837341308594e+00 -6.908348083496093750e+00 2.308878153562545776e-01
-5.474528312683105469e+00 -4.490481376647949219e+00 7.538650184869766235e-02
-4.193410873413085938e+00 -3.700933933258056641e+00 6.833137478679418564e-03
-9.179430007934570312e+00 -6.901823520660400391e+00 2.325478494167327881e-01
-5.497316360473632812e+00 -4.453029155731201172e+00 7.532262802124023438e-02
-4.228101253509521484e+00 -3.685647249221801758e+00 6.852685008198022842e-03
-9.235253334045410156e+00 -6.855500698089599609e+00 2.328920066356658936e-01
-5.414435863494873047e+00 -4.331142425537109375e+00 7.382149994373321533e-02
-4.315051555633544922e+00 -3.715093612670898438e+00 6.956532131880521774e-03
-8.260238647460937500e+00 -6.053471088409423828e+00 2.073637545108795166e-01
-5.442478656768798828e+00 -4.299078464508056641e+00 7.384279370307922363e-02
-4.416994094848632812e+00 -3.755917787551879883e+00 7.083592005074024200e-03
-8.305326461791992188e+00 -6.008533954620361328e+00 2.075662165880203247e-01
-5.555485725402832031e+00 -4.333252429962158203e+00 7.501388341188430786e-02
-4.446083068847656250e+00 -3.733889818191528320e+00 7.093365769833326340e-03
-8.270440101623535156e+00 -5.906328678131103516e+00 2.057847082614898682e-01
-5.894103050231933594e+00 -4.539480209350585938e+00 7.920853048563003540e-02
-4.492001533508300781e+00 -3.725690841674804688e+00 7.130017969757318497e-03
-9.834630966186523438e+00 -6.932670116424560547e+00 2.436418086290359497e-01
-5.724451065063476562e+00 -4.353121757507324219e+00 7.656824588775634766e-02
-4.503946781158447266e+00 -3.689187049865722656e+00 7.112913765013217926e-03
-8.817475318908691406e+00 -6.135011672973632812e+00 2.175062298774719238e-01
-5.797432899475097656e+00 -4.352736949920654297e+00 7.718573510646820068e-02
-4.484514236450195312e+00 -3.627520799636840820e+00 7.046939805150032043e-03
-8.717315673828125000e+00 -5.986276149749755859e+00 2.141254097223281860e-01
-5.762176513671875000e+00 -4.271232128143310547e+00 7.636596262454986572e-02
-4.540285110473632812e+00 -3.626773595809936523e+00 7.099474314600229263e-03
-8.786159515380859375e+00 -5.954549789428710938e+00 2.149149328470230103e-01
-5.773750305175781250e+00 -4.225166320800781250e+00 7.617433369159698486e-02
-4.578940868377685547e+00 -3.611852169036865234e+00 7.125130854547023773e-03
-8.957162857055664062e+00 -5.990569114685058594e+00 2.181945443153381348e-01
-5.792272090911865234e+00 -4.184389591217041016e+00 7.607851922512054443e-02
-4.390373229980468750e+00 -3.419620275497436523e+00 6.798928603529930115e-03
-6.265614509582519531e+00 -4.468085289001464844e+00 8.193399012088775635e-02
-4.725967884063720703e+00 -3.634642124176025391e+00 7.283955812454223633e-03
-1.039480781555175781e+01 -6.768940448760986328e+00 2.511727213859558105e-01
-6.354238510131835938e+00 -4.472723484039306641e+00 8.273246139287948608e-02
-4.746587753295898438e+00 -3.604366302490234375e+00 7.281512487679719925e-03
-6.401272296905517578e+00 -4.447343349456787109e+00 8.298797160387039185e-02
-4.743010997772216797e+00 -3.555978298187255859e+00 7.242416962981224060e-03
-9.808285713195800781e+00 -6.216950893402099609e+00 2.351391464471817017e-01
-6.464725971221923828e+00 -4.432863235473632812e+00 8.345640450716018677e-02
-4.747057914733886719e+00 -3.513720035552978516e+00 7.215538527816534042e-03
-9.765714645385742188e+00 -6.106295585632324219e+00 2.332159131765365601e-01
-6.540664196014404297e+00 -4.426177978515625000e+00 8.408454060554504395e-02
-4.796787738800048828e+00 -3.505176544189453125e+00 7.258299738168716431e-03
-6.627572059631347656e+00 -4.425945281982421875e+00 8.485107123851776123e-02
-4.802795410156250000e+00 -3.464562416076660156e+00 7.235086522996425629e-03
-6.614526748657226562e+00 -4.358785629272460938e+00 8.434005081653594971e-02
-4.800340175628662109e+00 -3.418206214904785156e+00 7.199656218290328979e-03
-8.538162231445312500e+00 -5.122579574584960938e+00 2.016143500804901123e-01
-6.695637702941894531e+00 -4.353548049926757812e+00 8.503206074237823486e-02
-4.922671318054199219e+00 -3.459992170333862305e+00 7.351150736212730408e-03
-6.709599971771240234e+00 -4.304283618927001953e+00 8.487236499786376953e-02
-4.835352420806884766e+00 -3.354481220245361328e+00 7.189882453531026840e-03
-6.881214141845703125e+00 -4.355010032653808594e+00 8.670352399349212646e-02
-4.856668949127197266e+00 -3.325313806533813477e+00 7.191103883087635040e-03
-6.847583770751953125e+00 -4.275106906890869141e+00 8.594764024019241333e-02
-5.053467750549316406e+00 -3.414705991744995117e+00 7.451333105564117432e-03
-9.723034858703613281e+00 -5.058458805084228516e+00 3.252903819084167480e-01
-6.989482879638671875e+00 -4.304321289062500000e+00 8.739554136991500854e-02
-4.860502719879150391e+00 -3.241054296493530273e+00 7.137348409742116928e-03
-9.746773719787597656e+00 -4.995057582855224609e+00 3.250530660152435303e-01
-6.845687866210937500e+00 -4.158051013946533203e+00 8.527692407369613647e-02
-4.923737049102783203e+00 -3.239752531051635742e+00 7.200877647846937180e-03
-9.752254486083984375e+00 -4.922546863555908203e+00 3.242224156856536865e-01
-1.056774044036865234e+01 -5.822355747222900391e+00 2.443098723888397217e-01
-6.630885124206542969e+00 -3.972089529037475586e+00 8.229596167802810669e-02
-5.074366569519042969e+00 -3.294427394866943359e+00 7.391467690467834473e-03
-9.837769508361816406e+00 -4.890200614929199219e+00 3.260616958141326904e-01
-1.039766788482666016e+01 -5.645766735076904297e+00 2.395726740360260010e-01
-6.767917156219482422e+00 -3.997952461242675781e+00 8.369062840938568115e-02
-5.079328060150146484e+00 -3.253520727157592773e+00 7.369476370513439178e-03
-1.315439414978027344e+01 -6.447029590606689453e+00 1.500939607620239258e+00
-1.267264556884765625e+01 -6.205436706542968750e+00 9.297912120819091797e-01
-9.874772071838378906e+00 -4.833261013031005859e+00 3.262990415096282959e-01
-9.292285919189453125e+00 -4.971979141235351562e+00 2.133966088294982910e-01
-6.935753345489501953e+00 -4.039896011352539062e+00 8.545791357755661011e-02
-5.072144508361816406e+00 -3.205199003219604492e+00 7.330381777137517929e-03
-1.262270736694335938e+01 -6.098827838897705078e+00 2.476949214935302734e+00
-1.266104221343994141e+01 -6.114624500274658203e+00 1.958525061607360840e+00
-1.266330432891845703e+01 -6.110266685485839844e+00 1.440600395202636719e+00
-1.259453296661376953e+01 -6.071664333343505859e+00 9.213092923164367676e-01
-9.325271606445312500e+00 -4.916267871856689453e+00 2.134573459625244141e-01
-6.978620529174804688e+00 -4.007720470428466797e+00 8.568148314952850342e-02
-5.028917789459228516e+00 -3.134870290756225586e+00 7.239973172545433044e-03
-1.260208702087402344e+01 -5.993769168853759766e+00 2.465639829635620117e+00
-1.262228965759277344e+01 -6.000676631927490234e+00 1.946798205375671387e+00
-1.261892986297607422e+01 -5.988282203674316406e+00 9.203887581825256348e-01
-9.254114151000976562e+00 -4.806422233581542969e+00 2.111494690179824829e-01
-7.083135128021240234e+00 -4.010148525238037109e+00 8.666094392538070679e-02
-5.013132572174072266e+00 -3.082479238510131836e+00 7.189882453531026840e-03
-1.261722278594970703e+01 -5.906311511993408203e+00 2.461463928222656250e+00
-1.262298870086669922e+01 -5.906324863433837891e+00 1.941279768943786621e+00
-1.265983104705810547e+01 -5.918178081512451172e+00 1.431834816932678223e+00
-1.190775394439697266e+01 -5.561534881591796875e+00 8.660122752189636230e-01
-9.296782493591308594e+00 -4.756380558013916016e+00 2.114531546831130981e-01
-7.025529861450195312e+00 -3.920805692672729492e+00 8.566019684076309204e-02
-5.128571987152099609e+00 -3.110257148742675781e+00 7.327937521040439606e-03
-1.270778465270996094e+01 -5.853915691375732422e+00 2.472077608108520508e+00
-1.271746826171875000e+01 -5.855685710906982422e+00 1.950247287750244141e+00
-1.268957996368408203e+01 -5.837477207183837891e+00 1.431121349334716797e+00
-1.176032257080078125e+01 -5.405025959014892578e+00 8.528620004653930664e-01
-9.388291358947753906e+00 -4.730740070343017578e+00 2.128702551126480103e-01
-7.229064464569091797e+00 -3.976419925689697266e+00 8.784268796443939209e-02
-5.199052333831787109e+00 -3.109527826309204102e+00 7.401241455227136612e-03
-1.271117496490478516e+01 -5.761197090148925781e+00 2.465813875198364258e+00
-1.340633392333984375e+01 -6.073449611663818359e+00 2.050132513046264648e+00
-1.348825168609619141e+01 -6.104887008666992188e+00 1.516941666603088379e+00
-1.178599166870117188e+01 -5.329474925994873047e+00 8.523359894752502441e-01
-7.385189533233642578e+00 -4.003470420837402344e+00 8.943963050842285156e-02
-5.229231834411621094e+00 -3.084172725677490234e+00 7.417124230414628983e-03
-1.356563949584960938e+01 -6.048413276672363281e+00 2.624320507049560547e+00
-1.376359939575195312e+01 -6.133797168731689453e+00 2.098971605300903320e+00
-1.320204734802246094e+01 -6.467705249786376953e+00 1.904134392738342285e+00
-1.395076942443847656e+01 -6.211373805999755859e+00 1.564642429351806641e+00
-1.275574684143066406e+01 -6.243541717529296875e+00 1.319960474967956543e+00
-1.184491062164306641e+01 -5.268817901611328125e+00 8.542428016662597656e-01
-1.264187622070312500e+01 -6.182336807250976562e+00 7.941726446151733398e-01
-1.394508838653564453e+01 -6.200097084045410156e+00 4.529442191123962402e-01
-7.401677608489990234e+00 -3.953840017318725586e+00 8.934381604194641113e-02
-5.102830886840820312e+00 -2.967571496963500977e+00 7.211873773485422134e-03
-1.402455806732177734e+01 -6.150147914886474609e+00 2.705748558044433594e+00
-1.262908935546875000e+01 -6.096644878387451172e+00 2.336692094802856445e+00
-1.422278881072998047e+01 -6.234117984771728516e+00 2.163124561309814453e+00
-1.265462112426757812e+01 -6.103524208068847656e+00 1.819743156433105469e+00
-1.450165271759033203e+01 -6.350315570831298828e+00 1.622025847434997559e+00
-1.265388488769531250e+01 -6.097725868225097656e+00 1.305523514747619629e+00
-1.392294979095458984e+01 -6.091108798980712891e+00 1.001394510269165039e+00
-1.121415805816650391e+01 -5.399118900299072266e+00 7.023878097534179688e-01
-1.400851154327392578e+01 -6.125628471374511719e+00 4.537748694419860840e-01
-7.424914360046386719e+00 -3.907884359359741211e+00 8.933316916227340698e-02
-5.146968364715576172e+00 -2.951127290725708008e+00 7.248525042086839676e-03
-1.452591228485107422e+01 -6.264019012451171875e+00 2.795006513595581055e+00
-1.261013126373291016e+01 -5.992366790771484375e+00 2.326337337493896484e+00
-1.485015964508056641e+01 -6.400770664215087891e+00 2.252524614334106445e+00
-1.261389255523681641e+01 -5.988757610321044922e+00 1.808568120002746582e+00
-1.392798042297363281e+01 -5.991763114929199219e+00 9.990932345390319824e-01
-1.126602172851562500e+01 -5.339187622070312500e+00 7.035710215568542480e-01
-1.443518066406250000e+01 -6.206973075866699219e+00 4.663533866405487061e-01
-7.533084392547607422e+00 -3.905979156494140625e+00 9.034456312656402588e-02
-5.319937229156494141e+00 -3.007080316543579102e+00 7.465993054211139679e-03
-1.263862133026123047e+01 -5.911118984222412109e+00 2.324858188629150391e+00
-1.264051818847656250e+01 -5.906629085540771484e+00 1.807155013084411621e+00
-1.268355178833007812e+01 -5.921344757080078125e+00 1.300988793373107910e+00
-1.453703117370605469e+01 -6.148345470428466797e+00 1.040056347846984863e+00
-1.133023929595947266e+01 -5.284731388092041016e+00 7.055431008338928223e-01
-1.391785049438476562e+01 -6.485749721527099609e+00 3.109140694141387939e-01
-7.809815883636474609e+00 -3.988855123519897461e+00 9.336812049150466919e-02
-5.428264617919921875e+00 -3.024513959884643555e+00 7.591831497848033905e-03
-1.273289680480957031e+01 -5.860264778137207031e+00 2.335541725158691406e+00
-1.271256351470947266e+01 -5.845529556274414062e+00 1.812293052673339844e+00
-1.272055053710937500e+01 -5.843824386596679688e+00 1.301081418991088867e+00
-1.130891513824462891e+01 -5.190538883209228516e+00 7.022187709808349609e-01
-1.438288211822509766e+01 -5.976434230804443359e+00 4.622594416141510010e-01
-1.413823699951171875e+01 -6.483160018920898438e+00 3.149427175521850586e-01
-7.959204673767089844e+00 -4.003769874572753906e+00 9.485860913991928101e-02
-5.431819915771484375e+00 -2.982966899871826172e+00 7.571062538772821426e-03
-1.315859222412109375e+01 -5.958621025085449219e+00 2.406873464584350586e+00
-1.348368167877197266e+01 -6.100160598754882812e+00 1.916850924491882324e+00
-1.349201393127441406e+01 -6.098257541656494141e+00 1.376134872436523438e+00
-1.275095462799072266e+01 -5.757946491241455078e+00 7.895523905754089355e-01
-7.894018173217773438e+00 -3.910470962524414062e+00 9.379397332668304443e-02
-5.459694385528564453e+00 -2.954817295074462891e+00 7.584501057863235474e-03
-1.269720172882080078e+01 -5.661375522613525391e+00 2.843590974807739258e+00
-1.357514762878417969e+01 -6.047150611877441406e+00 2.476233005523681641e+00
-1.381441497802734375e+01 -6.147955894470214844e+00 1.958468556404113770e+00
-1.324915695190429688e+01 -6.482363700866699219e+00 1.771881937980651855e+00
-1.397499465942382812e+01 -6.213576793670654297e+00 1.421481609344482422e+00
-1.262541294097900391e+01 -6.171725749969482422e+00 1.172666907310485840e+00
-1.277418327331542969e+01 -5.674330711364746094e+00 7.888199687004089355e-01
-1.074746894836425781e+01 -5.249076366424560547e+00 5.619651675224304199e-01
-1.338878440856933594e+01 -5.941743373870849609e+00 2.966012656688690186e-01
-7.823497295379638672e+00 -3.815932989120483398e+00 9.267611801624298096e-02
-5.464486598968505859e+00 -2.914203166961669922e+00 7.566175423562526703e-03
-1.272990608215332031e+01 -5.582573413848876953e+00 2.843190193176269531e+00
-1.263672828674316406e+01 -6.100502490997314453e+00 2.202404737472534180e+00
-1.427978134155273438e+01 -6.250372886657714844e+00 2.018968105316162109e+00
-1.262406921386718750e+01 -6.080812931060791016e+00 1.683263897895812988e+00
-1.452739238739013672e+01 -6.352712631225585938e+00 1.473676681518554688e+00
-1.265227031707763672e+01 -6.088956356048583984e+00 1.171669125556945801e+00
-1.279778099060058594e+01 -5.591046810150146484e+00 7.881438136100769043e-01
-1.077767276763916016e+01 -5.182166576385498047e+00 5.618712306022644043e-01
-5.738710403442382812e+00 -2.261622905731201172e+00 1.830704063177108765e-01
-1.402151393890380859e+01 -6.119838714599609375e+00 3.097803890705108643e-01
-8.045974731445312500e+00 -3.863514184951782227e+00 9.502894431352615356e-02
-5.430036067962646484e+00 -2.853175401687622070e+00 7.494093384593725204e-03
-1.275582408905029297e+01 -5.500867366790771484e+00 2.841386795043945312e+00
-1.456691741943359375e+01 -6.275860786437988281e+00 2.642892837524414062e+00
-1.263555431365966797e+01 -6.004617214202880859e+00 2.195737361907958984e+00
-1.497281646728515625e+01 -6.444538116455078125e+00 2.111323356628417969e+00
-1.280524253845214844e+01 -5.500987052917480469e+00 7.865098118782043457e-01
-1.079301643371582031e+01 -5.108246326446533203e+00 5.610264539718627930e-01
-5.750614643096923828e+00 -2.225646495819091797e+00 1.830110698938369751e-01
-1.440700817108154297e+01 -6.183131694793701172e+00 3.174530267715454102e-01
-8.452845573425292969e+00 -3.995247125625610352e+00 9.954297542572021484e-02
-5.324886798858642578e+00 -2.756365060806274414e+00 7.325494661927223206e-03
-1.279023838043212891e+01 -5.422877788543701172e+00 2.841587066650390625e+00
-1.266410636901855469e+01 -5.923206806182861328e+00 2.194341897964477539e+00
-1.267254829406738281e+01 -5.913682460784912109e+00 1.679924368858337402e+00
-1.267094230651855469e+01 -5.907547950744628906e+00 1.166596531867980957e+00
-1.283323669433593750e+01 -5.419981956481933594e+00 7.861717939376831055e-01
-1.084769916534423828e+01 -5.052891731262207031e+00 5.622467398643493652e-01
-5.754818916320800781e+00 -2.186769008636474609e+00 1.827144026756286621e-01
-1.443177986145019531e+01 -6.089174270629882812e+00 3.171696066856384277e-01
-8.510746955871582031e+00 -3.958910465240478516e+00 9.993688762187957764e-02
-4.903387546539306641e+00 -2.500152826309204102e+00 6.724403239786624908e-03
-1.279885482788085938e+01 -5.334120750427246094e+00 2.836176395416259766e+00
-1.269519329071044922e+01 -5.845765113830566406e+00 2.721808195114135742e+00
-1.269752120971679688e+01 -5.844151020050048828e+00 2.193876743316650391e+00
-1.272212886810302734e+01 -5.842028617858886719e+00 1.681713342666625977e+00
