-1.041949272155761719e+01 2.006949663162231445e+00 7.848104834556579590e-01
-1.173554611206054688e+01 3.160451650619506836e+00 6.858789324760437012e-01
-1.046033287048339844e+01 2.413516044616699219e+00 5.043794512748718262e-01
-1.043561935424804688e+01 2.015723228454589844e+00 3.990177810192108154e-01
-7.064513683319091797e+00 2.181766510009765625e+00 2.194412201642990112e-01
-1.153833770751953125e+01 3.111662149429321289e+00 2.419817745685577393e-01
-9.062253952026367188e+00 2.095935106277465820e+00 9.903194755315780640e-02
-6.678097248077392578e+00 1.292346000671386719e+00 8.310209028422832489e-03
-1.300490474700927734e+01 4.091464519500732422e+00 4.017678260803222656e+00
-1.173554897308349609e+01 3.211377382278442383e+00 3.447503566741943359e+00
-1.254222202301025391e+01 2.935761928558349609e+00 3.514240980148315430e+00
-1.402240276336669922e+01 2.739412546157836914e+00 3.756247758865356445e+00
-1.249049377441406250e+01 3.927230596542358398e+00 3.325284957885742188e+00
-1.176281452178955078e+01 3.223252296447753906e+00 2.966407060623168945e+00
-1.368559265136718750e+01 3.210950374603271484e+00 3.276392221450805664e+00
-1.307379245758056641e+01 2.565938711166381836e+00 2.978091716766357422e+00
-1.440251922607421875e+01 4.525642871856689453e+00 3.241990327835083008e+00
-1.171542930603027344e+01 3.214664697647094727e+00 2.484885692596435547e+00
-1.248857975006103516e+01 3.431501865386962891e+00 2.158033847808837891e+00
-1.049892330169677734e+01 2.089139699935913086e+00 7.917439341545104980e-01
-1.174192047119140625e+01 3.239569664001464844e+00 6.874002814292907715e-01
-1.044824314117431641e+01 2.478345632553100586e+00 5.045202374458312988e-01
-1.052889251708984375e+01 2.100834846496582031e+00 4.030694961547851562e-01
-1.155468368530273438e+01 3.192252397537231445e+00 2.427308112382888794e-01
-9.042413711547851562e+00 2.149881362915039062e+00 9.895742684602737427e-02
-6.669060707092285156e+00 1.333101630210876465e+00 8.308987133204936981e-03
-1.366720867156982422e+01 4.392172336578369141e+00 4.230533599853515625e+00
-1.480248546600341797e+01 4.148423671722412109e+00 4.355860233306884766e+00
-1.447685718536376953e+01 3.482434272766113281e+00 4.062222957611083984e+00
-1.310843372344970703e+01 4.210077285766601562e+00 3.496607780456542969e+00
-1.313582420349121094e+01 3.686284542083740234e+00 3.318301439285278320e+00
-1.333521080017089844e+01 3.215196609497070312e+00 3.197172403335571289e+00
-1.325387954711914062e+01 2.685843944549560547e+00 3.022810935974121094e+00
-1.416129684448242188e+01 4.545502185821533203e+00 3.193909645080566406e+00
-1.482496929168701172e+01 4.761382579803466797e+00 2.751160383224487305e+00
-1.051325988769531250e+01 2.159137964248657227e+00 7.938092350959777832e-01
-1.046874713897705078e+01 2.551158666610717773e+00 5.062566995620727539e-01
-1.050405883789062500e+01 2.162980794906616211e+00 4.026193022727966309e-01
-1.495822906494140625e+01 4.821467876434326172e+00 4.664423763751983643e-01
-1.235261440277099609e+01 3.494418621063232422e+00 2.599385678768157959e-01
-9.304926872253417969e+00 2.272705793380737305e+00 1.019809842109680176e-01
-6.618642807006835938e+00 1.365309953689575195e+00 8.256453089416027069e-03
-1.300749015808105469e+01 4.268392086029052734e+00 4.034356117248535156e+00
-1.386516952514648438e+01 3.425424575805664062e+00 3.896407127380371094e+00
-1.297736358642578125e+01 4.255997657775878906e+00 3.468546152114868164e+00
-1.483694744110107422e+01 4.262046337127685547e+00 3.754565715789794922e+00
-1.309118366241455078e+01 3.241483449935913086e+00 3.143375396728515625e+00
-1.355143356323242188e+01 2.832816123962402344e+00 3.094580173492431641e+00
-1.296621608734130859e+01 4.249835491180419922e+00 2.930199861526489258e+00
-1.283695888519287109e+01 3.692383050918579102e+00 2.732172012329101562e+00
-1.253573036193847656e+01 4.111161708831787109e+00 2.330970048904418945e+00
-1.282183265686035156e+01 3.692878484725952148e+00 2.223284482955932617e+00
-1.051152133941650391e+01 2.226084947586059570e+00 7.946943640708923340e-01
-1.049359607696533203e+01 2.625528812408447266e+00 5.082278251647949219e-01
-1.060495758056640625e+01 2.251674890518188477e+00 4.070086479187011719e-01
-9.268498420715332031e+00 2.324163198471069336e+00 1.017361208796501160e-01
-6.628725051879882812e+00 1.409848093986511230e+00 8.279666304588317871e-03
-1.254265308380126953e+01 4.201277732849121094e+00 3.898106575012207031e+00
-1.229020595550537109e+01 3.607591629028320312e+00 3.629338502883911133e+00
-1.386539840698242188e+01 3.515888929367065430e+00 3.902460575103759766e+00
-1.320467567443847656e+01 4.420465469360351562e+00 3.536484479904174805e+00
-1.316790771484375000e+01 3.870219707489013672e+00 3.338153123855590820e+00
-1.262647438049316406e+01 3.208768606185913086e+00 3.036462545394897461e+00
-1.342312908172607422e+01 2.892069101333618164e+00 3.069275617599487305e+00
-1.292691516876220703e+01 4.324971675872802734e+00 2.927260398864746094e+00
-1.302741050720214844e+01 3.833866357803344727e+00 2.777661323547363281e+00
-1.269106864929199219e+01 3.739697933197021484e+00 2.204547643661499023e+00
-1.054248523712158203e+01 2.300320148468017578e+00 7.980873584747314453e-01
-1.062531948089599609e+01 2.727871179580688477e+00 5.154084563255310059e-01
-1.060167980194091797e+01 2.319052219390869141e+00 4.074213206768035889e-01
-1.491499233245849609e+01 5.010395050048828125e+00 4.669763743877410889e-01
-1.233085155487060547e+01 3.652271986007690430e+00 2.604041993618011475e-01
-9.262778282165527344e+00 2.383232355117797852e+00 1.018319353461265564e-01
-6.741075992584228516e+00 1.477034687995910645e+00 8.431160822510719299e-03
-1.163439273834228516e+01 3.976609230041503906e+00 3.623345136642456055e+00
-1.478259372711181641e+01 4.437891006469726562e+00 4.373307704925537109e+00
-1.274649906158447266e+01 3.315537691116333008e+00 3.593200922012329102e+00
-1.481031322479248047e+01 3.272606134414672852e+00 3.987628221511840820e+00
-1.294800567626953125e+01 4.423075675964355469e+00 3.474946260452270508e+00
-1.448110103607177734e+01 4.352890491485595703e+00 3.677758455276489258e+00
-1.266214942932128906e+01 3.300676822662353516e+00 3.049854993820190430e+00
-1.325269222259521484e+01 2.940553665161132812e+00 3.034372568130493164e+00
-1.303741359710693359e+01 3.923893690109252930e+00 2.784875392913818359e+00
-1.266072654724121094e+01 3.312107563018798828e+00 2.054016828536987305e+00
-1.328391838073730469e+01 2.969383478164672852e+00 2.007580757141113281e+00
-1.181575202941894531e+01 3.102077484130859375e+00 1.467503666877746582e+00
-1.180442333221435547e+01 3.103508472442626953e+00 1.018495559692382812e+00
-1.050287342071533203e+01 2.359281301498413086e+00 7.961695790290832520e-01
-1.061417770385742188e+01 2.794541597366333008e+00 5.156900882720947266e-01
-1.049756145477294922e+01 2.363862752914428711e+00 4.039698541164398193e-01
-7.064565658569335938e+00 2.139688968658447266e+00 1.494646817445755005e-01
-9.431683540344238281e+00 2.488491535186767578e+00 1.038547307252883911e-01
-6.717253208160400391e+00 1.515068888664245605e+00 8.412834256887435913e-03
-1.281078529357910156e+01 4.466672420501708984e+00 3.998173952102661133e+00
-1.291000938415527344e+01 3.962235927581787109e+00 3.826439857482910156e+00
-1.175180244445800781e+01 3.133914709091186523e+00 3.318157434463500977e+00
-1.345055484771728516e+01 4.687104701995849609e+00 3.617469072341918945e+00
-1.406123447418212891e+01 4.320931911468505859e+00 3.577791213989257812e+00
-1.178922176361083984e+01 3.150506019592285156e+00 2.844200849533081055e+00
-1.326674747467041016e+01 3.029201507568359375e+00 3.041789293289184570e+00
-1.312358570098876953e+01 4.037812232971191406e+00 2.808521986007690430e+00
-1.178970241546630859e+01 3.159454822540283203e+00 2.376970767974853516e+00
-1.338504981994628906e+01 4.664278030395507812e+00 2.504440069198608398e+00
-1.180047702789306641e+01 3.164549827575683594e+00 1.917568206787109375e+00
-1.181375217437744141e+01 3.179163217544555664e+00 1.469650506973266602e+00
-1.179381942749023438e+01 3.178214550018310547e+00 1.019244074821472168e+00
-1.098763751983642578e+01 2.539094686508178711e+00 8.340824246406555176e-01
-1.157569599151611328e+01 3.123769044876098633e+00 5.633261203765869141e-01
-1.049746227264404297e+01 2.431612730026245117e+00 4.045326113700866699e-01
-1.494013309478759766e+01 5.223728656768798828e+00 4.697353243827819824e-01
-7.055124282836914062e+00 2.184178829193115234e+00 1.495456546545028687e-01
-9.636319160461425781e+00 2.605830669403076172e+00 1.062820926308631897e-01
-6.874406337738037109e+00 1.594903230667114258e+00 8.621750399470329285e-03
-1.280392360687255859e+01 4.552584648132324219e+00 4.004675388336181641e+00
-1.303325748443603516e+01 4.087732315063476562e+00 3.870331048965454102e+00
-1.175468730926513672e+01 3.212066650390625000e+00 3.324474334716796875e+00
-1.336022090911865234e+01 3.124618053436279297e+00 3.607248783111572266e+00
-1.430468177795410156e+01 5.083384513854980469e+00 3.855499267578125000e+00
-1.450168418884277344e+01 4.553848266601562500e+00 3.696901082992553711e+00
-1.178187942504882812e+01 3.226127624511718750e+00 2.847151517868041992e+00
-1.367829704284667969e+01 3.211600303649902344e+00 3.140608310699462891e+00
-1.339330577850341797e+01 4.756880760192871094e+00 3.052186727523803711e+00
-1.249854469299316406e+01 3.929611921310424805e+00 2.679869174957275391e+00
-1.176536178588867188e+01 3.230436086654663086e+00 2.376014947891235352e+00
-1.360310459136962891e+01 3.206473350524902344e+00 2.585235118865966797e+00
-1.209052371978759766e+01 4.296550273895263672e+00 2.267114877700805664e+00
-1.060799884796142578e+01 2.520029306411743164e+00 8.064222931861877441e-01
-1.174790573120117188e+01 3.247703552246093750e+00 5.726656317710876465e-01
-1.061163616180419922e+01 2.526763916015625000e+00 4.095222055912017822e-01
-1.496683311462402344e+01 4.734375476837158203e+00 3.178579211235046387e-01
-9.924663543701171875e+00 2.749263525009155273e+00 1.096463277935981750e-01
-6.439411640167236328e+00 1.535680294036865234e+00 8.087853901088237762e-03
-1.314728832244873047e+01 4.765741348266601562e+00 4.121138095855712891e+00
-1.322049999237060547e+01 4.235731601715087891e+00 3.933578014373779297e+00
-1.291092681884765625e+01 3.613298654556274414e+00 3.657684803009033203e+00
-1.426234340667724609e+01 3.428035259246826172e+00 3.856427907943725586e+00
-1.300928974151611328e+01 4.713150024414062500e+00 3.514084577560424805e+00
-1.292092418670654297e+01 4.144723892211914062e+00 3.300340414047241211e+00
-1.333817577362060547e+01 3.740401983261108398e+00 3.228724002838134766e+00
-1.302460765838623047e+01 3.142563581466674805e+00 2.994888782501220703e+00
-1.333260917663574219e+01 4.827652931213378906e+00 3.045047998428344727e+00
-1.221301555633544922e+01 3.922346115112304688e+00 2.623758792877197266e+00
-1.384407711029052734e+01 3.353071451187133789e+00 2.634891986846923828e+00
-1.206671047210693359e+01 4.371661663055419922e+00 2.267637014389038086e+00
-1.245085620880126953e+01 4.003526210784912109e+00 2.179236173629760742e+00
-1.081420135498046875e+01 2.639217615127563477e+00 8.233134150505065918e-01
-1.099973487854003906e+01 2.690600633621215820e+00 4.251287579536437988e-01
-1.494035530090332031e+01 4.827043056488037109e+00 3.179186284542083740e-01
-9.987453460693359375e+00 2.832755088806152344e+00 1.105299741029739380e-01
-6.990295886993408203e+00 1.712454319000244141e+00 8.792792446911334991e-03
-1.302062320709228516e+01 4.810420513153076172e+00 4.090609073638916016e+00
-1.304063701629638672e+01 4.266510009765625000e+00 3.887778520584106445e+00
-1.283286762237548828e+01 3.676508665084838867e+00 3.641893148422241211e+00
-1.324834823608398438e+01 4.891924858093261719e+00 3.586699962615966797e+00
-1.333386230468750000e+01 4.367597579956054688e+00 3.412596940994262695e+00
-1.368192195892333984e+01 3.927508592605590820e+00 3.317704677581787109e+00
-1.279573249816894531e+01 3.170549392700195312e+00 2.946678876876831055e+00
-1.305324745178222656e+01 4.817296028137207031e+00 2.987938880920410156e+00
-1.219709682464599609e+01 3.999957561492919922e+00 2.625562191009521484e+00
-1.317086505889892578e+01 3.790760040283203125e+00 2.669050455093383789e+00
-1.326367187500000000e+01 4.897583007812500000e+00 2.498176336288452148e+00
-1.473397541046142578e+01 5.443412303924560547e+00 2.187957763671875000e+00
-1.070291805267333984e+01 2.687704563140869141e+00 4.142867028713226318e-01
-1.484779071807861328e+01 4.897952556610107422e+00 3.165825009346008301e-01
-1.024549102783203125e+01 2.973984718322753906e+00 1.135854572057723999e-01
-6.863280773162841797e+00 1.726046204566955566e+00 8.646184578537940979e-03
-1.354295730590820312e+01 5.098051548004150391e+00 4.264454841613769531e+00
-1.304158973693847656e+01 4.355588912963867188e+00 3.895956993103027344e+00
-1.245826911926269531e+01 3.652053356170654297e+00 3.541877269744873047e+00
-1.423607730865478516e+01 3.607073545455932617e+00 3.861004590988159180e+00
-1.315186023712158203e+01 4.948208332061767578e+00 3.568730831146240234e+00
-1.242859935760498047e+01 4.155687332153320312e+00 3.187374830245971680e+00
-1.333425426483154297e+01 3.916424989700317383e+00 3.239165544509887695e+00
-1.294723033905029297e+01 3.292537927627563477e+00 2.986163139343261719e+00
-1.324856853485107422e+01 4.981954097747802734e+00 3.039588928222656250e+00
-1.482474327087402344e+01 4.962627410888671875e+00 3.197687149047851562e+00
-1.303719234466552734e+01 3.839063405990600586e+00 2.646685600280761719e+00
-1.299011039733886719e+01 3.325175523757934570e+00 1.977669239044189453e+00
-1.483006858825683594e+01 5.582565784454345703e+00 2.207272529602050781e+00
-1.067364597320556641e+01 2.750084877014160156e+00 4.137990176677703857e-01
-1.486672973632812500e+01 5.005554199218750000e+00 3.176352083683013916e-01
-1.012639904022216797e+01 3.006906986236572266e+00 1.124675944447517395e-01
-7.067520141601562500e+00 1.823590755462646484e+00 8.917408995330333710e-03
-1.312092876434326172e+01 5.031316280364990234e+00 4.141208171844482422e+00
-1.303101158142089844e+01 4.441115379333496094e+00 3.900864124298095703e+00
-1.293371677398681641e+01 3.877763509750366211e+00 3.683741569519042969e+00
-1.427358341217041016e+01 3.709927082061767578e+00 3.877277612686157227e+00
-1.312476539611816406e+01 4.478181838989257812e+00 3.372893333435058594e+00
-1.262348747253417969e+01 3.791956186294555664e+00 3.072099924087524414e+00
-1.341877460479736328e+01 3.500252962112426758e+00 3.099815607070922852e+00
-1.317940425872802734e+01 5.048462867736816406e+00 3.030770778656005859e+00
-1.480606651306152344e+01 5.057613849639892578e+00 3.200292348861694336e+00
-1.216657161712646484e+01 3.663965940475463867e+00 2.474457979202270508e+00
-1.266417980194091797e+01 3.315225124359130859e+00 2.421532154083251953e+00
-1.227145481109619141e+01 4.196598052978515625e+00 2.160992383956909180e+00
-1.179825019836425781e+01 3.097345113754272461e+00 1.799074888229370117e+00
-1.331403923034667969e+01 5.105366230010986328e+00 1.986255645751953125e+00
-1.179048347473144531e+01 3.101906061172485352e+00 1.348129034042358398e+00
-1.183418941497802734e+01 3.120030641555786133e+00 9.051874279975891113e-01
-1.067782592773437500e+01 2.821141004562377930e+00 4.146243631839752197e-01
-1.429424571990966797e+01 5.495546340942382812e+00 4.545165598392486572e-01
-1.479980468750000000e+01 5.084336757659912109e+00 3.168659210205078125e-01
-7.070838451385498047e+00 2.146894931793212891e+00 7.867621630430221558e-02
-6.988526821136474609e+00 1.849017620086669922e+00 8.831888437271118164e-03
-1.287268924713134766e+01 5.026941776275634766e+00 4.072517871856689453e+00
-1.318890380859375000e+01 4.585443019866943359e+00 3.956477642059326172e+00
-1.174322414398193359e+01 3.129294633865356445e+00 3.195086240768432617e+00
-1.175205993652343750e+01 4.586958408355712891e+00 3.203931331634521484e+00
-1.287221050262451172e+01 4.480373859405517578e+00 3.314992666244506836e+00
-1.397598266601562500e+01 4.291898250579833984e+00 3.407593250274658203e+00
-1.178298759460449219e+01 3.150905847549438477e+00 2.726354360580444336e+00
-1.316821861267089844e+01 5.137052536010742188e+00 3.035389900207519531e+00
-1.482378768920898438e+01 5.165452957153320312e+00 3.210913181304931641e+00
-1.235024547576904297e+01 3.802086114883422852e+00 2.516511440277099609e+00
-1.181449508666992188e+01 3.170381307601928711e+00 2.262740135192871094e+00
-1.325658893585205078e+01 5.174192905426025391e+00 2.514357328414916992e+00
-1.178857517242431641e+01 3.172250032424926758e+00 1.800533890724182129e+00
-1.410910034179687500e+01 5.509775161743164062e+00 2.109870672225952148e+00
-1.197478008270263672e+01 4.182073593139648438e+00 1.642868280410766602e+00
-1.177698612213134766e+01 3.175745248794555664e+00 1.348788380622863770e+00
-1.180615806579589844e+01 3.190243721008300781e+00 9.045235514640808105e-01
-1.167406749725341797e+01 3.161110162734985352e+00 4.540534317493438721e-01
-1.461264514923095703e+01 5.120496749877929688e+00 3.135255873203277588e-01
-7.034611701965332031e+00 2.183127164840698242e+00 7.842069864273071289e-02
-6.999248027801513672e+00 1.897882699966430664e+00 8.859987370669841766e-03
-1.324627304077148438e+01 5.266729831695556641e+00 4.200852870941162109e+00
-1.286943340301513672e+01 4.563072681427001953e+00 3.868968009948730469e+00
-1.253807830810546875e+01 3.927468299865722656e+00 3.584515333175659180e+00
-1.174806022644042969e+01 3.207914352416992188e+00 3.201697111129760742e+00
-1.425019645690917969e+01 5.663010597229003906e+00 3.894391536712646484e+00
-1.293330001831054688e+01 4.590800762176513672e+00 3.337916851043701172e+00
-1.414080238342285156e+01 4.437643051147460938e+00 3.454353332519531250e+00
-1.180484676361083984e+01 3.234493017196655273e+00 2.735952615737915039e+00
-1.309919452667236328e+01 5.202956676483154297e+00 3.026781320571899414e+00
-1.172650051116943359e+01 3.688985347747802734e+00 2.393983125686645508e+00
-1.193040275573730469e+01 3.280090570449829102e+00 2.288750648498535156e+00
-1.407200527191162109e+01 5.592197418212890625e+00 2.675473928451538086e+00
-1.171511554718017578e+01 3.249508619308471680e+00 4.564169049263000488e-01
-1.412823677062988281e+01 5.631682395935058594e+00 4.514015913009643555e-01
-1.453575992584228516e+01 5.193914413452148438e+00 3.125538825988769531e-01
-1.038197803497314453e+01 3.291923999786376953e+00 1.159595847129821777e-01
-6.982653141021728516e+00 1.939455389976501465e+00 8.853878825902938843e-03
-1.283759498596191406e+01 5.195686817169189453e+00 4.081280708312988281e+00
-1.321216869354248047e+01 4.776056289672851562e+00 3.980740547180175781e+00
-1.396643733978271484e+01 4.469180107116699219e+00 4.000634193420410156e+00
-1.348663234710693359e+01 3.771721124649047852e+00 3.681748151779174805e+00
-1.421068763732910156e+01 5.748524188995361328e+00 3.893160820007324219e+00
-1.392364692687988281e+01 5.038743495941162109e+00 3.601423978805541992e+00
-1.238925457000732422e+01 3.971643209457397461e+00 3.032376527786254883e+00
-1.324307632446289062e+01 3.716070652008056641e+00 3.074511051177978516e+00
-1.308877754211425781e+01 5.292029857635498047e+00 3.031820535659790039e+00
-1.330942249298095703e+01 4.821721076965332031e+00 2.895493030548095703e+00
-1.166906833648681641e+01 3.749757766723632812e+00 2.386910676956176758e+00
-1.313484859466552734e+01 3.698069572448730469e+00 2.524119615554809570e+00
-1.396257019042968750e+01 5.648155689239501953e+00 2.661206722259521484e+00
-1.310922908782958984e+01 4.754372119903564453e+00 2.323543548583984375e+00
-1.210875320434570312e+01 3.893378257751464844e+00 1.996336340904235840e+00
-1.451864719390869141e+01 5.288481235504150391e+00 3.128777742385864258e-01
-1.056325912475585938e+01 3.420876741409301758e+00 1.182165965437889099e-01
-6.995629787445068359e+00 1.989375472068786621e+00 8.885643444955348969e-03
-1.292622184753417969e+01 4.762568473815917969e+00 3.903317689895629883e+00
-1.304098606109619141e+01 4.261427879333496094e+00 3.742961645126342773e+00
-1.290443801879882812e+01 3.694423675537109375e+00 3.528935432434082031e+00
-1.310183811187744141e+01 3.763311386108398438e+00 3.047024965286254883e+00
-1.330108737945556641e+01 5.473063945770263672e+00 3.088719606399536133e+00
-1.296434783935546875e+01 4.786897659301757812e+00 2.826757907867431641e+00
-1.259526538848876953e+01 4.132816791534423828e+00 2.581503152847290039e+00
-1.326970291137695312e+01 3.824066638946533203e+00 2.554495573043823242e+00
-1.345595932006835938e+01 5.539535999298095703e+00 2.571078777313232422e+00
-1.489390277862548828e+01 4.889935970306396484e+00 2.460416793823242188e+00
-1.265484809875488281e+01 3.656447649002075195e+00 1.942796587944030762e+00
-1.395273876190185547e+01 5.761145114898681641e+00 4.480196535587310791e-01
-1.448030090332031250e+01 5.375378608703613281e+00 3.127562999725341797e-01
-1.072245597839355469e+01 3.545269727706909180e+00 1.202393993735313416e-01
-7.197408676147460938e+00 2.094574213027954102e+00 9.158089756965637207e-03
-1.417418766021728516e+01 5.940094470977783203e+00 4.529039859771728516e+00
-1.286432838439941406e+01 4.829618453979492188e+00 3.893503427505493164e+00
-1.214243888854980469e+01 4.050435543060302734e+00 3.492132425308227539e+00
-1.286296272277832031e+01 3.768096208572387695e+00 3.523849964141845703e+00
-1.243695068359375000e+01 5.209504127502441406e+00 3.424484729766845703e+00
-1.270107841491699219e+01 4.773388862609863281e+00 3.300104141235351562e+00
-1.355054283142089844e+01 4.528031826019287109e+00 3.329962253570556641e+00
-1.250266456604003906e+01 3.674399852752685547e+00 2.912866830825805664e+00
-1.375245475769042969e+01 5.757712841033935547e+00 3.201678037643432617e+00
-1.279703712463378906e+01 3.773047924041748047e+00 2.467914819717407227e+00
-1.397758579254150391e+01 5.854835033416748047e+00 2.677561998367309570e+00
-1.446310138702392578e+01 5.452894210815429688e+00 2.002012968063354492e+00
-1.471075630187988281e+01 5.563867092132568359e+00 3.184652328491210938e-01
-1.069102573394775391e+01 3.607797384262084961e+00 1.201329380273818970e-01
-7.021487712860107422e+00 2.090194225311279297e+00 8.950395509600639343e-03
-1.317391490936279297e+01 5.616178512573242188e+00 4.220357418060302734e+00
-1.300968837738037109e+01 4.975479602813720703e+00 3.946663379669189453e+00
-1.295391941070556641e+01 4.409637451171875000e+00 3.733223438262939453e+00
-1.277660179138183594e+01 3.828075647354125977e+00 3.506560087203979492e+00
-1.209802055358886719e+01 5.155018806457519531e+00 3.339807987213134766e+00
-1.312345695495605469e+01 5.024241447448730469e+00 3.417796134948730469e+00
-1.372852611541748047e+01 4.126347064971923828e+00 3.204306364059448242e+00
-1.311508560180664062e+01 5.585689544677734375e+00 3.061214923858642578e+00
-1.294854068756103516e+01 4.962458610534667969e+00 2.836376667022705078e+00
-1.253988552093505859e+01 4.285799026489257812e+00 2.580738306045532227e+00
-1.336069583892822266e+01 5.693049907684326172e+00 2.566033124923706055e+00
-1.360429954528808594e+01 5.219221591949462891e+00 2.427911281585693359e+00
-1.211262130737304688e+01 4.142132759094238281e+00 2.009205818176269531e+00
-1.385525321960449219e+01 5.920934200286865234e+00 4.471889734268188477e-01
-1.437966060638427734e+01 5.539730548858642578e+00 3.120275139808654785e-01
-1.082847118377685547e+01 3.728343486785888672e+00 1.219321563839912415e-01
-6.992267131805419922e+00 2.128287792205810547e+00 8.929626084864139557e-03
-1.323980140686035156e+01 5.156826019287109375e+00 4.025994777679443359e+00
-1.301046276092529297e+01 4.518154621124267578e+00 3.757437705993652344e+00
-1.282962512969970703e+01 3.929909944534301758e+00 3.527663946151733398e+00
-1.242633342742919922e+01 5.385241985321044922e+00 3.439500093460083008e+00
-1.272497558593750000e+01 4.426480770111083984e+00 3.140197515487670898e+00
-1.303501224517822266e+01 4.005269050598144531e+00 3.048115730285644531e+00
-1.411050224304199219e+01 6.112191200256347656e+00 3.302248716354370117e+00
-1.327196121215820312e+01 5.180026054382324219e+00 2.914129734039306641e+00
-1.258062648773193359e+01 3.877668142318725586e+00 2.435174226760864258e+00
-1.309149265289306641e+01 5.673504829406738281e+00 2.520969152450561523e+00
-1.361703872680664062e+01 5.320187568664550781e+00 2.435965061187744141e+00
-1.220170974731445312e+01 4.256399154663085938e+00 2.028277635574340820e+00
-1.353053379058837891e+01 5.866578578948974609e+00 2.054271459579467773e+00
-1.333666133880615234e+01 5.216010093688964844e+00 1.854809880256652832e+00
-7.051269054412841797e+00 2.190911054611206055e+00 2.772040665149688721e-01
-1.370132255554199219e+01 5.954839229583740234e+00 4.433917105197906494e-01
-1.433236789703369141e+01 5.622745990753173828e+00 3.117440938949584961e-01
-1.079595756530761719e+01 3.791402578353881836e+00 1.218257024884223938e-01
-6.994354248046875000e+00 2.175904273986816406e+00 8.949173614382743835e-03
-1.262390422821044922e+01 5.565749168395996094e+00 4.065733432769775391e+00
-1.334832572937011719e+01 5.293652534484863281e+00 4.068795680999755859e+00
-1.396372985839843750e+01 4.945415973663330078e+00 4.041429996490478516e+00
-1.300186252593994141e+01 4.070098400115966797e+00 3.581822395324707031e+00
-1.369506740570068359e+01 6.035159587860107422e+00 3.800853252410888672e+00
-1.270767116546630859e+01 4.508058071136474609e+00 3.142694234848022461e+00
-1.263775348663330078e+01 3.968230247497558594e+00 2.960858345031738281e+00
-1.368172454833984375e+01 6.026427745819091797e+00 3.210496425628662109e+00
-1.334645175933837891e+01 5.303694725036621094e+00 2.937575817108154297e+00
-1.222276687622070312e+01 4.345647335052490234e+00 2.526260137557983398e+00
-1.230899143218994141e+01 3.876803398132324219e+00 2.387154579162597656e+00
-1.305012702941894531e+01 5.750946044921875000e+00 2.519751071929931641e+00
-1.327159595489501953e+01 5.279313087463378906e+00 2.379918575286865234e+00
-1.395068931579589844e+01 6.165261268615722656e+00 4.526772499084472656e-01
-1.419453716278076172e+01 5.669418811798095703e+00 3.094969689846038818e-01
-1.069341182708740234e+01 3.829256296157836914e+00 1.209314092993736267e-01
-7.243905067443847656e+00 2.302381753921508789e+00 9.286371059715747833e-03
-1.324687004089355469e+01 5.937754631042480469e+00 4.278023242950439453e+00
-1.378844165802001953e+01 5.566343784332275391e+00 4.213282108306884766e+00
-1.405652904510498047e+01 5.075562953948974609e+00 4.077225208282470703e+00
-1.352198219299316406e+01 4.324193000793457031e+00 3.732347011566162109e+00
-1.323321151733398438e+01 5.928858757019042969e+00 3.682699441909790039e+00
-1.380352401733398438e+01 5.578036785125732422e+00 3.621039390563964844e+00
-1.291239452362060547e+01 4.670080184936523438e+00 3.200350284576416016e+00
-1.345045185089111328e+01 4.314260005950927734e+00 3.157405376434326172e+00
-1.320279026031494141e+01 5.912462234497070312e+00 3.106566190719604492e+00
-1.312565517425537109e+01 5.309438705444335938e+00 2.896094322204589844e+00
-1.465790748596191406e+01 4.715665340423583984e+00 2.848251581192016602e+00
-1.298295116424560547e+01 5.256988048553466797e+00 2.333898067474365234e+00
-1.220706844329833984e+01 4.427031517028808594e+00 2.038046121597290039e+00
-1.494030094146728516e+01 4.843949794769287109e+00 5.896354317665100098e-01
-1.421256732940673828e+01 6.385517597198486328e+00 4.624374210834503174e-01
-1.413077068328857422e+01 5.744735717773437500e+00 3.088693916797637939e-01
-1.087824344635009766e+01 3.970917701721191406e+00 1.232948899269104004e-01
-7.540665149688720703e+00 2.447746515274047852e+00 9.685877710580825806e-03
-1.161805152893066406e+01 5.293503284454345703e+00 3.762421607971191406e+00
-1.446864986419677734e+01 5.944445610046386719e+00 4.432193279266357422e+00
-1.406224155426025391e+01 5.175377845764160156e+00 4.088016510009765625e+00
-1.275235652923583984e+01 4.164494514465332031e+00 3.526901245117187500e+00
-1.329184627532958984e+01 6.053328990936279297e+00 3.709284067153930664e+00
-1.391731452941894531e+01 5.723608493804931641e+00 3.660033702850341797e+00
-1.273180770874023438e+01 4.693304061889648438e+00 3.162669658660888672e+00
-1.293579196929931641e+01 5.888449668884277344e+00 3.052186727523803711e+00
-1.327220821380615234e+01 5.463720321655273438e+00 2.935772180557250977e+00
-1.395936012268066406e+01 5.156887531280517578e+00 2.898050069808959961e+00
-1.210354423522949219e+01 3.976005077362060547e+00 2.356596708297729492e+00
-1.299022197723388672e+01 5.915964126586914062e+00 2.522013187408447266e+00
-1.380317401885986328e+01 5.687936782836914062e+00 2.487573862075805664e+00
-1.444251441955566406e+01 5.338239669799804688e+00 2.416691064834594727e+00
-1.457451820373535156e+01 5.401492118835449219e+00 1.867178916931152344e+00
-1.486760807037353516e+01 4.921399593353271484e+00 5.879472494125366211e-01
-1.434223651885986328e+01 6.549837112426757812e+00 4.679553806781768799e-01
-1.399825096130371094e+01 5.791200160980224609e+00 3.067437112331390381e-01
-1.072808933258056641e+01 3.990873098373413086e+00 1.218682825565338135e-01
-7.534047126770019531e+00 2.496800184249877930e+00 9.696872904896736145e-03
-1.367826175689697266e+01 5.718059539794921875e+00 4.200741767883300781e+00
-1.363547420501708984e+01 5.113527774810791016e+00 3.972997903823852539e+00
-1.290822792053222656e+01 4.303224563598632812e+00 3.577245473861694336e+00
-1.288151073455810547e+01 5.962156772613525391e+00 3.604915142059326172e+00
-1.284681987762451172e+01 4.825443744659423828e+00 3.198534250259399414e+00
-1.270603179931640625e+01 4.248142242431640625e+00 2.994670629501342773e+00
-1.290207958221435547e+01 5.968943119049072266e+00 3.052816629409790039e+00
-1.307939243316650391e+01 5.478438377380371094e+00 2.900502920150756836e+00
-1.360868930816650391e+01 5.122456550598144531e+00 2.831720590591430664e+00
-1.239124202728271484e+01 4.154921054840087891e+00 2.417530536651611328e+00
-1.407522773742675781e+01 6.514664173126220703e+00 2.740373134613037109e+00
-1.351785087585449219e+01 5.667638301849365234e+00 2.442374944686889648e+00
-1.433182811737060547e+01 5.397509574890136719e+00 2.403666496276855469e+00
-1.495621490478515625e+01 5.026603221893310547e+00 2.327124357223510742e+00
-1.453181171417236328e+01 5.487310409545898438e+00 1.865986227989196777e+00
-1.481819534301757812e+01 5.006135940551757812e+00 5.871968865394592285e-01
-1.454748439788818359e+01 6.751752853393554688e+00 4.759948849678039551e-01
-1.388873386383056641e+01 5.845953464508056641e+00 3.051241636276245117e-01
-1.127844905853271484e+01 4.274569988250732422e+00 1.284157633781433105e-01
-7.635101318359375000e+00 2.582390069961547852e+00 9.847145527601242065e-03
-1.286887454986572266e+01 6.055204391479492188e+00 4.191241741180419922e+00
-1.293726634979248047e+01 5.501789569854736328e+00 3.983466625213623047e+00
-1.354346084594726562e+01 5.174029827117919922e+00 3.955363750457763672e+00
-1.414144706726074219e+01 4.810956954956054688e+00 3.927113294601440430e+00
-1.258770370483398438e+01 5.920220851898193359e+00 3.532792091369628906e+00
-1.350450515747070312e+01 5.748584747314453125e+00 3.569755792617797852e+00
-1.274602127075195312e+01 4.877032279968261719e+00 3.180828809738159180e+00
-1.334751701354980469e+01 4.553859710693359375e+00 3.152388095855712891e+00
-1.384470176696777344e+01 6.508459091186523438e+00 3.285242080688476562e+00
-1.453899765014648438e+01 6.194941997528076172e+00 3.232555627822875977e+00
-1.348443508148193359e+01 5.170368194580078125e+00 2.812414169311523438e+00
-1.239156436920166016e+01 4.239787101745605469e+00 2.422623395919799805e+00
-1.244703006744384766e+01 5.854060173034667969e+00 2.430319309234619141e+00
-1.337212753295898438e+01 5.703264713287353516e+00 2.422323226928710938e+00
-1.333457279205322266e+01 5.115575790405273438e+00 2.241633653640747070e+00
-1.478153133392333984e+01 5.095010757446289062e+00 5.869718194007873535e-01
-1.463868141174316406e+01 6.903562545776367188e+00 4.803558588027954102e-01
-1.384341144561767578e+01 5.927127838134765625e+00 3.049217164516448975e-01
-1.162048339843750000e+01 4.485937595367431641e+00 1.326210647821426392e-01
-7.729712009429931641e+00 2.667355060577392578e+00 9.990087710320949554e-03
-1.268868541717529297e+01 6.065790176391601562e+00 4.144599914550781250e+00
-1.286352634429931641e+01 5.563879966735839844e+00 3.971199035644531250e+00
-1.343863201141357422e+01 5.228698730468750000e+00 3.934044599533081055e+00
-1.296741390228271484e+01 6.196255207061767578e+00 3.649961233139038086e+00
-1.348502922058105469e+01 5.838287830352783203e+00 3.574009895324707031e+00
-1.264416980743408203e+01 4.927213668823242188e+00 3.162896633148193359e+00
-1.351865863800048828e+01 6.456760406494140625e+00 3.217215061187744141e+00
-1.387865066528320312e+01 6.014458179473876953e+00 3.093883275985717773e+00
-1.342319869995117188e+01 5.241584777832031250e+00 2.806297302246093750e+00
-1.258534717559814453e+01 4.392535686492919922e+00 2.465732097625732422e+00
-1.246863079071044922e+01 5.957920551300048828e+00 2.441628932952880859e+00
-1.371061801910400391e+01 5.947324752807617188e+00 2.490203380584716797e+00
-1.375565814971923828e+01 5.374172687530517578e+00 2.317920923233032227e+00
-1.393531131744384766e+01 4.874616146087646484e+00 2.177420377731323242e+00
-1.460858058929443359e+01 5.135897159576416016e+00 5.813444256782531738e-01
-1.379578304290771484e+01 6.007168292999267578e+00 3.046787977218627930e-01
-1.162345027923583984e+01 4.569227695465087891e+00 1.329723894596099854e-01
-7.713200092315673828e+00 2.714733362197875977e+00 9.990087710320949554e-03
-1.211625576019287109e+01 5.883746147155761719e+00 3.969340801239013672e+00
-1.282650375366210938e+01 5.641542434692382812e+00 3.970381259918212891e+00
-1.337490463256835938e+01 5.298621654510498047e+00 3.924832582473754883e+00
-1.339300346374511719e+01 4.740491867065429688e+00 3.735143661499023438e+00
-1.292566204071044922e+01 6.274012088775634766e+00 3.648976564407348633e+00
-1.305998516082763672e+01 5.181776046752929688e+00 3.274803400039672852e+00
-1.348008823394775391e+01 4.784557342529296875e+00 3.197325706481933594e+00
-1.427398490905761719e+01 6.925399303436279297e+00 3.407018899917602539e+00
-1.337345409393310547e+01 5.316959381103515625e+00 2.802665472030639648e+00
-1.277030181884765625e+01 4.545180797576904297e+00 2.507385492324829102e+00
-1.322080993652343750e+01 5.831502437591552734e+00 2.407695293426513672e+00
-1.376740360260009766e+01 5.476366996765136719e+00 2.325518608093261719e+00
-1.340870571136474609e+01 6.511369705200195312e+00 2.076345682144165039e+00
-1.456738567352294922e+01 5.222065448760986328e+00 5.809692740440368652e-01
-1.394058895111083984e+01 6.172252655029296875e+00 3.087074160575866699e-01
-1.176044273376464844e+01 4.706594467163085938e+00 1.348674297332763672e-01
-7.705810070037841797e+00 2.765387535095214844e+00 1.000230479985475540e-02
-1.214960765838623047e+01 5.992347240447998047e+00 3.992237806320190430e+00
-1.423733806610107422e+01 6.366618633270263672e+00 4.419107437133789062e+00
-1.364903163909912109e+01 5.504351139068603516e+00 4.015110015869140625e+00
-1.250216770172119141e+01 4.511690139770507812e+00 3.494355440139770508e+00
-1.234967708587646484e+01 6.088344573974609375e+00 3.496853828430175781e+00
-1.293944740295410156e+01 5.226070404052734375e+00 3.252557992935180664e+00
-1.304761409759521484e+01 4.721399784088134766e+00 3.101560592651367188e+00
-1.386012554168701172e+01 6.209552764892578125e+00 3.106508016586303711e+00
-1.327324676513671875e+01 5.371668338775634766e+00 2.788520097732543945e+00
-1.205907726287841797e+01 4.375593662261962891e+00 2.372967004776000977e+00
-1.374819278717041016e+01 5.566671371459960938e+00 2.327999591827392578e+00
-1.212747001647949219e+01 4.409993648529052734e+00 1.903254866600036621e+00
-1.370070171356201172e+01 6.149616718292236328e+00 1.945109844207763672e+00
-1.476717281341552734e+01 5.378642559051513672e+00 1.737861990928649902e+00
-1.449001693725585938e+01 5.294887542724609375e+00 5.791685581207275391e-01
-1.411761474609375000e+01 6.354520797729492188e+00 3.134851157665252686e-01
-1.169429969787597656e+01 4.763577938079833984e+00 1.344415694475173950e-01
-7.940385341644287109e+00 2.904688119888305664e+00 1.032972987741231918e-02
-1.167778110504150391e+01 5.848991870880126953e+00 3.848920583724975586e+00
-1.233427143096923828e+01 5.062347412109375000e+00 3.637418508529663086e+00
-1.312051773071289062e+01 4.826029300689697266e+00 3.675391674041748047e+00
-1.285376358032226562e+01 6.435194492340087891e+00 3.650699615478515625e+00
-1.332752037048339844e+01 6.063784122467041016e+00 3.561248064041137695e+00
-1.347912693023681641e+01 5.540478229522705078e+00 3.396697521209716797e+00
-1.306177425384521484e+01 6.536483287811279297e+00 3.136590480804443359e+00
-1.383959579467773438e+01 6.302600860595703125e+00 3.110515832901000977e+00
-1.384631252288818359e+01 5.702709674835205078e+00 2.916209459304809570e+00
-1.349934196472167969e+01 4.992135524749755859e+00 2.662357807159423828e+00
-1.353779125213623047e+01 6.170864582061767578e+00 2.479027032852172852e+00
-1.371377754211425781e+01 5.650923728942871094e+00 2.327999591827392578e+00
-1.305549907684326172e+01 5.956528663635253906e+00 1.858663320541381836e+00
-1.470873355865478516e+01 5.459812164306640625e+00 1.734894514083862305e+00
-1.440106678009033203e+01 5.362772941589355469e+00 5.769175887107849121e-01
-1.434383296966552734e+01 6.562482833862304688e+00 3.193964660167694092e-01
-1.162697792053222656e+01 4.819544315338134766e+00 1.340050846338272095e-01
-7.968326568603515625e+00 2.970470428466796875e+00 1.038959436118602753e-02
-1.165193271636962891e+01 5.925753116607666016e+00 3.852312803268432617e+00
-1.275717163085937500e+01 5.893627643585205078e+00 3.981831073760986328e+00
-1.277212810516357422e+01 5.333859443664550781e+00 3.776124954223632812e+00
-1.289595127105712891e+01 4.833467483520507812e+00 3.620724916458129883e+00
-1.231204986572265625e+01 6.258761405944824219e+00 3.507684707641601562e+00
-1.244604015350341797e+01 5.755161762237548828e+00 3.335080862045288086e+00
-1.397767734527587891e+01 5.845914363861083984e+00 3.531303405761718750e+00
-1.219859313964843750e+01 6.198406696319580078e+00 2.938388347625732422e+00
-1.279153156280517578e+01 5.920341014862060547e+00 2.883068799972534180e+00
-1.311308479309082031e+01 5.495072841644287109e+00 2.768831491470336914e+00
-1.350342273712158203e+01 5.088047027587890625e+00 2.669269561767578125e+00
-1.233358287811279297e+01 6.269707202911376953e+00 2.444586753845214844e+00
-1.295639133453369141e+01 6.002135753631591797e+00 2.379261016845703125e+00
-1.367793464660644531e+01 5.734581470489501953e+00 2.327844381332397461e+00
-1.431556892395019531e+01 5.431185245513916016e+00 5.748167037963867188e-01
-1.443021965026855469e+01 6.709384918212890625e+00 3.222306966781616211e-01
-1.153269100189208984e+01 4.863595962524414062e+00 1.332598328590393066e-01
-8.205163002014160156e+00 3.116234540939331055e+00 1.072312612086534500e-02
-1.163495731353759766e+01 6.007258415222167969e+00 3.858814477920532227e+00
-1.274715137481689453e+01 5.415522098541259766e+00 3.778493642807006836e+00
-1.351116085052490234e+01 5.158819675445556641e+00 3.802269458770751953e+00
-1.304599380493164062e+01 6.732908725738525391e+00 3.728483915328979492e+00
-1.282646274566650391e+01 6.026876449584960938e+00 3.446864604949951172e+00
-1.297996616363525391e+01 5.522456645965576172e+00 3.287741899490356445e+00
-1.217944622039794922e+01 6.283000469207763672e+00 2.943007469177246094e+00
-1.428605556488037109e+01 6.718796253204345703e+00 3.229148864746093750e+00
-1.311343288421630859e+01 5.590056419372558594e+00 2.776095390319824219e+00
-1.289359664916992188e+01 4.948822975158691406e+00 2.554677486419677734e+00
-1.365975570678710938e+01 5.825763225555419922e+00 2.330790519714355469e+00
-1.425401115417480469e+01 5.508115768432617188e+00 5.736912488937377930e-01
-1.471331214904785156e+01 6.951121807098388672e+00 3.294984698295593262e-01
-1.152652454376220703e+01 4.944517135620117188e+00 1.335366368293762207e-01
-8.134592056274414062e+00 3.146679162979125977e+00 1.065593026578426361e-02
-1.156304454803466797e+01 6.060279369354248047e+00 3.847224712371826172e+00
-1.219410800933837891e+01 5.816128253936767578e+00 3.828075647354125977e+00
-1.340799236297607422e+01 5.793649673461914062e+00 3.984842061996459961e+00
-1.284107398986816406e+01 4.993459224700927734e+00 3.622250318527221680e+00
-1.216134166717529297e+01 6.371146202087402344e+00 3.486761569976806641e+00
-1.261211109161376953e+01 6.020904541015625000e+00 3.399126052856445312e+00
-1.353663921356201172e+01 5.857651710510253906e+00 3.437783002853393555e+00
-1.335243892669677734e+01 5.205730438232421875e+00 3.203433513641357422e+00
-1.237934970855712891e+01 5.915092945098876953e+00 2.806317806243896484e+00
-1.433787345886230469e+01 6.216253757476806641e+00 3.043325185775756836e+00
-1.499231815338134766e+01 5.860149383544921875e+00 2.977576971054077148e+00
-1.355005359649658203e+01 6.480288505554199219e+00 2.502694845199584961e+00
-1.350593185424804688e+01 5.858362197875976562e+00 2.310633182525634766e+00
-1.400621414184570312e+01 5.485979557037353516e+00 2.218567132949829102e+00
-1.416229152679443359e+01 5.572786808013916016e+00 5.713652372360229492e-01
-1.288083839416503906e+01 5.619302749633789062e+00 1.496232151985168457e-01
-8.365414619445800781e+00 3.295118808746337891e+00 1.098457630723714828e-02
-1.146720886230468750e+01 6.100030899047851562e+00 3.827719926834106445e+00
-1.213048458099365234e+01 5.877415657043457031e+00 3.819351673126220703e+00
-1.293410682678222656e+01 5.683313846588134766e+00 3.854295253753662109e+00
-1.480734634399414062e+01 5.862923622131347656e+00 4.186971664428710938e+00
-1.225808811187744141e+01 6.517998218536376953e+00 3.525899887084960938e+00
-1.254782676696777344e+01 6.085033893585205078e+00 3.391799688339233398e+00
-1.341754150390625000e+01 5.904121875762939453e+00 3.416672945022583008e+00
-1.305810451507568359e+01 5.183502674102783203e+00 3.140390396118164062e+00
-1.257626342773437500e+01 6.684366703033447266e+00 3.058485269546508789e+00
-1.235868644714355469e+01 5.998640060424804688e+00 2.809924840927124023e+00
-1.387373828887939453e+01 6.116426467895507812e+00 2.952719449996948242e+00
-1.411006069183349609e+01 5.615342617034912109e+00 2.809144735336303711e+00
-1.301229190826416016e+01 6.321499824523925781e+00 2.410489320755004883e+00
-1.364056587219238281e+01 6.016472816467285156e+00 2.339938640594482422e+00
-1.383720684051513672e+01 5.517949104309082031e+00 2.197118282318115234e+00
-1.387715625762939453e+01 6.135297775268554688e+00 1.822691082954406738e+00
-1.410464096069335938e+01 5.650290012359619141e+00 5.704273581504821777e-01
-1.230865192413330078e+01 5.459825992584228516e+00 1.433631777763366699e-01
-8.345038414001464844e+00 3.346385955810546875e+00 1.098457630723714828e-02
-1.192758464813232422e+01 5.869745731353759766e+00 3.766736984252929688e+00
-1.278272056579589844e+01 5.710625648498535156e+00 3.819552898406982422e+00
-1.215540695190429688e+01 4.899384975433349609e+00 3.445536613464355469e+00
-1.235771179199218750e+01 6.086777210235595703e+00 3.350442409515380859e+00
-1.366820526123046875e+01 6.114799499511718750e+00 3.489991188049316406e+00
-1.271659851074218750e+01 5.138484954833984375e+00 3.065785408020019531e+00
-1.233967781066894531e+01 6.656043529510498047e+00 3.010824680328369141e+00
-1.234537315368652344e+01 6.086055278778076172e+00 2.815335512161254883e+00
-1.256583786010742188e+01 5.632160663604736328e+00 2.681666374206542969e+00
-1.361053657531738281e+01 5.513525962829589844e+00 2.716379642486572266e+00
-1.341643428802490234e+01 6.619892597198486328e+00 2.492833137512207031e+00
-1.403084182739257812e+01 5.720881938934326172e+00 5.688517093658447266e-01
-1.335875129699707031e+01 6.023990154266357422e+00 1.560216397047042847e-01
-8.507667541503906250e+00 3.472347736358642578e+00 1.122647896409034729e-02
-1.181127738952636719e+01 6.470253467559814453e+00 3.968775510787963867e+00
-1.184573078155517578e+01 5.920025825500488281e+00 3.752288341522216797e+00
-1.276237201690673828e+01 5.795732975006103516e+00 3.824027061462402344e+00
-1.371065998077392578e+01 5.624287128448486328e+00 3.896093130111694336e+00
-1.249342536926269531e+01 6.841102123260498047e+00 3.617469072341918945e+00
-1.234793949127197266e+01 6.176397800445556641e+00 3.358004808425903320e+00
-1.407458019256591797e+01 6.400532722473144531e+00 3.603713512420654297e+00
-1.327150535583496094e+01 5.457675457000732422e+00 3.207578420639038086e+00
-1.267596721649169922e+01 6.938182353973388672e+00 3.103206872940063477e+00
-1.233232688903808594e+01 6.173971176147460938e+00 2.820946455001831055e+00
-1.260607433319091797e+01 5.743341445922851562e+00 2.697723150253295898e+00
-1.328099346160888672e+01 5.475131988525390625e+00 2.657264709472656250e+00
-1.395855522155761719e+01 5.791547298431396484e+00 5.673511028289794922e-01
-1.359969425201416016e+01 6.233335971832275391e+00 1.592794060707092285e-01
-8.655204772949218750e+00 3.594675064086914062e+00 1.145005598664283752e-02
-1.154498100280761719e+01 6.416784763336181641e+00 3.892452716827392578e+00
-1.228964996337890625e+01 6.236412048339843750e+00 3.904953241348266602e+00
-1.310322570800781250e+01 6.047777175903320312e+00 3.937202930450439453e+00
-1.368303203582763672e+01 5.711288452148437500e+00 3.898127079010009766e+00
-1.187254047393798828e+01 6.596132755279541016e+00 3.449346303939819336e+00
-1.297082614898681641e+01 6.587771892547607422e+00 3.538324117660522461e+00
-1.316602993011474609e+01 6.085128784179687500e+00 3.380581140518188477e+00
-1.410654163360595703e+01 5.902521133422851562e+00 3.418086528778076172e+00
-1.223657035827636719e+01 6.220223426818847656e+00 2.807720422744750977e+00
-1.249043273925781250e+01 5.783464431762695312e+00 2.680519580841064453e+00
-1.334689426422119141e+01 5.598358154296875000e+00 2.677272796630859375e+00
-1.389605712890625000e+01 5.865816116333007812e+00 5.662631392478942871e-01
-1.374882411956787109e+01 6.404062271118164062e+00 1.614831984043121338e-01
-8.747207641601562500e+00 3.695977210998535156e+00 1.160155050456523895e-02
-1.154549789428710938e+01 6.510117530822753906e+00 3.906021356582641602e+00
-1.220240116119384766e+01 6.286586761474609375e+00 3.889414310455322266e+00
-1.266845321655273438e+01 5.941668987274169922e+00 3.817447185516357422e+00
-1.372695922851562500e+01 5.828780651092529297e+00 3.920756816864013672e+00
-1.156671905517578125e+01 6.519423007965087891e+00 3.372054100036621094e+00
-1.293966007232666016e+01 6.672133445739746094e+00 3.540923833847045898e+00
-1.278553390502929688e+01 6.004750728607177734e+00 3.292281627655029297e+00
-1.363006114959716797e+01 5.801680088043212891e+00 3.311196565628051758e+00
-1.218076229095458984e+01 6.286202907562255859e+00 2.803712606430053711e+00
-1.240674972534179688e+01 5.837429523468017578e+00 2.670197248458862305e+00
-1.373646926879882812e+01 5.861137390136718750e+00 2.762580394744873047e+00
-1.236508274078369141e+01 6.386793136596679688e+00 2.318941354751586914e+00
-1.351932907104492188e+01 5.779646873474121094e+00 2.168519973754882812e+00
-1.386347675323486328e+01 5.952547550201416016e+00 5.664131641387939453e-01
-1.377525043487548828e+01 6.519529819488525391e+00 1.622603833675384521e-01
-8.886981964111328125e+00 3.819469451904296875e+00 1.181779615581035614e-02
-1.149034690856933594e+01 6.572263717651367188e+00 3.900933027267456055e+00
-1.239720153808593750e+01 6.483510971069335938e+00 3.964110851287841797e+00
-1.238267517089843750e+01 5.900596618652343750e+00 3.742172002792358398e+00
-1.293092060089111328e+01 5.584659576416015625e+00 3.703106641769409180e+00
-1.147096538543701172e+01 6.558521270751953125e+00 3.355808019638061523e+00
-1.290314579010009766e+01 6.156903743743896484e+00 3.332231998443603516e+00
-1.367391300201416016e+01 5.919710159301757812e+00 3.330611228942871094e+00
-1.202660942077636719e+01 6.873425483703613281e+00 2.974711418151855469e+00
-1.252744674682617188e+01 5.988374710083007812e+00 2.704031229019165039e+00
-1.327267837524414062e+01 5.759766101837158203e+00 2.676363229751586914e+00
-1.302180099487304688e+01 6.227478981018066406e+00 2.265512228012084961e+00
