-1.018475151062011719e+01 -6.650205135345458984e+00 2.250007867813110352e+00
-1.379288005828857422e+01 -6.980226039886474609e+00 2.731325387954711914e+00
-1.035245513916015625e+01 -6.749404907226562500e+00 1.822712421417236328e+00
-1.365550899505615234e+01 -6.907712459564208984e+00 2.131668806076049805e+00
-1.036128997802734375e+01 -6.747436523437500000e+00 1.367252945899963379e+00
-1.087511634826660156e+01 -5.496469497680664062e+00 1.248472690582275391e+00
-1.029383563995361328e+01 -5.680818080902099609e+00 1.092764019966125488e+00
-1.130341434478759766e+01 -6.784478187561035156e+00 1.100071787834167480e+00
-1.014628887176513672e+01 -6.599861621856689453e+00 8.952298164367675781e-01
-1.004988956451416016e+01 -5.074982166290283203e+00 7.418736219406127930e-01
-8.227188110351562500e+00 -4.536559581756591797e+00 5.301997065544128418e-01
-7.753505229949951172e+00 -4.650089263916015625e+00 4.247825741767883301e-01
-7.908167362213134766e+00 -4.737217903137207031e+00 9.814831614494323730e-02
-5.124691009521484375e+00 -3.327099323272705078e+00 7.464771624654531479e-03
-9.229818344116210938e+00 -4.600057601928710938e+00 2.619071006774902344e+00
-9.895807266235351562e+00 -5.400131702423095703e+00 2.741894006729125977e+00
-9.811890602111816406e+00 -5.835433006286621094e+00 2.660791873931884766e+00
-1.030421447753906250e+01 -6.651117324829101562e+00 2.741406202316284180e+00
-1.007360744476318359e+01 -5.022789955139160156e+00 2.417268037796020508e+00
-1.232183837890625000e+01 -6.718433380126953125e+00 2.870644092559814453e+00
-1.046839237213134766e+01 -6.744155883789062500e+00 2.303484201431274414e+00
-1.382751846313476562e+01 -6.891510009765625000e+00 2.729759693145751953e+00
-1.056007957458496094e+01 -6.792797088623046875e+00 1.851894378662109375e+00
-1.363646697998046875e+01 -6.793320655822753906e+00 2.122149467468261719e+00
-1.062242126464843750e+01 -6.825037956237792969e+00 1.396158695220947266e+00
-1.089349746704101562e+01 -5.422101497650146484e+00 1.246739983558654785e+00
-1.029525947570800781e+01 -5.599471092224121094e+00 1.089247345924377441e+00
-1.152406215667724609e+01 -6.821081638336181641e+00 1.117451310157775879e+00
-1.062219047546386719e+01 -6.817034721374511719e+00 9.335113763809204102e-01
-1.007011890411376953e+01 -5.007890224456787109e+00 7.410845756530761719e-01
-9.891807556152343750e+00 -5.375564575195312500e+00 6.353381276130676270e-01
-7.758677005767822266e+00 -4.588697433471679688e+00 4.235153794288635254e-01
-1.071710872650146484e+01 -6.870030403137207031e+00 4.779134392738342285e-01
-8.072254180908203125e+00 -4.768452167510986328e+00 9.981977939605712891e-02
-5.377418518066406250e+00 -3.444460153579711914e+00 7.801969069987535477e-03
-9.290062904357910156e+00 -4.559137344360351562e+00 2.628178834915161133e+00
-9.933034896850585938e+00 -5.341611385345458984e+00 2.743075609207153320e+00
-9.783665657043457031e+00 -5.737675666809082031e+00 2.643540620803833008e+00
-1.039339828491210938e+01 -6.618695259094238281e+00 2.754276752471923828e+00
-9.470582962036132812e+00 -4.649779319763183594e+00 2.265676975250244141e+00
-1.233866596221923828e+01 -6.629717350006103516e+00 2.865033149719238281e+00
-1.068966007232666016e+01 -6.794255733489990234e+00 2.342954635620117188e+00
-9.199213981628417969e+00 -4.514552116394042969e+00 1.810559988021850586e+00
-1.078114891052246094e+01 -6.841842651367187500e+00 1.883265137672424316e+00
-9.225598335266113281e+00 -4.525502681732177734e+00 1.431367874145507812e+00
-1.083787441253662109e+01 -6.869883537292480469e+00 1.418909668922424316e+00
-9.582180023193359375e+00 -4.696270942687988281e+00 1.093343615531921387e+00
-1.031011581420898438e+01 -5.525846958160400391e+00 1.087211251258850098e+00
-1.181443214416503906e+01 -6.895414352416992188e+00 1.141483426094055176e+00
-1.082896709442138672e+01 -6.856292247772216797e+00 9.479684233665466309e-01
-9.743983268737792969e+00 -4.771353721618652344e+00 7.149154543876647949e-01
-9.925484657287597656e+00 -5.315239429473876953e+00 6.353944540023803711e-01
-7.769429683685302734e+00 -4.530940532684326172e+00 4.225767552852630615e-01
-1.074639225006103516e+01 -6.796130657196044922e+00 4.773507416248321533e-01
-1.157518291473388672e+01 -5.665536403656005859e+00 3.824869096279144287e-01
-7.810174942016601562e+00 -4.549223899841308594e+00 9.623197466135025024e-02
-5.301236152648925781e+00 -3.349967241287231445e+00 7.661470212042331696e-03
-9.219246864318847656e+00 -4.454401016235351562e+00 2.600363492965698242e+00
-9.951026916503906250e+00 -5.272828578948974609e+00 2.739058017730712891e+00
-9.819529533386230469e+00 -5.678023338317871094e+00 2.643767356872558594e+00
-1.067015743255615234e+01 -6.703275203704833984e+00 2.816665649414062500e+00
-9.463725090026855469e+00 -4.574561595916748047e+00 2.257278442382812500e+00
-1.234620952606201172e+01 -6.536464214324951172e+00 2.857418298721313477e+00
-1.090859794616699219e+01 -6.839800357818603516e+00 2.381697893142700195e+00
-9.274621009826660156e+00 -4.481155872344970703e+00 1.819955587387084961e+00
-1.100321102142333984e+01 -6.888426780700683594e+00 1.914635896682739258e+00
-9.258543014526367188e+00 -4.471394538879394531e+00 1.432195544242858887e+00
-1.112674713134765625e+01 -6.957658290863037109e+00 1.451112627983093262e+00
-9.211223602294921875e+00 -4.444576740264892578e+00 1.047885298728942871e+00
-9.835793495178222656e+00 -5.194192886352539062e+00 1.033813238143920898e+00
-1.182283401489257812e+01 -6.803408622741699219e+00 1.138240337371826172e+00
-1.087083244323730469e+01 -6.789717674255371094e+00 9.479684233665466309e-01
-9.095352172851562500e+00 -4.384753704071044922e+00 6.653388738632202148e-01
-9.994998931884765625e+00 -5.273806095123291016e+00 6.377609372138977051e-01
-7.784961223602294922e+00 -4.476212024688720703e+00 4.219197034835815430e-01
-7.336341857910156250e+00 -4.576803207397460938e+00 3.246240019798278809e-01
-8.242021560668945312e+00 -4.733273029327392578e+00 1.011931523680686951e-01
-5.297930240631103516e+00 -3.302564382553100586e+00 7.627262268215417862e-03
-9.962521553039550781e+00 -5.200879573822021484e+00 2.733386278152465820e+00
-9.866029739379882812e+00 -5.624417304992675781e+00 2.646945238113403320e+00
-1.073431396484375000e+01 -6.652071952819824219e+00 2.822773694992065430e+00
-1.028354072570800781e+01 -4.893229484558105469e+00 2.445612668991088867e+00
-1.237652969360351562e+01 -6.455602645874023438e+00 2.855213880538940430e+00
-1.113434410095214844e+01 -6.886530399322509766e+00 2.421714305877685547e+00
-1.012008666992187500e+01 -4.813287258148193359e+00 1.980028152465820312e+00
-1.128769016265869141e+01 -6.970484256744384766e+00 1.956658124923706055e+00
-1.006223106384277344e+01 -4.783616542816162109e+00 1.551947593688964844e+00
-9.178116798400878906e+00 -4.359378814697265625e+00 1.041056513786315918e+00
-9.885146141052246094e+00 -5.142935276031494141e+00 1.035664200782775879e+00
-1.182795238494873047e+01 -6.710084438323974609e+00 1.134747743606567383e+00
-1.090379905700683594e+01 -6.717657089233398438e+00 9.472308754920959473e-01
-9.569219589233398438e+00 -4.541049957275390625e+00 6.979516148567199707e-01
-1.000148010253906250e+01 -5.199024677276611328e+00 6.361269950866699219e-01
-7.867026805877685547e+00 -4.459393024444580078e+00 4.248764216899871826e-01
-7.376201629638671875e+00 -4.539034366607666016e+00 3.251492381095886230e-01
-8.303105354309082031e+00 -4.700839996337890625e+00 1.015870720148086548e-01
-5.266131877899169922e+00 -3.238043546676635742e+00 7.552735973149538040e-03
-9.997701644897460938e+00 -5.141429901123046875e+00 2.734331369400024414e+00
-9.889317512512207031e+00 -5.557572364807128906e+00 2.643994569778442383e+00
-1.077243041992187500e+01 -6.584555149078369141e+00 2.822119235992431641e+00
-1.065514278411865234e+01 -4.990099906921386719e+00 2.526657104492187500e+00
-1.240545082092285156e+01 -6.374166965484619141e+00 2.852809190750122070e+00
-1.068276596069335938e+01 -5.000763416290283203e+00 2.084075450897216797e+00
-1.111946105957031250e+01 -5.202820777893066406e+00 1.710053443908691406e+00
-1.066190719604492188e+01 -4.984194278717041016e+00 1.205868244171142578e+00
-9.922719955444335938e+00 -5.085363388061523438e+00 1.036311984062194824e+00
-1.187151145935058594e+01 -6.638842582702636719e+00 1.134997248649597168e+00
-1.110077667236328125e+01 -6.745398044586181641e+00 9.607290029525756836e-01
-1.012850666046142578e+01 -4.730535030364990234e+00 7.366134524345397949e-01
-1.003674697875976562e+01 -5.139379024505615234e+00 6.363523006439208984e-01
-9.684462547302246094e+00 -5.411354541778564453e+00 5.212280750274658203e-01
-7.404767513275146484e+00 -4.494207382202148438e+00 3.251867294311523438e-01
-1.152896785736083984e+01 -5.382171630859375000e+00 3.776216506958007812e-01
-8.199944496154785156e+00 -4.576222419738769531e+00 9.997948259115219116e-02
-5.271365165710449219e+00 -3.196855068206787109e+00 7.531967014074325562e-03
-1.003166198730468750e+01 -5.081305980682373047e+00 2.735040426254272461e+00
-1.012513828277587891e+01 -5.608630180358886719e+00 2.697791337966918945e+00
-1.079925727844238281e+01 -6.510271549224853516e+00 2.818629026412963867e+00
-1.104074096679687500e+01 -5.088317871093750000e+00 2.610641002655029297e+00
-1.242422199249267578e+01 -6.287753105163574219e+00 2.848200082778930664e+00
-1.108085250854492188e+01 -5.104459285736083984e+00 2.155586242675781250e+00
-1.380784034729003906e+01 -6.981933116912841797e+00 2.578135490417480469e+00
-1.094425582885742188e+01 -5.039220333099365234e+00 1.678321957588195801e+00
-1.370589351654052734e+01 -6.924377441406250000e+00 1.988911151885986328e+00
-1.111072540283203125e+01 -5.111170768737792969e+00 1.253059267997741699e+00
-9.960846900939941406e+00 -5.027972221374511719e+00 1.037052273750305176e+00
-1.192424106597900391e+01 -6.572610378265380859e+00 1.136161446571350098e+00
-1.140371799468994141e+01 -6.834026336669921875e+00 9.832996726036071777e-01
-1.071403312683105469e+01 -4.924152851104736328e+00 7.769848108291625977e-01
-1.004758930206298828e+01 -5.067357540130615234e+00 6.350564360618591309e-01
-9.720983505249023438e+00 -5.353756904602050781e+00 5.214157700538635254e-01
-7.397906780242919922e+00 -4.428158760070800781e+00 3.236860930919647217e-01
-1.132289123535156250e+01 -5.201589584350585938e+00 3.698194026947021484e-01
-8.049135208129882812e+00 -4.427508354187011719e+00 9.780763089656829834e-02
-5.305470943450927734e+00 -3.173176288604736328e+00 7.552735973149538040e-03
-1.005308628082275391e+01 -5.014885425567626953e+00 2.732440710067749023e+00
-1.029014682769775391e+01 -5.617798805236816406e+00 2.732521057128906250e+00
-1.081383419036865234e+01 -6.428924560546875000e+00 2.812084674835205078e+00
-1.244064807891845703e+01 -6.200475692749023438e+00 2.843190193176269531e+00
-1.140705108642578125e+01 -5.170117378234863281e+00 2.212829351425170898e+00
-1.138816642761230469e+01 -5.159162044525146484e+00 1.741508960723876953e+00
-1.379074096679687500e+01 -6.861352920532226562e+00 1.995076656341552734e+00
-1.127963447570800781e+01 -5.105249404907226562e+00 1.268551826477050781e+00
-1.009672164916992188e+01 -5.019059181213378906e+00 1.047972559928894043e+00
-9.376726150512695312e+00 -5.093663215637207031e+00 8.904352188110351562e-01
-1.183865547180175781e+01 -6.996307373046875000e+00 1.017081856727600098e+00
-1.102498912811279297e+01 -4.985359191894531250e+00 7.973020076751708984e-01
-1.004183101654052734e+01 -4.987402439117431641e+00 6.327462792396545410e-01
-9.715900421142578125e+00 -5.273519515991210938e+00 5.193976759910583496e-01
-7.436126232147216797e+00 -4.389286518096923828e+00 3.241738379001617432e-01
-1.140833473205566406e+01 -5.156304836273193359e+00 3.715697228908538818e-01
-8.145598411560058594e+00 -4.415683746337890625e+00 9.864868968725204468e-02
-5.310198783874511719e+00 -3.131926536560058594e+00 7.531967014074325562e-03
-9.951974868774414062e+00 -4.888419151306152344e+00 2.696754932403564453e+00
-1.009543037414550781e+01 -5.431355476379394531e+00 2.671914577484130859e+00
-1.083792304992675781e+01 -6.353566646575927734e+00 2.808157920837402344e+00
-9.500445365905761719e+00 -4.662511348724365234e+00 2.164655923843383789e+00
-1.296829795837402344e+01 -6.965292453765869141e+00 2.866701126098632812e+00
-1.200428199768066406e+01 -5.352262496948242188e+00 2.322270393371582031e+00
-9.221503257751464844e+00 -4.521622180938720703e+00 1.711306095123291016e+00
-1.192622089385986328e+01 -5.314962863922119141e+00 1.818768382072448730e+00
-9.205987930297851562e+00 -4.510029315948486328e+00 1.327781915664672852e+00
-1.181057834625244141e+01 -5.258485317230224609e+00 1.324610233306884766e+00
-9.313492774963378906e+00 -4.558665275573730469e+00 9.637571573257446289e-01
-9.392868041992187500e+00 -5.028038024902343750e+00 8.890216350555419922e-01
-1.196069717407226562e+01 -5.320321559906005859e+00 8.625932335853576660e-01
-1.004802703857421875e+01 -4.913849830627441406e+00 6.312249898910522461e-01
-9.737504959106445312e+00 -5.208151340484619141e+00 5.188344717025756836e-01
-7.473282337188720703e+00 -4.349608898162841797e+00 3.246240019798278809e-01
-1.166809654235839844e+01 -5.187728881835937500e+00 3.789862990379333496e-01
-8.775821685791015625e+00 -4.687882423400878906e+00 1.059307679533958435e-01
-5.498747348785400391e+00 -3.197818517684936523e+00 7.771426346153020859e-03
-9.225122451782226562e+00 -4.461336612701416016e+00 2.492330074310302734e+00
-1.018793773651123047e+01 -5.400782585144042969e+00 2.687576770782470703e+00
-1.091219139099121094e+01 -6.307459354400634766e+00 2.817320108413696289e+00
-9.445953369140625000e+00 -4.564064502716064453e+00 2.145818948745727539e+00
-1.299344062805175781e+01 -6.876406669616699219e+00 2.862878084182739258e+00
-1.142544746398925781e+01 -5.010367393493652344e+00 2.204303979873657227e+00
-9.273057937622070312e+00 -4.476533412933349609e+00 1.715743660926818848e+00
-1.153679656982421875e+01 -5.056796550750732422e+00 1.754615426063537598e+00
-9.236166954040527344e+00 -4.454749584197998047e+00 1.328167080879211426e+00
-1.156833553314208984e+01 -5.065807342529296875e+00 1.293931007385253906e+00
-9.214813232421875000e+00 -4.440486431121826172e+00 9.507083892822265625e-01
-9.409439086914062500e+00 -4.962871074676513672e+00 8.876910805702209473e-01
-1.150677394866943359e+01 -5.034063339233398438e+00 8.276134729385375977e-01
-9.985332489013671875e+00 -4.807494163513183594e+00 6.254215240478515625e-01
-9.762208938598632812e+00 -5.144579410552978516e+00 5.184590816497802734e-01
-9.923212051391601562e+00 -5.694294929504394531e+00 4.295181035995483398e-01
-8.323938369750976562e+00 -4.381059169769287109e+00 1.001498177647590637e-01
-5.517397403717041016e+00 -3.163521051406860352e+00 7.770203985273838043e-03
-1.024246692657470703e+01 -5.349440574645996094e+00 2.693251609802246094e+00
-1.091761875152587891e+01 -6.221539974212646484e+00 2.808812379837036133e+00
-1.016564655303955078e+01 -4.835092067718505859e+00 2.302527189254760742e+00
-1.304583358764648438e+01 -6.801996231079101562e+00 2.865171909332275391e+00
-1.182219696044921875e+01 -5.098093986511230469e+00 2.274770498275756836e+00
-1.011287307739257812e+01 -4.805663585662841797e+00 1.865639209747314453e+00
-1.142844676971435547e+01 -4.925931453704833984e+00 1.733507156372070312e+00
-9.210470199584960938e+00 -4.372899055480957031e+00 1.320588588714599609e+00
-1.148590469360351562e+01 -4.945943355560302734e+00 1.281292438507080078e+00
-9.221194267272949219e+00 -4.374046802520751953e+00 9.485799074172973633e-01
-9.449440956115722656e+00 -4.910097122192382812e+00 8.886058330535888672e-01
-1.144853401184082031e+01 -4.925115108489990234e+00 8.212355971336364746e-01
-1.006606864929199219e+01 -4.770506858825683594e+00 6.286331415176391602e-01
-9.767882347106933594e+00 -5.071235179901123047e+00 5.170980095863342285e-01
-9.972750663757324219e+00 -5.641664505004882812e+00 4.301558732986450195e-01
-8.155367851257324219e+00 -4.228639125823974609e+00 9.780763089656829834e-02
-5.306008815765380859e+00 -2.999207019805908203e+00 7.446445524692535400e-03
-1.005426692962646484e+01 -5.172877311706542969e+00 2.635368824005126953e+00
-1.105088424682617188e+01 -6.207967281341552734e+00 2.833244562149047852e+00
-1.047018623352050781e+01 -4.901391029357910156e+00 2.364649295806884766e+00
-1.314320468902587891e+01 -6.750521659851074219e+00 2.877405643463134766e+00
-1.054782104492187500e+01 -4.933245658874511719e+00 1.940258145332336426e+00
-1.277437782287597656e+01 -5.413358688354492188e+00 1.932587981224060059e+00
-1.042040824890136719e+01 -4.869222164154052734e+00 1.489756584167480469e+00
-1.365160083770751953e+01 -6.993583202362060547e+00 1.842609167098999023e+00
-1.205102634429931641e+01 -5.101865291595458984e+00 1.340816259384155273e+00
-1.134734916687011719e+01 -5.297535419464111328e+00 1.163930654525756836e+00
-9.524632453918457031e+00 -4.875180721282958984e+00 8.928467631340026855e-01
-8.959158897399902344e+00 -5.002103805541992188e+00 7.589206099510192871e-01
-1.029783153533935547e+01 -4.803188800811767578e+00 6.412543058395385742e-01
-9.789031982421875000e+00 -5.006202220916748047e+00 5.165817737579345703e-01
-9.989724159240722656e+00 -5.570632934570312500e+00 4.294055402278900146e-01
-1.310671424865722656e+01 -5.540705204010009766e+00 4.223286807537078857e-01
-7.343185901641845703e+00 -3.750524520874023438e+00 8.778945356607437134e-02
-5.611711025238037109e+00 -3.126726388931274414e+00 7.848395034670829773e-03
-1.003890705108642578e+01 -5.087315559387207031e+00 2.623111248016357422e+00
-1.115365409851074219e+01 -6.175972461700439453e+00 2.849823474884033203e+00
-1.112739849090576172e+01 -5.126048564910888672e+00 2.505927085876464844e+00
-1.323780441284179688e+01 -6.696777343750000000e+00 2.889065980911254883e+00
-1.095244216918945312e+01 -5.040817737579345703e+00 2.008960247039794922e+00
-1.376183223724365234e+01 -6.958857536315917969e+00 2.420412302017211914e+00
-1.441284370422363281e+01 -6.003638744354248047e+00 2.174851417541503906e+00
-1.109432220458984375e+01 -5.101425170898437500e+00 1.581597924232482910e+00
-1.371109771728515625e+01 -6.918184757232666016e+00 1.844875335693359375e+00
-1.409624671936035156e+01 -5.865987300872802734e+00 1.564336657524108887e+00
-1.113353538513183594e+01 -5.114748954772949219e+00 1.138758540153503418e+00
-1.220435333251953125e+01 -6.152585506439208984e+00 1.140485525131225586e+00
-8.967840194702148438e+00 -4.935017108917236328e+00 7.570766210556030273e-01
-1.417644405364990234e+01 -5.893556118011474609e+00 1.011651754379272461e+00
-1.047592258453369141e+01 -4.808213710784912109e+00 6.504946947097778320e-01
-9.824025154113769531e+00 -4.948289871215820312e+00 5.168164372444152832e-01
-1.009290027618408203e+01 -5.547256946563720703e+00 4.323693215847015381e-01
-1.313400268554687500e+01 -5.457494735717773438e+00 4.221210181713104248e-01
-8.557708740234375000e+00 -4.304839134216308594e+00 1.019916310906410217e-01
-5.425683975219726562e+00 -2.979597091674804688e+00 7.562509737908840179e-03
-1.005511951446533203e+01 -5.018229007720947266e+00 2.619252443313598633e+00
-1.119133853912353516e+01 -6.107418537139892578e+00 2.849823474884033203e+00
-1.157625389099121094e+01 -5.246959209442138672e+00 2.599711418151855469e+00
-1.324701881408691406e+01 -6.599668502807617188e+00 2.882184505462646484e+00
-1.147018814086914062e+01 -5.194058418273925781e+00 2.098042726516723633e+00
-1.381046199798583984e+01 -6.877367973327636719e+00 2.421497821807861328e+00
-1.132058238983154297e+01 -5.121551036834716797e+00 1.609342932701110840e+00
-1.376929378509521484e+01 -6.841877460479736328e+00 1.847022294998168945e+00
-1.129264354705810547e+01 -5.104163646697998047e+00 1.151807308197021484e+00
-1.217136001586914062e+01 -6.042577743530273438e+00 1.133916258811950684e+00
-8.977787971496582031e+00 -4.868963241577148438e+00 7.553800344467163086e-01
-1.495131492614746094e+01 -6.108368873596191406e+00 1.064252972602844238e+00
-1.129050540924072266e+01 -5.098451614379882812e+00 6.991198658943176270e-01
-9.896262168884277344e+00 -4.908780097961425781e+00 5.190222859382629395e-01
-1.014432048797607422e+01 -5.494742393493652344e+00 4.331195950508117676e-01
-1.312745094299316406e+01 -5.360554695129394531e+00 4.208453595638275146e-01
-1.144554615020751953e+01 -5.163654327392578125e+00 2.542499005794525146e-01
-8.675355911254882812e+00 -4.297523021697998047e+00 1.030775457620620728e-01
-5.473766326904296875e+00 -2.962432861328125000e+00 7.604049053043127060e-03
-9.981708526611328125e+00 -4.905322074890136719e+00 2.592240333557128906e+00
-1.128361034393310547e+01 -6.068217277526855469e+00 2.863784551620483398e+00
-1.224711799621582031e+01 -5.460693836212158203e+00 2.742792844772338867e+00
-9.322587013244628906e+00 -4.573331832885742188e+00 2.022193193435668945e+00
-1.214969348907470703e+01 -5.412171363830566406e+00 2.216216802597045898e+00
-9.235525131225585938e+00 -4.528623104095458984e+00 1.614435315132141113e+00
-1.195340633392333984e+01 -5.319734096527099609e+00 1.694633483886718750e+00
-9.487380981445312500e+00 -4.641854286193847656e+00 1.268799066543579102e+00
-1.159305858612060547e+01 -5.154517650604248047e+00 1.179200410842895508e+00
-9.211664199829101562e+00 -4.502970695495605469e+00 8.555928468704223633e-01
-8.999578475952148438e+00 -4.809554576873779297e+00 7.547162175178527832e-01
-1.171666336059570312e+01 -5.204577445983886719e+00 7.235169410705566406e-01
-9.946839332580566406e+00 -4.858047962188720703e+00 5.201016664505004883e-01
-9.968911170959472656e+00 -5.320876598358154297e+00 4.242283701896667480e-01
-1.314432430267333984e+01 -5.273577690124511719e+00 4.203410446643829346e-01
-1.163419628143310547e+01 -5.163083553314208984e+00 2.577319443225860596e-01
-8.720435142517089844e+00 -4.253417015075683594e+00 1.033011227846145630e-01
-5.217424392700195312e+00 -2.782445192337036133e+00 7.224090863019227982e-03
-9.217352867126464844e+00 -4.459688663482666016e+00 2.386586427688598633e+00
-1.131632137298583984e+01 -5.996583938598632812e+00 2.862694025039672852e+00
-9.364614486694335938e+00 -4.522873401641845703e+00 2.025251626968383789e+00
-1.145084571838378906e+01 -5.016889095306396484e+00 2.083086252212524414e+00
-9.260469436645507812e+00 -4.470581054687500000e+00 1.613970041275024414e+00
-1.145435047149658203e+01 -5.013659954071044922e+00 1.619490504264831543e+00
-9.237494468688964844e+00 -4.449553966522216797e+00 1.231706023216247559e+00
-1.158067798614501953e+01 -5.064137935638427734e+00 1.174758315086364746e+00
-9.200507164001464844e+00 -4.427781581878662109e+00 8.520171046257019043e-01
-9.031567573547363281e+00 -4.755637645721435547e+00 7.549375295639038086e-01
-1.155807590484619141e+01 -5.049448966979980469e+00 7.117972970008850098e-01
-9.934148788452148438e+00 -4.776579380035400391e+00 5.178958773612976074e-01
-1.139526653289794922e+01 -5.992641925811767578e+00 4.833532571792602539e-01
-1.316248607635498047e+01 -5.187328815460205078e+00 4.198960363864898682e-01
-8.505693435668945312e+00 -4.084261894226074219e+00 1.004585623741149902e-01
-5.473412513732910156e+00 -2.875967264175415039e+00 7.553957868367433548e-03
-1.041923522949218750e+01 -4.962537288665771484e+00 2.689846754074096680e+00
-1.131916236877441406e+01 -5.909420967102050781e+00 2.854186296463012695e+00
-1.009161853790283203e+01 -4.797857284545898438e+00 2.176070451736450195e+00
-1.178398418426513672e+01 -5.076890468597412109e+00 2.137982130050659180e+00
-1.009345340728759766e+01 -4.796570301055908203e+00 1.753984928131103516e+00
-1.145301628112792969e+01 -4.929560184478759766e+00 1.614994764328002930e+00
-9.668329238891601562e+00 -4.584206104278564453e+00 1.285377621650695801e+00
-1.149261760711669922e+01 -4.941851139068603516e+00 1.162727475166320801e+00
-9.161759376525878906e+00 -4.340101242065429688e+00 8.459467291831970215e-01
-1.009101295471191406e+01 -5.234665393829345703e+00 8.407945632934570312e-01
-1.143197536468505859e+01 -4.911046981811523438e+00 7.021624445915222168e-01
-1.023232746124267578e+01 -4.842877388000488281e+00 5.318816304206848145e-01
-1.143714523315429688e+01 -5.925366878509521484e+00 4.835783243179321289e-01
-1.313813686370849609e+01 -5.084821224212646484e+00 4.181160628795623779e-01
-8.791863441467285156e+00 -4.155484199523925781e+00 1.035353392362594604e-01
-5.453657150268554688e+00 -2.823021650314331055e+00 7.502645254135131836e-03
-1.133698368072509766e+01 -5.830483436584472656e+00 2.849605321884155273e+00
-1.056183242797851562e+01 -4.942185878753662109e+00 2.270881414413452148e+00
-1.049137878417968750e+01 -4.906987190246582031e+00 1.817867755889892578e+00
-1.366239356994628906e+01 -6.999300479888916016e+00 2.264091253280639648e+00
-1.271236324310302734e+01 -5.379392623901367188e+00 1.787887692451477051e+00
-1.032068157196044922e+01 -4.816176891326904297e+00 1.368151426315307617e+00
-1.365411090850830078e+01 -6.986033916473388672e+00 1.695987105369567871e+00
-1.043191814422607422e+01 -4.863652229309082031e+00 9.604526162147521973e-01
-1.035827732086181641e+01 -5.292901515960693359e+00 8.603411316871643066e-01
-1.046015262603759766e+01 -4.872371673583984375e+00 5.421597957611083984e-01
-1.152224254608154297e+01 -5.880061149597167969e+00 4.856417179107666016e-01
-1.313264751434326172e+01 -4.990264415740966797e+00 4.169590771198272705e-01
-1.309241580963134766e+01 -5.524058818817138672e+00 2.877341806888580322e-01
-8.776395797729492188e+00 -4.082481384277343750e+00 1.030562594532966614e-01
-5.111853122711181641e+00 -2.606445550918579102e+00 7.010288070887327194e-03
-1.139953422546386719e+01 -5.774482250213623047e+00 2.856367826461791992e+00
-1.093521595001220703e+01 -5.035346984863281250e+00 2.344474792480468750e+00
-1.370081710815429688e+01 -6.925189495086669922e+00 2.839702606201171875e+00
-1.091256237030029297e+01 -5.022607803344726562e+00 1.885471820831298828e+00
-1.370155048370361328e+01 -6.913555145263671875e+00 2.263507604598999023e+00
-1.419462776184082031e+01 -5.904202938079833984e+00 1.991223216056823730e+00
-1.082283210754394531e+01 -4.969867706298828125e+00 1.430649161338806152e+00
-1.372068500518798828e+01 -6.914199352264404297e+00 1.698954701423645020e+00
-1.411591911315917969e+01 -5.865685462951660156e+00 1.420741319656372070e+00
-1.096698093414306641e+01 -5.031426429748535156e+00 1.006853699684143066e+00
-1.042441082000732422e+01 -5.246281147003173828e+00 8.631439805030822754e-01
-1.394811916351318359e+01 -5.205192089080810547e+00 9.810116291046142578e-01
-1.421530342102050781e+01 -5.901165008544921875e+00 8.686034083366394043e-01
-1.083763599395751953e+01 -4.967506885528564453e+00 5.601347684860229492e-01
-1.154292583465576172e+01 -5.801622390747070312e+00 4.850039184093475342e-01
-1.314335346221923828e+01 -4.902254581451416016e+00 4.163360893726348877e-01
-1.310667037963867188e+01 -5.435578346252441406e+00 2.873090505599975586e-01
-8.869472503662109375e+00 -4.059766769409179688e+00 1.038547307252883911e-01
-5.115238666534423828e+00 -2.568747997283935547e+00 6.993183866143226624e-03
-1.015451908111572266e+01 -5.065761566162109375e+00 2.536569595336914062e+00
-1.150324916839599609e+01 -5.211600780487060547e+00 2.459357023239135742e+00
-1.374217224121093750e+01 -6.840554714202880859e+00 2.839520692825317383e+00
-1.135354423522949219e+01 -5.141387939453125000e+00 1.956176877021789551e+00
-1.117251873016357422e+01 -5.047667026519775391e+00 1.472751617431640625e+00
-1.375750923156738281e+01 -6.827229499816894531e+00 1.698295235633850098e+00
-1.407453346252441406e+01 -5.159776687622070312e+00 1.535899639129638672e+00
-1.134098339080810547e+01 -5.119011878967285156e+00 1.038286805152893066e+00
-1.018297672271728516e+01 -5.046707630157470703e+00 8.405733704566955566e-01
-1.127858924865722656e+01 -5.086111068725585938e+00 5.813011527061462402e-01
-1.156666469573974609e+01 -5.724924564361572266e+00 4.845162332057952881e-01
-1.315629005432128906e+01 -4.815331935882568359e+00 4.158020913600921631e-01
-1.312773990631103516e+01 -5.350149631500244141e+00 2.870458662509918213e-01
-8.965332984924316406e+00 -4.037293910980224609e+00 1.046851426362991333e-01
-4.914875030517578125e+00 -2.430483579635620117e+00 6.698746699839830399e-03
-9.993580818176269531e+00 -4.909126758575439453e+00 2.488796234130859375e+00
-1.195190620422363281e+01 -5.326722145080566406e+00 2.548242568969726562e+00
-1.189383983612060547e+01 -5.298355102539062500e+00 2.043628215789794922e+00
-9.278214454650878906e+00 -4.539641380310058594e+00 1.523450255393981934e+00
-1.138655376434326172e+01 -5.060470104217529297e+00 1.496844172477722168e+00
-1.145961570739746094e+01 -5.088150978088378906e+00 1.046269774436950684e+00
-1.170678138732910156e+01 -5.193003177642822266e+00 6.017166376113891602e-01
-1.154318428039550781e+01 -5.625389575958251953e+00 4.820776879787445068e-01
-1.319970035552978516e+01 -4.739583015441894531e+00 4.162470996379852295e-01
-1.313897418975830078e+01 -5.260951042175292969e+00 2.865802645683288574e-01
-8.879311561584472656e+00 -3.933204889297485352e+00 1.033969447016716003e-01
-5.873737335205078125e+00 -2.859936952590942383e+00 7.981563918292522430e-03
-9.165006637573242188e+00 -4.442383766174316406e+00 2.677658081054687500e+00
-9.248622894287109375e+00 -4.472950458526611328e+00 2.296394109725952148e+00
-1.136586380004882812e+01 -4.982169151306152344e+00 2.416730165481567383e+00
-9.299671173095703125e+00 -4.487629890441894531e+00 1.910051107406616211e+00
-1.154608249664306641e+01 -5.058764934539794922e+00 1.978504896163940430e+00
-9.299654960632324219e+00 -4.479620456695556641e+00 1.522428870201110840e+00
-1.145832920074462891e+01 -5.008402347564697266e+00 1.502211332321166992e+00
-9.222059249877929688e+00 -4.436295032501220703e+00 1.131610631942749023e+00
-1.151162433624267578e+01 -5.026912689208984375e+00 1.048182249069213867e+00
-9.121383666992187500e+00 -4.381985664367675781e+00 7.484465837478637695e-01
-1.255510520935058594e+01 -5.477363586425781250e+00 6.435800790786743164e-01
-1.152342605590820312e+01 -5.528521060943603516e+00 4.798267781734466553e-01
-1.362734031677246094e+01 -4.798943996429443359e+00 4.287959039211273193e-01
-1.313099861145019531e+01 -5.164497375488281250e+00 2.857097387313842773e-01
-9.181046485900878906e+00 -3.999656200408935547e+00 1.066227704286575317e-01
-5.770339488983154297e+00 -2.765921831130981445e+00 7.817851379513740540e-03
-1.023018264770507812e+01 -4.870440483093261719e+00 2.532643079757690430e+00
-1.011042785644531250e+01 -4.802608966827392578e+00 2.070480108261108398e+00
-1.144625663757324219e+01 -4.931535243988037109e+00 1.956176877021789551e+00
-1.007069206237792969e+01 -4.775119781494140625e+00 1.643826246261596680e+00
-1.148063468933105469e+01 -4.934472560882568359e+00 1.501137971878051758e+00
-9.169155120849609375e+00 -4.341768264770507812e+00 1.121828913688659668e+00
-1.150104618072509766e+01 -4.938490390777587891e+00 1.044440269470214844e+00
-9.487085342407226562e+00 -4.486234188079833984e+00 7.761805057525634766e-01
-1.152084827423095703e+01 -4.942230701446533203e+00 5.889980196952819824e-01
-1.152550506591796875e+01 -5.442775726318359375e+00 4.785137176513671875e-01
-1.446152210235595703e+01 -4.993180751800537109e+00 4.540715515613555908e-01
-1.310368347167968750e+01 -5.061135768890380859e+00 2.844343185424804688e-01
-8.913121223449707031e+00 -3.818039894104003906e+00 1.032372489571571350e-01
-5.881258964538574219e+00 -2.774840593338012695e+00 7.944911718368530273e-03
-1.062131214141845703e+01 -4.976940631866455078e+00 2.621863842010498047e+00
-1.096990966796875000e+01 -5.128616333007812500e+00 2.240003585815429688e+00
-1.391510581970214844e+01 -5.894255161285400391e+00 2.371880054473876953e+00
-1.050859928131103516e+01 -4.904008865356445312e+00 1.710361361503601074e+00
-1.270694541931152344e+01 -5.369420528411865234e+00 1.657143712043762207e+00
-1.109564971923828125e+01 -5.170892715454101562e+00 1.353624463081359863e+00
-1.205535793304443359e+01 -5.089128494262695312e+00 1.091922402381896973e+00
-1.021696281433105469e+01 -4.754889011383056641e+00 8.334922790527343750e-01
-1.416487789154052734e+01 -5.973830699920654297e+00 7.222852110862731934e-01
-1.123879241943359375e+01 -5.223282814025878906e+00 4.652706384658813477e-01
-1.387077903747558594e+01 -4.694156646728515625e+00 4.346104860305786133e-01
-1.313916492462158203e+01 -4.982409954071044922e+00 2.845355570316314697e-01
-7.975192070007324219e+00 -3.358503341674804688e+00 9.213314950466156006e-02
-6.024246215820312500e+00 -2.797240734100341797e+00 8.114731870591640472e-03
-1.112534236907958984e+01 -5.118335723876953125e+00 2.265286684036254883e+00
-1.093586540222167969e+01 -5.021916866302490234e+00 1.774853706359863281e+00
-1.412052917480468750e+01 -5.864892005920410156e+00 1.836764931678771973e+00
-1.123919963836669922e+01 -5.154088497161865234e+00 1.367252945899963379e+00
-1.403771114349365234e+01 -5.236009597778320312e+00 1.392515301704406738e+00
-1.415459537506103516e+01 -5.873248577117919922e+00 1.278774023056030273e+00
-1.395321559906005859e+01 -5.198945999145507812e+00 8.403186202049255371e-01
-1.422156715393066406e+01 -5.895219326019287109e+00 7.233177423477172852e-01
-1.127426528930664062e+01 -5.155886650085449219e+00 4.654206931591033936e-01
-1.312638759613037109e+01 -4.885653495788574219e+00 2.836043238639831543e-01
-8.920498847961425781e+00 -3.692312717437744141e+00 1.027901023626327515e-01
-6.075860023498535156e+00 -2.776015758514404297e+00 8.161158300936222076e-03
-1.127747440338134766e+01 -5.104716777801513672e+00 2.289842128753662109e+00
-1.135774707794189453e+01 -5.131501197814941406e+00 1.838178873062133789e+00
-1.126064682006835938e+01 -5.080533027648925781e+00 1.366044044494628906e+00
-1.409201622009277344e+01 -5.157991409301757812e+00 1.394736289978027344e+00
-1.132209300994873047e+01 -5.093992710113525391e+00 4.660959839820861816e-01
-1.316363143920898438e+01 -4.807763576507568359e+00 2.837662696838378906e-01
-8.953174591064453125e+00 -3.641652345657348633e+00 1.029072105884552002e-01
-6.040789604187011719e+00 -2.715313673019409180e+00 8.091518655419349670e-03
-1.192031955718994141e+01 -5.307813644409179688e+00 2.413710832595825195e+00
-1.192059135437011719e+01 -5.297965526580810547e+00 1.923974156379699707e+00
-1.169951915740966797e+01 -5.192378520965576172e+00 1.415392518043518066e+00
-1.189466571807861328e+01 -5.271533966064453125e+00 9.622779488563537598e-01
-1.170495223999023438e+01 -5.180124759674072266e+00 4.805395603179931641e-01
-1.320417785644531250e+01 -4.730948925018310547e+00 2.840091884136199951e-01
-8.581646919250488281e+00 -3.429319381713867188e+00 9.839317947626113892e-02
-5.648514270782470703e+00 -2.497439861297607422e+00 7.545405533164739609e-03
-1.141582965850830078e+01 -4.999470233917236328e+00 2.305303096771240234e+00
-1.149872684478759766e+01 -5.026209831237792969e+00 1.850872993469238281e+00
-1.150251197814941406e+01 -5.020692825317382812e+00 1.387805700302124023e+00
-1.147425365447998047e+01 -5.001207351684570312e+00 9.257665872573852539e-01
-1.287269210815429688e+01 -5.602716445922851562e+00 5.270591378211975098e-01
-1.365553665161132812e+01 -4.798327922821044922e+00 2.930787205696105957e-01
-9.026044845581054688e+00 -3.542834758758544922e+00 1.032372489571571350e-01
-5.630718231201171875e+00 -2.448379039764404297e+00 7.501423824578523636e-03
-1.141755580902099609e+01 -4.907508850097656250e+00 1.832926034927368164e+00
-1.147373294830322266e+01 -4.924538612365722656e+00 1.380661725997924805e+00
-1.145797634124755859e+01 -4.910673141479492188e+00 9.220048189163208008e-01
-1.328441333770751953e+01 -5.685218334197998047e+00 5.424781441688537598e-01
-1.461108970642089844e+01 -5.033586978912353516e+00 3.129182755947113037e-01
-9.192233085632324219e+00 -3.543128728866577148e+00 1.048874184489250183e-01
-5.920560836791992188e+00 -2.531327486038208008e+00 7.866720668971538544e-03
-1.282985973358154297e+01 -5.421524047851562500e+00 2.054272174835205078e+00
-1.407426166534423828e+01 -5.938688755035400391e+00 1.689172863960266113e+00
-1.226539230346679688e+01 -5.167865276336669922e+00 9.844060540199279785e-01
-1.312745952606201172e+01 -5.522994518280029297e+00 5.346748232841491699e-01
-1.389526462554931641e+01 -4.691802501678466797e+00 2.969656586647033691e-01
-9.528969764709472656e+00 -3.605925083160400391e+00 1.084752231836318970e-01
-5.887121677398681641e+00 -2.474415779113769531e+00 7.801969069987535477e-03
-1.410859966278076172e+01 -5.851457595825195312e+00 1.688953042030334473e+00
-1.387089633941650391e+01 -5.165688991546630859e+00 1.235117197036743164e+00
-1.417005634307861328e+01 -5.868252277374267578e+00 1.134360909461975098e+00
-1.403383541107177734e+01 -5.220791816711425781e+00 7.035123705863952637e-01
-1.313709068298339844e+01 -5.432413101196289062e+00 5.336993932723999023e-01
-9.509671211242675781e+00 -3.532069683074951172e+00 1.080067902803421021e-01
-5.957647800445556641e+00 -2.461155176162719727e+00 7.875273004174232483e-03
-1.497155475616455078e+01 -6.092829704284667969e+00 1.195508241653442383e+00
-1.305815601348876953e+01 -5.306184291839599609e+00 5.291600227355957031e-01
-9.416546821594238281e+00 -3.431880235671997070e+00 1.067079454660415649e-01
-5.958738803863525391e+00 -2.418911457061767578e+00 7.856947369873523712e-03
-1.313130378723144531e+01 -5.242263317108154297e+00 5.308107137680053711e-01
-9.523110389709472656e+00 -3.404670000076293945e+00 1.076767519116401672e-01
-6.143449306488037109e+00 -2.450094461441040039e+00 8.080523461103439331e-03
-1.463931369781494141e+01 -5.141319751739501953e+00 7.289965152740478516e-01
-1.309065723419189453e+01 -5.133137702941894531e+00 5.278844833374023438e-01
-9.493809700012207031e+00 -3.328638553619384766e+00 1.071125045418739319e-01
-5.974938392639160156e+00 -2.340500354766845703e+00 7.839842699468135834e-03
-1.388572311401367188e+01 -4.781153202056884766e+00 6.899959444999694824e-01
-1.308180713653564453e+01 -5.037277698516845703e+00 5.262712836265563965e-01
-9.576467514038085938e+00 -3.291776180267333984e+00 1.078151613473892212e-01
-5.991053581237792969e+00 -2.304512739181518555e+00 7.842286489903926849e-03
-1.382677841186523438e+01 -4.666157722473144531e+00 6.856312751770019531e-01
-1.326576519012451172e+01 -5.014864921569824219e+00 5.324238538742065430e-01
-9.876030921936035156e+00 -3.327130079269409180e+00 1.109558269381523132e-01
-6.103310108184814453e+00 -2.304803371429443359e+00 7.970567792654037476e-03
-1.398476314544677734e+01 -5.197153568267822266e+00 1.103455305099487305e+00
-1.374411869049072266e+01 -5.099534034729003906e+00 5.503564476966857910e-01
-9.808901786804199219e+00 -3.237634658813476562e+00 1.099763661623001099e-01
-6.195163726806640625e+00 -2.296156167984008789e+00 8.071972057223320007e-03
-1.402380943298339844e+01 -5.122273921966552734e+00 1.650925040245056152e+00
-9.654464721679687500e+00 -3.121098518371582031e+00 1.080280840396881104e-01
-6.195979118347167969e+00 -2.253315210342407227e+00 8.054867386817932129e-03
-6.970080852508544922e+00 -1.663520812988281250e+00 2.126773148775100708e-01
-9.669620513916015625e+00 -3.060594320297241211e+00 1.079855039715766907e-01
-6.209688663482666016e+00 -2.215255022048950195e+00 8.054867386817932129e-03
-1.447886753082275391e+01 -5.070959091186523438e+00 5.759422183036804199e-01
-6.980156898498535156e+00 -1.620721936225891113e+00 2.126773148775100708e-01
-9.510558128356933594e+00 -2.946169614791870117e+00 1.060052886605262756e-01
-6.118391036987304688e+00 -2.140457391738891602e+00 7.919255644083023071e-03
-1.387268829345703125e+01 -4.763296604156494141e+00 5.506565570831298828e-01
-9.911239624023437500e+00 -3.003767490386962891e+00 1.102638095617294312e-01
-5.906281948089599609e+00 -2.025664091110229492e+00 7.628483697772026062e-03
-1.384577465057373047e+01 -4.659281730651855469e+00 5.484430789947509766e-01
-9.987008094787597656e+00 -2.959945678710937500e+00 1.109025925397872925e-01
-5.535654067993164062e+00 -1.860668063163757324e+00 7.134904619306325912e-03
-9.739898681640625000e+00 -2.821811676025390625e+00 1.079642102122306824e-01
-6.443599700927734375e+00 -2.121936321258544922e+00 8.288217708468437195e-03
-6.953810691833496094e+00 -1.699737668037414551e+00 1.449501663446426392e-01
-9.671398162841796875e+00 -2.737755537033081055e+00 1.070166826248168945e-01
-6.142429351806640625e+00 -1.981065273284912109e+00 7.885047234594821930e-03
-7.017604351043701172e+00 -1.669766545295715332e+00 1.460636109113693237e-01
-9.676450729370117188e+00 -2.675164222717285156e+00 1.068889349699020386e-01
-6.123954296112060547e+00 -1.933703422546386719e+00 7.845951244235038757e-03
-7.027718067169189453e+00 -1.626675844192504883e+00 1.460636109113693237e-01
-9.211910247802734375e+00 -2.485995292663574219e+00 1.015870720148086548e-01
-5.281558990478515625e+00 -1.632138252258300781e+00 6.753724999725818634e-03
-9.916451454162597656e+00 -2.610957384109497070e+00 1.091778799891471863e-01
-6.186468601226806641e+00 -1.870272040367126465e+00 7.896042428910732269e-03
-1.013858222961425781e+01 -2.603027820587158203e+00 1.114455461502075195e-01
-5.816157341003417969e+00 -1.719443321228027344e+00 7.409793790429830551e-03
-1.019898605346679688e+01 -2.551934719085693359e+00 1.119352877140045166e-01
-5.601796627044677734e+00 -1.618762254714965820e+00 7.123908959329128265e-03
-7.004584312438964844e+00 -1.707047939300537109e+00 7.675988227128982544e-02
-6.382487773895263672e+00 -1.802002072334289551e+00 8.102514781057834625e-03
-6.971144199371337891e+00 -1.653650641441345215e+00 7.628079503774642944e-02
-6.395352840423583984e+00 -1.763337492942810059e+00 8.104958571493625641e-03
-6.969467639923095703e+00 -1.608147501945495605e+00 7.615303993225097656e-02
-6.306591033935546875e+00 -1.697295188903808594e+00 7.979120127856731415e-03
-6.993839263916015625e+00 -1.568635940551757812e+00 7.631273567676544189e-02
-6.298509597778320312e+00 -1.653741598129272461e+00 7.955906912684440613e-03
-1.004188823699951172e+01 -2.187649726867675781e+00 1.094227582216262817e-01
-6.275600433349609375e+00 -1.606631159782409668e+00 7.914368063211441040e-03
-1.059123802185058594e+01 -2.239345788955688477e+00 1.152569279074668884e-01
-5.992321968078613281e+00 -1.494990944862365723e+00 7.545405533164739609e-03
-1.025409507751464844e+01 -2.102415561676025391e+00 1.114455461502075195e-01
-6.132565498352050781e+00 -1.490069150924682617e+00 7.710339501500129700e-03
-7.010947704315185547e+00 -1.660588622093200684e+00 2.704887390136718750e-01
-1.025111007690429688e+01 -2.036340951919555664e+00 1.112752109766006470e-01
-6.230150222778320312e+00 -1.473355054855346680e+00 7.821517065167427063e-03
-7.014188289642333984e+00 -1.615968585014343262e+00 2.702261209487915039e-01
-1.024279022216796875e+01 -1.969437956809997559e+00 1.110516414046287537e-01
-6.348223209381103516e+00 -1.460206270217895508e+00 7.958350703120231628e-03
-1.046309852600097656e+01 -1.945301175117492676e+00 1.133086532354354858e-01
-6.358038902282714844e+00 -1.421445012092590332e+00 7.959572598338127136e-03
-1.127803611755371094e+01 -1.193454861640930176e+00 3.365932106971740723e-01
-1.059786224365234375e+01 -1.903156876564025879e+00 1.146394461393356323e-01
-6.431138038635253906e+00 -1.396410465240478516e+00 8.040206506848335266e-03
-1.128116893768310547e+01 -1.123835325241088867e+00 3.364745676517486572e-01
-1.054825401306152344e+01 -1.827510356903076172e+00 1.139793694019317627e-01
-6.454262733459472656e+00 -1.360016226768493652e+00 8.058532141149044037e-03
-1.055335140228271484e+01 -1.761765241622924805e+00 1.139154955744743347e-01
-6.465425968170166016e+00 -1.320988655090332031e+00 8.062197826802730560e-03
-1.056001281738281250e+01 -1.696343421936035156e+00 1.138729006052017212e-01
-6.460657119750976562e+00 -1.278768539428710938e+00 8.046315051615238190e-03
-1.093389511108398438e+01 -1.687649488449096680e+00 1.177907437086105347e-01
-6.463470935821533203e+00 -1.238161802291870117e+00 8.040206506848335266e-03
-1.088172817230224609e+01 -1.611301064491271973e+00 1.171200275421142578e-01
-6.396217346191406250e+00 -1.184638857841491699e+00 7.947354577481746674e-03
-1.127057075500488281e+01 -1.184833288192749023e+00 2.294707000255584717e-01
-1.101417541503906250e+01 -1.561910986900329590e+00 1.184401810169219971e-01
-6.534287929534912109e+00 -1.168788194656372070e+00 8.109845221042633057e-03
-1.127862262725830078e+01 -1.115754485130310059e+00 2.294909358024597168e-01
-1.001582527160644531e+01 -1.357697367668151855e+00 1.076128855347633362e-01
-6.553161144256591797e+00 -1.130712866783142090e+00 8.124506101012229919e-03
-1.030560588836669922e+01 -1.332634925842285156e+00 1.106364279985427856e-01
-6.468235015869140625e+00 -1.075231790542602539e+00 8.010884746909141541e-03
-1.085050678253173828e+01 -1.335458755493164062e+00 1.163960844278335571e-01
-6.704786777496337891e+00 -1.072320103645324707e+00 8.295548148453235626e-03
-1.078400802612304688e+01 -1.260151863098144531e+00 1.155976131558418274e-01
-6.676645755767822266e+00 -1.025844812393188477e+00 8.252787403762340546e-03
-1.078855514526367188e+01 -1.193628787994384766e+00 1.155656725168228149e-01
-6.691719055175781250e+00 -9.861705899238586426e-01 8.263783529400825500e-03
-1.118453979492187500e+01 -1.168018460273742676e+00 1.197283715009689331e-01
-6.020354270935058594e+00 -8.495212793350219727e-01 7.428119890391826630e-03
-1.118552494049072266e+01 -1.098783016204833984e+00 1.196645051240921021e-01
-6.679532051086425781e+00 -9.007711410522460938e-01 8.234461769461631775e-03
-1.129063415527343750e+01 -1.039202451705932617e+00 1.207184866070747375e-01
-6.568889141082763672e+00 -8.448445796966552734e-01 8.091518655419349670e-03
-1.173416423797607422e+01 -1.007455587387084961e+00 1.253922134637832642e-01
-6.859816551208496094e+00 -8.395072221755981445e-01 8.443377912044525146e-03
-1.174112129211425781e+01 -9.355165362358093262e-01 1.254028528928756714e-01
-6.832058906555175781e+00 -7.935928106307983398e-01 8.403060026466846466e-03
-1.174464607238769531e+01 -8.633101582527160645e-01 1.253815591335296631e-01
-6.809961318969726562e+00 -7.487064599990844727e-01 8.370073512196540833e-03
-1.175072002410888672e+01 -7.912973165512084961e-01 1.253922134637832642e-01
-6.839293956756591797e+00 -7.094868421554565430e-01 8.400617167353630066e-03
-6.814655303955078125e+00 -6.646930575370788574e-01 8.365186862647533417e-03
-1.112054824829101562e+01 -6.118791103363037109e-01 1.185785755515098572e-01
-6.892298698425292969e+00 -6.295983791351318359e-01 8.455595001578330994e-03
-1.177028560638427734e+01 -5.752125978469848633e-01 1.254667341709136963e-01
-6.890053749084472656e+00 -5.867870450019836426e-01 8.448264561593532562e-03
-1.234603881835937500e+01 -5.274361371994018555e-01 1.315670758485794067e-01
-6.941375255584716797e+00 -5.482789874076843262e-01 8.506907150149345398e-03
-1.261285209655761719e+01 -4.613212347030639648e-01 1.343777030706405640e-01
-6.957574367523193359e+00 -5.066213011741638184e-01 8.522789925336837769e-03
-1.233359050750732422e+01 -3.753439784049987793e-01 1.313754320144653320e-01
-6.973523139953613281e+00 -4.647854268550872803e-01 8.538672700524330139e-03
-1.282049179077148438e+01 -3.114369809627532959e-01 1.365388929843902588e-01
-6.976243972778320312e+00 -4.219879508018493652e-01 8.538672700524330139e-03
-1.263120365142822266e+01 -2.292995154857635498e-01 1.345054507255554199e-01
-6.532360553741455078e+00 -3.549234569072723389e-01 7.992559112608432770e-03
-1.192646312713623047e+01 -1.433093249797821045e-01 1.269891560077667236e-01
-6.741175651550292969e+00 -3.247968852519989014e-01 8.245457895100116730e-03
-1.203111076354980469e+01 -7.073866575956344604e-02 1.280963718891143799e-01
-7.063757896423339844e+00 -2.969082593917846680e-01 8.637632243335247040e-03
-1.298526477813720703e+01 3.328710794448852539e-03 1.382529586553573608e-01
-6.997490406036376953e+00 -2.511214911937713623e-01 8.554555475711822510e-03
-1.298000049591064453e+01 8.297277241945266724e-02 1.381997317075729370e-01
-6.917935848236083984e+00 -2.057727128267288208e-01 8.455595001578330994e-03
-1.276027584075927734e+01 1.598715484142303467e-01 1.358681917190551758e-01
-6.924066066741943359e+00 -1.634391695261001587e-01 8.461703546345233917e-03
-1.229716110229492188e+01 2.295422703027725220e-01 1.309495866298675537e-01
-6.965932846069335938e+00 -1.216668188571929932e-01 8.511794731020927429e-03
