-4.399069309234619141e+00 -6.668214321136474609e+00 8.505335450172424316e-02
-3.317591428756713867e+00 -5.447238922119140625e+00 7.792195305228233337e-03
-4.369321346282958984e+00 -6.535524368286132812e+00 8.370127528905868530e-02
-3.405068159103393555e+00 -5.514418601989746094e+00 7.918033748865127563e-03
-4.408779621124267578e+00 -6.507763862609863281e+00 8.369062840938568115e-02
-3.405942440032958984e+00 -5.440869331359863281e+00 7.842286489903926849e-03
-4.390338420867919922e+00 -6.395676136016845703e+00 8.259405940771102905e-02
-3.445692300796508789e+00 -5.430000782012939453e+00 7.856947369873523712e-03
-4.540265083312988281e+00 -6.527873516082763672e+00 8.465943485498428345e-02
-3.560090065002441406e+00 -5.534912586212158203e+00 8.040206506848335266e-03
-4.412045955657958984e+00 -6.261214256286621094e+00 8.155071735382080078e-02
-3.599992036819458008e+00 -5.522179126739501953e+00 8.053645491600036621e-03
-4.792003154754638672e+00 -6.712563037872314453e+00 8.781074732542037964e-02
-3.606245279312133789e+00 -5.458268642425537109e+00 7.992559112608432770e-03
-4.697154998779296875e+00 -6.495053291320800781e+00 8.534080535173416138e-02
-3.547314167022705078e+00 -5.298101902008056641e+00 7.789751980453729630e-03
-4.715054988861083984e+00 -6.436263561248779297e+00 8.494689315557479858e-02
-3.629162549972534180e+00 -5.349057197570800781e+00 7.897264324128627777e-03
-4.771142482757568359e+00 -6.429695129394531250e+00 8.524498343467712402e-02
-3.695906162261962891e+00 -5.376132011413574219e+00 7.970567792654037476e-03
-4.499897480010986328e+00 -5.987041473388671875e+00 7.974084466695785522e-02
-3.757401704788208008e+00 -5.394381046295166016e+00 8.031654171645641327e-03
-4.939931869506835938e+00 -6.489212036132812500e+00 8.683128654956817627e-02
-3.725276947021484375e+00 -5.278899192810058594e+00 7.893599569797515869e-03
-4.854493141174316406e+00 -6.296438217163085938e+00 8.464879542589187622e-02
-3.802960872650146484e+00 -5.319394111633300781e+00 7.988894358277320862e-03
-4.870266437530517578e+00 -6.237372398376464844e+00 8.425488322973251343e-02
-3.776871919631958008e+00 -5.214968681335449219e+00 7.866720668971538544e-03
-5.019466400146484375e+00 -6.347770690917968750e+00 8.616057038307189941e-02
-3.859078645706176758e+00 -5.260230541229248047e+00 7.970567792654037476e-03
-4.907064914703369141e+00 -6.127963066101074219e+00 8.358415961265563965e-02
-3.928262710571289062e+00 -5.286217212677001953e+00 8.046315051615238190e-03
-5.038413524627685547e+00 -6.213464260101318359e+00 8.517045527696609497e-02
-3.878837823867797852e+00 -5.153354167938232422e+00 7.880159653723239899e-03
-5.124035835266113281e+00 -6.240393161773681641e+00 8.596894145011901855e-02
-3.912810325622558594e+00 -5.132637977600097656e+00 7.885047234594821930e-03
-5.184604644775390625e+00 -6.235746383666992188e+00 8.634155988693237305e-02
-4.047510623931884766e+00 -5.242301464080810547e+00 8.091518655419349670e-03
-5.338043212890625000e+00 -6.340744018554687500e+00 8.824724704027175903e-02
-3.856001853942871094e+00 -4.931408882141113281e+00 7.648031227290630341e-03
-5.347658634185791016e+00 -6.273626327514648438e+00 8.776815980672836304e-02
-4.092913150787353516e+00 -5.168718338012695312e+00 8.054867386817932129e-03
-5.333785533905029297e+00 -6.180136203765869141e+00 8.691646158695220947e-02
-4.120797157287597656e+00 -5.138826370239257812e+00 8.047536946833133698e-03
-5.334101676940917969e+00 -6.104372501373291016e+00 8.630961924791336060e-02
-3.772767782211303711e+00 -4.646116256713867188e+00 7.312055211514234543e-03
-5.499996185302734375e+00 -6.216819763183593750e+00 8.837500214576721191e-02
-3.966336488723754883e+00 -4.823706626892089844e+00 7.629705592989921570e-03
-5.506681919097900391e+00 -6.147947311401367188e+00 8.787462860345840454e-02
-3.821820497512817383e+00 -4.590246677398681641e+00 7.297394331544637680e-03
-5.560422420501708984e+00 -6.131821155548095703e+00 8.813013881444931030e-02
-3.919525623321533203e+00 -4.649282455444335938e+00 7.429341785609722137e-03
-5.613495349884033203e+00 -6.114529132843017578e+00 8.837500214576721191e-02
-3.992776155471801758e+00 -4.677625656127929688e+00 7.513640448451042175e-03
-5.716259479522705078e+00 -6.150284290313720703e+00 8.939704298973083496e-02
-4.262032508850097656e+00 -4.931464195251464844e+00 7.963237352669239044e-03
-5.770335197448730469e+00 -6.132572174072265625e+00 8.965256065130233765e-02
-4.306040287017822266e+00 -4.921024322509765625e+00 7.988894358277320862e-03
-5.807855129241943359e+00 -6.097050666809082031e+00 8.965256065130233765e-02
-4.360026359558105469e+00 -4.921456336975097656e+00 8.032876066863536835e-03
-5.726462364196777344e+00 -5.938216209411621094e+00 8.783203363418579102e-02
-4.319365501403808594e+00 -4.815701961517333984e+00 7.903372868895530701e-03
-5.848709106445312500e+00 -5.990975379943847656e+00 8.914153277873992920e-02
-4.470510959625244141e+00 -4.923105239868164062e+00 8.124506101012229919e-03
-5.798902511596679688e+00 -5.867496490478515625e+00 8.783203363418579102e-02
-4.527029037475585938e+00 -4.924293041229248047e+00 8.172153495252132416e-03
-5.958563804626464844e+00 -5.955509662628173828e+00 8.969514071941375732e-02
-4.570784568786621094e+00 -4.911063194274902344e+00 8.196587674319744110e-03
-6.009937286376953125e+00 -5.933589935302734375e+00 8.991871029138565063e-02
-4.559000492095947266e+00 -4.838528156280517578e+00 8.122062310576438904e-03
-6.089184284210205078e+00 -5.938491344451904297e+00 9.055749326944351196e-02
-4.097164630889892578e+00 -4.295263767242431641e+00 7.252190727740526199e-03
-6.130548477172851562e+00 -5.905873298645019531e+00 9.063202142715454102e-02
-4.556904315948486328e+00 -4.718915462493896484e+00 8.014550432562828064e-03
-6.226069927215576172e+00 -5.924669265747070312e+00 9.150501340627670288e-02
-4.357183456420898438e+00 -4.457037925720214844e+00 7.615044713020324707e-03
-6.232433795928955078e+00 -5.858276844024658203e+00 9.106852114200592041e-02
-4.385856151580810547e+00 -4.431640148162841797e+00 7.617487572133541107e-03
-6.359860420227050781e+00 -5.904971599578857422e+00 9.239930659532546997e-02
-4.432783603668212891e+00 -4.424426078796386719e+00 7.651696447283029556e-03
-8.762864112854003906e+00 -6.941470146179199219e+00 3.317872881889343262e-01
-6.379022598266601562e+00 -5.850291728973388672e+00 9.215443581342697144e-02
-4.391486644744873047e+00 -4.329743862152099609e+00 7.534410338848829269e-03
-6.478532791137695312e+00 -5.868775367736816406e+00 9.307002276182174683e-02
-4.584172725677490234e+00 -4.464582920074462891e+00 7.817851379513740540e-03
-6.508459091186523438e+00 -5.823579311370849609e+00 9.298484772443771362e-02
-4.558872699737548828e+00 -4.385760784149169922e+00 7.728665135800838470e-03
-8.991679191589355469e+00 -6.857189655303955078e+00 3.356142342090606689e-01
-8.411064147949218750e+00 -6.908849239349365234e+00 2.204011827707290649e-01
-6.427184104919433594e+00 -5.680233001708984375e+00 9.132402390241622925e-02
-4.576998710632324219e+00 -4.349439144134521484e+00 7.714004255831241608e-03
-9.026398658752441406e+00 -6.796477794647216797e+00 3.353472352027893066e-01
-8.370992660522460938e+00 -6.790346145629882812e+00 2.182552665472030640e-01
-6.528961658477783203e+00 -5.699214458465576172e+00 9.227155148983001709e-02
-4.610162734985351562e+00 -4.327433109283447266e+00 7.725000381469726562e-03
-8.978085517883300781e+00 -6.674174785614013672e+00 3.320246040821075439e-01
-8.400795936584472656e+00 -6.729479312896728516e+00 2.179516106843948364e-01
-6.605461597442626953e+00 -5.694957733154296875e+00 9.285709261894226074e-02
-4.657893657684326172e+00 -4.318781375885009766e+00 7.760430220514535904e-03
-8.963266372680664062e+00 -6.578154087066650391e+00 3.299776315689086914e-01
-8.434872627258300781e+00 -6.672224044799804688e+00 2.177694141864776611e-01
-6.755240917205810547e+00 -5.752210617065429688e+00 9.446468949317932129e-02
-4.817784786224365234e+00 -4.412366867065429688e+00 7.981563918292522430e-03
-8.997794151306152344e+00 -6.518927574157714844e+00 3.297699689865112305e-01
-8.350374221801757812e+00 -6.522487163543701172e+00 2.145505398511886597e-01
-6.830969333648681641e+00 -5.744764328002929688e+00 9.502894431352615356e-02
-4.749845027923583984e+00 -4.296852111816406250e+00 7.825181819498538971e-03
-9.762787818908691406e+00 -6.989952564239501953e+00 1.230228304862976074e+00
-9.725315093994140625e+00 -6.957989215850830078e+00 7.879652976989746094e-01
-8.869327545166015625e+00 -6.343231678009033203e+00 3.236290812492370605e-01
-8.372820854187011719e+00 -6.457694053649902344e+00 2.141051590442657471e-01
-6.699937343597412109e+00 -5.564741134643554688e+00 9.272933751344680786e-02
-4.917055606842041016e+00 -4.393556594848632812e+00 8.056089282035827637e-03
-9.839590072631835938e+00 -6.961743354797363281e+00 3.061162471771240234e+00
-9.812717437744140625e+00 -6.945300579071044922e+00 2.581666469573974609e+00
-9.818647384643554688e+00 -6.946925640106201172e+00 2.125137567520141602e+00
-9.786844253540039062e+00 -6.921861648559570312e+00 1.669768214225769043e+00
-9.772185325622558594e+00 -6.906377315521240234e+00 1.226049304008483887e+00
-9.717291831970214844e+00 -6.862497329711914062e+00 7.838887572288513184e-01
-8.941561698913574219e+00 -6.312326431274414062e+00 3.248454034328460693e-01
-8.331950187683105469e+00 -6.345019340515136719e+00 2.120604813098907471e-01
-6.889354705810546875e+00 -5.650992393493652344e+00 9.486924856901168823e-02
-4.826958656311035156e+00 -4.260076999664306641e+00 7.865498773753643036e-03
-9.994343757629394531e+00 -6.977014064788818359e+00 3.591968059539794922e+00
-9.858281135559082031e+00 -6.884589195251464844e+00 3.053777694702148438e+00
-9.819081306457519531e+00 -6.859763145446777344e+00 2.572218418121337891e+00
-9.799728393554687500e+00 -6.843698024749755859e+00 2.111914157867431641e+00
-9.792586326599121094e+00 -6.836168289184570312e+00 1.663559794425964355e+00
-9.765424728393554688e+00 -6.812138080596923828e+00 1.219933867454528809e+00
-9.738751411437988281e+00 -6.788478374481201172e+00 7.822449207305908203e-01
-8.999807357788085938e+00 -6.271058082580566406e+00 3.255573809146881104e-01
-8.323577880859375000e+00 -6.258326530456542969e+00 2.108660489320755005e-01
-6.940216064453125000e+00 -5.621831417083740234e+00 9.509281814098358154e-02
-4.840192317962646484e+00 -4.219208717346191406e+00 7.844730280339717865e-03
-9.879590034484863281e+00 -6.809668540954589844e+00 3.047377824783325195e+00
-9.825571060180664062e+00 -6.774965286254882812e+00 2.562980175018310547e+00
-9.840725898742675781e+00 -6.782880783081054688e+00 2.111740350723266602e+00
-9.822930335998535156e+00 -6.768085956573486328e+00 1.661628365516662598e+00
-9.784915924072265625e+00 -6.736858367919921875e+00 1.217181921005249023e+00
-9.755558967590332031e+00 -6.711627960205078125e+00 7.802724242210388184e-01
-8.909636497497558594e+00 -6.127359390258789062e+00 3.209294378757476807e-01
-8.334527015686035156e+00 -6.186874866485595703e+00 2.101777493953704834e-01
-6.968333721160888672e+00 -5.574144363403320312e+00 9.500765800476074219e-02
-4.944045543670654297e+00 -4.256633281707763672e+00 7.970567792654037476e-03
-9.930804252624511719e+00 -6.755462169647216797e+00 3.050331592559814453e+00
-9.867764472961425781e+00 -6.715098857879638672e+00 2.563189983367919922e+00
-9.922055244445800781e+00 -6.749511241912841797e+00 2.120265722274780273e+00
-9.884748458862304688e+00 -6.721609592437744141e+00 1.665077328681945801e+00
-9.887779235839843750e+00 -6.718624114990234375e+00 1.224826216697692871e+00
-9.826276779174804688e+00 -6.671821117401123047e+00 7.826395034790039062e-01
-9.014056205749511719e+00 -6.118043422698974609e+00 3.233323991298675537e-01
-8.376363754272460938e+00 -6.138573169708251953e+00 2.102789580821990967e-01
-6.914521694183349609e+00 -5.461862564086914062e+00 9.381525963544845581e-02
-4.960928916931152344e+00 -4.218443393707275391e+00 7.955906912684440613e-03
-9.995405197143554688e+00 -6.710067272186279297e+00 3.057470083236694336e+00
-9.907158851623535156e+00 -6.653334617614746094e+00 2.562770128250122070e+00
-9.981269836425781250e+00 -6.700578212738037109e+00 2.124093532562255859e+00
-9.972683906555175781e+00 -6.692289352416992188e+00 1.672941327095031738e+00
-9.956083297729492188e+00 -6.676110744476318359e+00 1.228189706802368164e+00
-9.922568321228027344e+00 -6.648616790771484375e+00 7.870448231697082520e-01
-9.071357727050781250e+00 -6.075969219207763672e+00 3.240444064140319824e-01
-8.417112350463867188e+00 -6.089406013488769531e+00 2.103599458932876587e-01
-7.175769805908203125e+00 -5.597066402435302734e+00 9.689205139875411987e-02
-4.855772018432617188e+00 -4.077952861785888672e+00 7.746991235762834549e-03
-1.008810234069824219e+01 -6.682868003845214844e+00 3.073224067687988281e+00
-9.958391189575195312e+00 -6.599442005157470703e+00 2.565499782562255859e+00
-9.772936820983886719e+00 -6.989643096923828125e+00 1.116732954978942871e+00
-1.000812339782714844e+01 -6.617326259613037109e+00 7.905953526496887207e-01
-9.693064689636230469e+00 -6.927404880523681641e+00 6.723563075065612793e-01
-9.130983352661132812e+00 -6.035075187683105469e+00 3.248454034328460693e-01
-8.446181297302246094e+00 -6.031834125518798828e+00 2.101574987173080444e-01
-7.221068859100341797e+00 -5.561473369598388672e+00 9.704110026359558105e-02
-4.784489154815673828e+00 -3.968281984329223633e+00 7.594274822622537613e-03
-1.015325641632080078e+01 -6.636751651763916016e+00 3.080608606338500977e+00
-9.846801757812500000e+00 -6.972166061401367188e+00 2.934502601623535156e+00
-9.812389373779296875e+00 -6.942658901214599609e+00 2.458634138107299805e+00
-9.831042289733886719e+00 -6.950708389282226562e+00 2.006166219711303711e+00
-9.800601959228515625e+00 -6.924056529998779297e+00 1.554238200187683105e+00
-9.765207290649414062e+00 -6.893941879272460938e+00 1.110995173454284668e+00
-9.701937675476074219e+00 -6.844202041625976562e+00 6.700462102890014648e-01
-9.164492607116699219e+00 -5.976750850677490234e+00 3.247267007827758789e-01
-8.422562599182128906e+00 -5.937268257141113281e+00 2.086594104766845703e-01
-7.274160385131835938e+00 -5.531587600708007812e+00 9.729661047458648682e-02
-5.025358676910400391e+00 -4.116275787353515625e+00 7.936359383165836334e-03
-1.023228263854980469e+01 -6.596626281738281250e+00 3.587727785110473633e+00
-9.982972145080566406e+00 -6.982203006744384766e+00 3.451865434646606445e+00
-1.021333599090576172e+01 -6.586935043334960938e+00 3.086516380310058594e+00
-9.851167678833007812e+00 -6.884897708892822266e+00 2.923158645629882812e+00
-9.822674751281738281e+00 -6.859882354736328125e+00 2.450618505477905273e+00
-9.795851707458496094e+00 -6.836063861846923828e+00 1.990387678146362305e+00
-9.803043365478515625e+00 -6.835995197296142578e+00 1.547944188117980957e+00
-9.774646759033203125e+00 -6.811123847961425781e+00 1.107293486595153809e+00
-9.729002952575683594e+00 -6.774274349212646484e+00 6.690320372581481934e-01
-9.227050781250000000e+00 -5.937172889709472656e+00 3.256463706493377686e-01
-8.408772468566894531e+00 -5.850645065307617188e+00 2.074245065450668335e-01
-7.283974647521972656e+00 -5.468838691711425781e+00 9.697721898555755615e-02
-4.939341068267822266e+00 -3.995429992675781250e+00 7.761652115732431412e-03
-1.027175712585449219e+01 -6.533203125000000000e+00 3.587445259094238281e+00
-9.860433578491210938e+00 -6.801702022552490234e+00 2.913469314575195312e+00
-9.835541725158691406e+00 -6.779466152191162109e+00 2.443404197692871094e+00
-9.836799621582031250e+00 -6.775269031524658203e+00 1.990223288536071777e+00
-9.833366394042968750e+00 -6.767844676971435547e+00 1.546145915985107422e+00
-9.803949356079101562e+00 -6.742556571960449219e+00 1.105905294418334961e+00
-9.744877815246582031e+00 -6.696920871734619141e+00 6.672853231430053711e-01
-3.832074165344238281e+00 -2.432641267776489258e+00 1.347144246101379395e-01
-8.440391540527343750e+00 -5.796109676361083984e+00 2.073232680559158325e-01
-7.368002891540527344e+00 -5.461556434631347656e+00 9.764794260263442993e-02
-4.940323829650878906e+00 -3.946324110031127930e+00 7.725000381469726562e-03
-1.032302570343017578e+01 -6.477191448211669922e+00 3.591402769088745117e+00
-9.918849945068359375e+00 -6.752554416656494141e+00 2.918432235717773438e+00
-9.895586013793945312e+00 -6.731662750244140625e+00 2.448013305664062500e+00
-9.896134376525878906e+00 -6.726984024047851562e+00 1.993839263916015625e+00
-9.866504669189453125e+00 -6.701808452606201172e+00 1.544861316680908203e+00
-9.861613273620605469e+00 -6.693457126617431641e+00 1.107756137847900391e+00
-9.803964614868164062e+00 -6.649330615997314453e+00 6.685249209403991699e-01
-3.829137802124023438e+00 -2.397941112518310547e+00 1.340914219617843628e-01
-8.488211631774902344e+00 -5.752624988555908203e+00 2.076269537210464478e-01
-7.579712390899658203e+00 -5.546749114990234375e+00 1.000007688999176025e-01
-5.112836360931396484e+00 -4.032987117767333984e+00 7.955906912684440613e-03
-1.039519977569580078e+01 -6.433921337127685547e+00 3.602709770202636719e+00
-9.998809814453125000e+00 -6.717576026916503906e+00 2.929775714874267578e+00
-9.952973365783691406e+00 -6.681739330291748047e+00 2.452021121978759766e+00
-9.992107391357421875e+00 -6.702953338623046875e+00 2.004851341247558594e+00
-9.989816665649414062e+00 -6.696361541748046875e+00 1.557706356048583984e+00
-9.938071250915527344e+00 -6.656648635864257812e+00 1.111735582351684570e+00
-9.881086349487304688e+00 -6.613484382629394531e+00 6.710040569305419922e-01
-9.677279472351074219e+00 -6.998668193817138672e+00 5.611203312873840332e-01
-3.839527606964111328e+00 -2.371774673461914062e+00 1.339430958032608032e-01
-8.525842666625976562e+00 -5.702101707458496094e+00 2.076876908540725708e-01
-7.618466854095458984e+00 -5.503649234771728516e+00 1.000646427273750305e-01
-5.141430854797363281e+00 -4.004611968994140625e+00 7.962015457451343536e-03
-1.043693828582763672e+01 -6.371515274047851562e+00 3.603557586669921875e+00
-1.006251621246337891e+01 -6.671131610870361328e+00 2.936393022537231445e+00
-1.002972030639648438e+01 -6.644350528717041016e+00 2.460838556289672852e+00
-9.759511947631835938e+00 -6.972481250762939453e+00 1.000866532325744629e+00
-1.003644943237304688e+01 -6.628663063049316406e+00 6.787796020507812500e-01
-9.681829452514648438e+00 -6.911879539489746094e+00 5.589145421981811523e-01
-3.859129905700683594e+00 -2.351291656494140625e+00 1.341211050748825073e-01
-8.496416091918945312e+00 -5.607275962829589844e+00 2.061288505792617798e-01
-7.626040935516357422e+00 -5.438221454620361328e+00 9.972396492958068848e-02
-5.073955059051513672e+00 -3.902271747589111328e+00 7.820295169949531555e-03
-1.017876720428466797e+01 -6.663732528686523438e+00 3.447230815887451172e+00
-1.014391708374023438e+01 -6.635859966278076172e+00 2.948209524154663086e+00
-9.821947097778320312e+00 -6.957302570343017578e+00 2.805385112762451172e+00
-9.785527229309082031e+00 -6.921250820159912109e+00 2.334152698516845703e+00
-9.782243728637695312e+00 -6.916366577148437500e+00 1.880355000495910645e+00
-9.788707733154296875e+00 -6.908132553100585938e+00 1.439236521720886230e+00
-9.776050567626953125e+00 -6.894088745117187500e+00 9.982055425643920898e-01
-9.687314033508300781e+00 -6.826450347900390625e+00 5.568025708198547363e-01
-9.551339149475097656e+00 -5.739377975463867188e+00 3.307193219661712646e-01
-8.691523551940917969e+00 -5.659787654876708984e+00 2.100157886743545532e-01
-7.641276359558105469e+00 -5.378664016723632812e+00 9.948974102735519409e-02
-5.129659652709960938e+00 -3.895255565643310547e+00 7.869164459407329559e-03
-1.022592926025390625e+01 -6.605328083038330078e+00 3.449411869049072266e+00
-9.933326721191406250e+00 -6.952806472778320312e+00 3.307892799377441406e+00
-1.016566658020019531e+01 -6.561374187469482422e+00 2.942774057388305664e+00
-9.790223121643066406e+00 -6.845006942749023438e+00 2.784275054931640625e+00
-9.798032760620117188e+00 -6.840288162231445312e+00 2.327080249786376953e+00
-9.801814079284667969e+00 -6.840383529663085938e+00 1.876013517379760742e+00
-9.793435096740722656e+00 -6.821835517883300781e+00 1.433750152587890625e+00
-9.774000167846679688e+00 -6.803231716156005859e+00 9.937151074409484863e-01
-9.709336280822753906e+00 -6.753192424774169922e+00 5.556762218475341797e-01
-9.590675354003906250e+00 -5.683212280273437500e+00 3.308676481246948242e-01
-8.760575294494628906e+00 -5.628508567810058594e+00 2.108458280563354492e-01
-7.745579719543457031e+00 -5.381313800811767578e+00 1.004159748554229736e-01
-5.200670242309570312e+00 -3.899099111557006836e+00 7.941246964037418365e-03
-1.027194595336914062e+01 -6.546078205108642578e+00 3.451320171356201172e+00
-1.003295040130615234e+01 -6.931207180023193359e+00 3.326843023300170898e+00
-9.832038879394531250e+00 -6.784806251525878906e+00 2.784275054931640625e+00
-9.841436386108398438e+00 -6.781153678894042969e+00 2.327462434768676758e+00
-9.822447776794433594e+00 -6.765542030334472656e+00 1.871982097625732422e+00
-9.811382293701171875e+00 -6.745303630828857422e+00 1.430291295051574707e+00
-9.813096046447753906e+00 -6.741438865661621094e+00 9.934656023979187012e-01
-9.747297286987304688e+00 -6.691228866577148438e+00 5.554884672164916992e-01
-9.630543708801269531e+00 -5.627283096313476562e+00 3.310456275939941406e-01
-3.847313880920410156e+00 -2.438607692718505859e+00 9.223365783691406250e-02
-7.374356269836425781e+00 -5.056597232818603516e+00 9.519928693771362305e-02
-5.175466537475585938e+00 -3.830823421478271484e+00 7.866720668971538544e-03
-1.032983779907226562e+01 -6.494192600250244141e+00 3.457317590713500977e+00
-1.007768154144287109e+01 -6.871146202087402344e+00 3.327632665634155273e+00
-9.890388488769531250e+00 -6.735862731933593750e+00 2.789041996002197266e+00
-9.906397819519042969e+00 -6.736647129058837891e+00 2.333005905151367188e+00
-9.921783447265625000e+00 -6.744577407836914062e+00 1.882990956306457520e+00
-9.869839668273925781e+00 -6.696681499481201172e+00 1.432796001434326172e+00
-9.861699104309082031e+00 -6.686132907867431641e+00 9.942139983177185059e-01
-3.896642446517944336e+00 -2.438380956649780273e+00 2.594090700149536133e-01
-9.812979698181152344e+00 -6.648102283477783203e+00 5.568964481353759766e-01
-9.728983879089355469e+00 -5.605010032653808594e+00 3.332409560680389404e-01
-3.864747285842895508e+00 -2.416545152664184570e+00 9.229438751935958862e-02
-7.755548477172851562e+00 -5.248310565948486328e+00 9.970267862081527710e-02
-5.265081882476806641e+00 -3.847375154495239258e+00 7.966903038322925568e-03
-1.039974403381347656e+01 -6.449450016021728516e+00 3.467404603958129883e+00
-9.953355789184570312e+00 -6.689717292785644531e+00 2.795170545578002930e+00
-9.973627090454101562e+00 -6.693238258361816406e+00 2.339122772216796875e+00
-9.985131263732910156e+00 -6.698431015014648438e+00 1.887177348136901855e+00
-1.001386928558349609e+01 -6.705045700073242188e+00 1.447704792022705078e+00
-9.920761108398437500e+00 -6.637688159942626953e+00 9.960434436798095703e-01
-9.874346733093261719e+00 -6.601645469665527344e+00 5.580697655677795410e-01
-9.643411636352539062e+00 -6.961526393890380859e+00 4.465127587318420410e-01
-9.757107734680175781e+00 -5.541752815246582031e+00 3.330332934856414795e-01
-3.877800464630126953e+00 -2.391736507415771484e+00 9.225390106439590454e-02
-7.845814704895019531e+00 -5.239497184753417969e+00 1.004479154944419861e-01
-5.258582115173339844e+00 -3.793350458145141602e+00 7.921698503196239471e-03
-1.002181148529052734e+01 -6.646821022033691406e+00 2.802888393402099609e+00
-1.007425022125244141e+01 -6.671478271484375000e+00 2.353076696395874023e+00
-9.775481224060058594e+00 -6.999524593353271484e+00 2.223997116088867188e+00
-9.761121749877929688e+00 -6.971219062805175781e+00 1.326367259025573730e+00
-9.752062797546386719e+00 -6.957041740417480469e+00 8.860097527503967285e-01
-9.987208366394042969e+00 -6.588789939880371094e+00 5.621528625488281250e-01
-9.622467994689941406e+00 -6.856990337371826172e+00 4.435865283012390137e-01
-9.841512680053710938e+00 -5.510101795196533203e+00 3.347539007663726807e-01
-3.899235963821411133e+00 -2.372054576873779297e+00 9.241585433483123779e-02
-7.850262641906738281e+00 -5.173100471496582031e+00 1.000965833663940430e-01
-5.241030216217041016e+00 -3.732010841369628906e+00 7.860612124204635620e-03
-1.016936397552490234e+01 -6.662807464599609375e+00 3.316841363906860352e+00
-9.865592956542968750e+00 -6.998728752136230469e+00 3.180084705352783203e+00
-1.018464183807373047e+01 -6.665198326110839844e+00 2.836936950683593750e+00
-9.807619094848632812e+00 -6.944743156433105469e+00 2.686215877532958984e+00
-9.783717155456542969e+00 -6.915007591247558594e+00 2.216175794601440430e+00
-9.809266090393066406e+00 -6.922801494598388672e+00 1.770768284797668457e+00
-9.764718055725097656e+00 -6.883705615997314453e+00 1.321091651916503906e+00
-9.749719619750976562e+00 -6.865493297576904297e+00 8.819529414176940918e-01
-9.666812896728515625e+00 -6.799543857574462891e+00 4.436990618705749512e-01
-9.895265579223632812e+00 -5.460719585418701172e+00 3.354362249374389648e-01
-8.959969520568847656e+00 -5.375648021697998047e+00 2.115746140480041504e-01
-7.891916275024414062e+00 -5.131375789642333984e+00 1.002243459224700928e-01
-5.251558303833007812e+00 -3.691156625747680664e+00 7.842286489903926849e-03
-1.020600414276123047e+01 -6.597665309906005859e+00 3.315525293350219727e+00
-9.898051261901855469e+00 -6.930850982666015625e+00 3.176779031753540039e+00
-9.796452522277832031e+00 -6.846976280212402344e+00 2.671600341796875000e+00
-9.809832572937011719e+00 -6.843593120574951172e+00 2.212538003921508789e+00
-9.810159683227539062e+00 -6.833644390106201172e+00 1.763326883316040039e+00
-9.795350074768066406e+00 -6.815713405609130859e+00 1.319553017616271973e+00
-9.755629539489746094e+00 -6.780497074127197266e+00 8.787074089050292969e-01
-9.686188697814941406e+00 -6.724714279174804688e+00 4.426861405372619629e-01
-1.028157901763916016e+01 -5.591884613037109375e+00 3.473620712757110596e-01
-8.889528274536132812e+00 -5.259477615356445312e+00 2.091452777385711670e-01
-7.939244747161865234e+00 -5.093113899230957031e+00 1.004266217350959778e-01
-5.051443576812744141e+00 -3.504392623901367188e+00 7.511197589337825775e-03
-1.026418876647949219e+01 -6.546331405639648438e+00 3.321315765380859375e+00
-9.961874008178710938e+00 -6.884833812713623047e+00 3.183644294738769531e+00
-9.804541587829589844e+00 -6.763463497161865234e+00 2.662438392639160156e+00
-9.849209785461425781e+00 -6.781599044799804688e+00 2.211992263793945312e+00
-9.860872268676757812e+00 -6.779486656188964844e+00 1.764931917190551758e+00
-9.826334953308105469e+00 -6.748167514801025391e+00 1.318124175071716309e+00
-9.800340652465820312e+00 -6.722766876220703125e+00 8.790025115013122559e-01
-3.848479747772216797e+00 -2.438464164733886719e+00 2.140573710203170776e-01
-9.739633560180664062e+00 -6.673627376556396484e+00 4.432488679885864258e-01
-1.042053604125976562e+01 -5.584881782531738281e+00 3.508923649787902832e-01
-8.880181312561035156e+00 -5.180651187896728516e+00 2.081735581159591675e-01
-3.828435897827148438e+00 -2.422955513000488281e+00 4.823841899633407593e-02
-5.194969177246093750e+00 -3.556944847106933594e+00 7.692013867199420929e-03
-1.031641197204589844e+01 -6.490934848785400391e+00 3.325263977050781250e+00
-1.009101867675781250e+01 -6.882981300354003906e+00 3.211359262466430664e+00
-9.834563255310058594e+00 -6.695487499237060547e+00 2.659384489059448242e+00
-9.896327972412109375e+00 -6.724906444549560547e+00 2.213265419006347656e+00
-9.922750473022460938e+00 -6.732739925384521484e+00 1.768579602241516113e+00
-9.903758049011230469e+00 -6.712282657623291016e+00 1.322960138320922852e+00
-9.852141380310058594e+00 -6.669774055480957031e+00 8.799613714218139648e-01
-3.876075029373168945e+00 -2.422745943069458008e+00 2.147613465785980225e-01
-9.795299530029296875e+00 -6.623816013336181641e+00 4.439241588115692139e-01
-1.059337806701660156e+01 -5.594118595123291016e+00 3.555499613285064697e-01
-8.875402450561523438e+00 -5.105128765106201172e+00 2.073232680559158325e-01
-3.844079017639160156e+00 -2.399948596954345703e+00 4.824906587600708008e-02
-5.355896472930908203e+00 -3.619061708450317383e+00 7.897264324128627777e-03
-9.879510879516601562e+00 -6.637739181518554688e+00 2.660475254058837891e+00
-9.997023582458496094e+00 -6.704037189483642578e+00 2.226543664932250977e+00
-1.000497722625732422e+01 -6.699250221252441406e+00 1.775875091552734375e+00
-1.001167869567871094e+01 -6.696147441864013672e+00 1.331862688064575195e+00
-9.926879882812500000e+00 -6.631911277770996094e+00 8.829855322837829590e-01
-3.876412868499755859e+00 -2.390005111694335938e+00 2.139634937047958374e-01
-9.863187789916992188e+00 -6.581892967224121094e+00 4.451621770858764648e-01
-1.065144538879394531e+01 -5.541469573974609375e+00 3.563509583473205566e-01
-8.888296127319335938e+00 -5.040217399597167969e+00 2.068981379270553589e-01
-3.852772235870361328e+00 -2.372646331787109375e+00 4.817454144358634949e-02
-5.370513916015625000e+00 -3.581137657165527344e+00 7.886269129812717438e-03
-1.011591434478759766e+01 -6.719566345214843750e+00 3.192797660827636719e+00
-1.001603221893310547e+01 -6.640628337860107422e+00 2.686215877532958984e+00
-9.986013412475585938e+00 -6.575657844543457031e+00 4.488762319087982178e-01
-8.905092239379882812e+00 -4.977779865264892578e+00 2.065742313861846924e-01
-3.913408756256103516e+00 -2.376993179321289062e+00 4.874943941831588745e-02
-5.198577880859375000e+00 -3.420593976974487305e+00 7.602827623486518860e-03
-1.016666126251220703e+01 -6.663731575012207031e+00 3.195848941802978516e+00
-1.010640811920166016e+01 -6.611637115478515625e+00 2.699522733688354492e+00
-1.088551139831542969e+01 -5.494569301605224609e+00 3.618985116481781006e-01
-9.060689926147460938e+00 -4.992037773132324219e+00 2.094691842794418335e-01
-8.179235458374023438e+00 -4.899595737457275391e+00 1.015125513076782227e-01
-5.343601703643798828e+00 -3.469222545623779297e+00 7.783643435686826706e-03
-1.020735740661621094e+01 -6.601224899291992188e+00 3.195848941802978516e+00
-9.151775360107421875e+00 -4.969266891479492188e+00 2.108660489320755005e-01
-8.214310646057128906e+00 -4.852367877960205078e+00 1.015764251351356506e-01
-3.823811292648315430e+00 -2.449310064315795898e+00 5.547876935452222824e-03
-1.027702140808105469e+01 -6.557197093963623047e+00 3.205002546310424805e+00
-3.847890853881835938e+00 -2.433446168899536133e+00 1.709218770265579224e-01
-9.255261421203613281e+00 -4.952168464660644531e+00 2.125463485717773438e-01
-8.245656967163085938e+00 -4.802880764007568359e+00 1.015977114439010620e-01
-3.832850694656372070e+00 -2.422062158584594727e+00 5.539325065910816193e-03
-1.033752441406250000e+01 -6.506895065307617188e+00 3.211359262466430664e+00
-3.836466550827026367e+00 -2.393393516540527344e+00 1.697588711977005005e-01
-9.349150657653808594e+00 -4.928856849670410156e+00 2.140039354562759399e-01
-8.249826431274414062e+00 -4.737755298614501953e+00 1.012889742851257324e-01
-3.850185632705688477e+00 -2.400085449218750000e+00 5.542989820241928101e-03
-3.835761070251464844e+00 -2.360381603240966797e+00 1.690836101770401001e-01
-9.445762634277343750e+00 -4.905961036682128906e+00 2.155222892761230469e-01
-8.263077735900878906e+00 -4.678177833557128906e+00 1.010973379015922546e-01
-3.875913858413696289e+00 -2.383225202560424805e+00 5.558872595429420471e-03
-9.670612335205078125e+00 -4.947637557983398438e+00 2.199558168649673462e-01
-8.247967720031738281e+00 -4.603023529052734375e+00 1.005650162696838379e-01
-3.897304296493530273e+00 -2.363546609878540039e+00 5.568646360188722610e-03
-9.734716415405273438e+00 -4.905303001403808594e+00 2.207251042127609253e-01
-8.325120925903320312e+00 -4.579317092895507812e+00 1.011612191796302795e-01
-5.700248718261718750e+00 -3.409291028976440430e+00 8.114731870591640472e-03
-9.930315971374511719e+00 -4.927696704864501953e+00 2.244703173637390137e-01
-8.498111724853515625e+00 -4.606779098510742188e+00 1.029178574681282043e-01
-5.734842300415039062e+00 -3.382379055023193359e+00 8.134280331432819366e-03
-9.985516548156738281e+00 -4.878962039947509766e+00 2.250371575355529785e-01
-8.560615539550781250e+00 -4.572923183441162109e+00 1.033330634236335754e-01
-5.704485893249511719e+00 -3.317466497421264648e+00 8.062197826802730560e-03
-1.010536384582519531e+01 -4.860939502716064453e+00 2.270616143941879272e-01
-8.316859245300292969e+00 -4.377333164215087891e+00 1.000646427273750305e-01
-5.745553970336914062e+00 -3.294339656829833984e+00 8.091518655419349670e-03
-1.027144622802734375e+01 -4.863449096679687500e+00 2.301185131072998047e-01
-8.224608421325683594e+00 -4.264541149139404297e+00 9.863804280757904053e-02
-5.743025302886962891e+00 -3.246229410171508789e+00 8.059754036366939545e-03
-1.036271762847900391e+01 -4.829050064086914062e+00 2.314951419830322266e-01
-8.498183250427246094e+00 -4.340438365936279297e+00 1.015977114439010620e-01
-5.764583110809326172e+00 -3.211903572082519531e+00 8.062197826802730560e-03
-1.049030399322509766e+01 -4.810381889343261719e+00 2.336815297603607178e-01
-8.501430511474609375e+00 -4.276529312133789062e+00 1.013209074735641479e-01
-5.809601306915283203e+00 -3.190431356430053711e+00 8.097628131508827209e-03
-1.060620021820068359e+01 -4.784983634948730469e+00 2.356047630310058594e-01
-8.695068359375000000e+00 -4.307288646697998047e+00 1.033117696642875671e-01
-5.837862968444824219e+00 -3.159484148025512695e+00 8.109845221042633057e-03
-1.074867725372314453e+01 -4.770103454589843750e+00 2.381150573492050171e-01
-8.482270240783691406e+00 -4.137251377105712891e+00 1.004798561334609985e-01
-5.782138347625732422e+00 -3.083606243133544922e+00 8.005998097360134125e-03
-1.078232574462890625e+01 -4.706060409545898438e+00 2.382162809371948242e-01
-8.528228759765625000e+00 -4.095082759857177734e+00 1.007247194647789001e-01
-5.951440334320068359e+00 -3.127143621444702148e+00 8.213692344725131989e-03
-8.565851211547851562e+00 -4.048659324645996094e+00 1.008737683296203613e-01
-5.945649623870849609e+00 -3.077695608139038086e+00 8.179483935236930847e-03
-8.607758522033691406e+00 -4.004037380218505859e+00 1.010760441422462463e-01
-5.956404209136962891e+00 -3.037067890167236328e+00 8.168488740921020508e-03
-8.657623291015625000e+00 -3.962798357009887695e+00 1.013741418719291687e-01
-5.991013050079345703e+00 -3.008540630340576172e+00 8.190480060875415802e-03
-8.723716735839843750e+00 -3.928488969802856445e+00 1.018638759851455688e-01
-6.048800945281982422e+00 -2.991227865219116211e+00 8.244235068559646606e-03
-8.534633636474609375e+00 -3.780525684356689453e+00 9.938327968120574951e-02
-5.916893482208251953e+00 -2.880949735641479492e+00 8.040206506848335266e-03
-8.765768051147460938e+00 -3.818743228912353516e+00 1.017999947071075439e-01
-5.918227672576904297e+00 -2.836809635162353516e+00 8.018215186893939972e-03
-8.842346191406250000e+00 -3.787722349166870117e+00 1.024174839258193970e-01
-5.959940910339355469e+00 -2.811963558197021484e+00 8.051201701164245605e-03
-8.907812118530273438e+00 -3.751247167587280273e+00 1.029072105884552002e-01
-6.115852832794189453e+00 -2.839776515960693359e+00 8.238127455115318298e-03
-8.833649635314941406e+00 -3.656364917755126953e+00 1.017893552780151367e-01
-5.971260547637939453e+00 -2.728225231170654297e+00 8.020658977329730988e-03
-8.996708869934082031e+00 -3.659359455108642578e+00 1.034075841307640076e-01
-5.914920806884765625e+00 -2.658735990524291992e+00 7.922920398414134979e-03
-9.006921768188476562e+00 -3.599264144897460938e+00 1.032691895961761475e-01
-6.250315189361572266e+00 -2.763520717620849609e+00 8.349304087460041046e-03
-8.925518035888671875e+00 -3.503376722335815430e+00 1.020874455571174622e-01
-6.080992221832275391e+00 -2.644169569015502930e+00 8.101293817162513733e-03
-8.969239234924316406e+00 -3.457176208496093750e+00 1.023429632186889648e-01
-6.081470966339111328e+00 -2.600124359130859375e+00 8.080523461103439331e-03
-8.850934982299804688e+00 -3.349345207214355469e+00 1.007566601037979126e-01
-6.019872665405273438e+00 -2.530212402343750000e+00 7.977898232638835907e-03
-9.028798103332519531e+00 -3.353464365005493164e+00 1.025452390313148499e-01
-6.229374408721923828e+00 -2.573407888412475586e+00 8.234461769461631775e-03
-9.288775444030761719e+00 -3.385313510894775391e+00 1.052600443363189697e-01
-6.306200504302978516e+00 -2.559961318969726562e+00 8.315095677971839905e-03
-9.370574951171875000e+00 -3.350136041641235352e+00 1.059520542621612549e-01
-6.325505256652832031e+00 -2.522701025009155273e+00 8.319983258843421936e-03
-9.410770416259765625e+00 -3.299523830413818359e+00 1.061756312847137451e-01
-6.334347248077392578e+00 -2.481287717819213867e+00 8.311430923640727997e-03
-9.514055252075195312e+00 -3.270322799682617188e+00 1.071125045418739319e-01
-6.566918849945068359e+00 -2.526024580001831055e+00 8.596093393862247467e-03
-9.658080101013183594e+00 -3.253704547882080078e+00 1.085071712732315063e-01
-6.385836124420166016e+00 -2.411494016647338867e+00 8.339530788362026215e-03
-9.652224540710449219e+00 -3.185920238494873047e+00 1.082197204232215881e-01
-6.399575233459472656e+00 -2.371918439865112305e+00 8.338308893144130707e-03
-9.423259735107421875e+00 -3.046354532241821289e+00 1.054410338401794434e-01
-6.398972034454345703e+00 -2.327138423919677734e+00 8.318761363625526428e-03
-9.787833213806152344e+00 -3.098010540008544922e+00 1.093056425452232361e-01
-6.679677486419677734e+00 -2.382919549942016602e+00 8.664511144161224365e-03
-9.876384735107421875e+00 -3.059494972229003906e+00 1.100828200578689575e-01
-6.705500125885009766e+00 -2.345851659774780273e+00 8.679172024130821228e-03
-9.969614028930664062e+00 -3.021458864212036133e+00 1.109132319688796997e-01
-6.797332286834716797e+00 -2.331265449523925781e+00 8.779353462159633636e-03
-9.966875076293945312e+00 -2.953978538513183594e+00 1.106790229678153992e-01
-6.766958236694335938e+00 -2.274539470672607422e+00 8.721931837499141693e-03
-1.006068706512451172e+01 -2.914749622344970703e+00 1.115200743079185486e-01
-6.410356044769287109e+00 -2.110989093780517578e+00 8.245457895100116730e-03
-1.042186546325683594e+01 -2.950195789337158203e+00 1.153208091855049133e-01
-6.260443210601806641e+00 -2.019127368927001953e+00 8.036541752517223358e-03
-1.022773742675781250e+01 -2.827573776245117188e+00 1.129786148667335510e-01
-6.824843406677246094e+00 -2.155016422271728516e+00 8.743923157453536987e-03
-1.028640747070312500e+01 -2.775967359542846680e+00 1.134364083409309387e-01
-6.810230255126953125e+00 -2.104537010192871094e+00 8.708492852747440338e-03
-1.026360034942626953e+01 -2.702359914779663086e+00 1.129999086260795593e-01
-6.931180000305175781e+00 -2.095410823822021484e+00 8.846548385918140411e-03
-1.053567981719970703e+01 -2.704980373382568359e+00 1.158105358481407166e-01
-6.917056083679199219e+00 -2.044904232025146484e+00 8.812339976429939270e-03
-1.046380615234375000e+01 -2.618196487426757812e+00 1.148417219519615173e-01
-6.942922592163085938e+00 -2.006310224533081055e+00 8.829444646835327148e-03
-1.070312118530273438e+01 -2.608397483825683594e+00 1.172903701663017273e-01
-6.932968139648437500e+00 -1.957422018051147461e+00 8.801344782114028931e-03
-1.104291439056396484e+01 -2.619530200958251953e+00 1.208355948328971863e-01
-6.955451965332031250e+00 -1.917769074440002441e+00 8.814783766865730286e-03
-1.074309349060058594e+01 -2.478880882263183594e+00 1.173861920833587646e-01
-7.140903472900390625e+00 -1.921834111213684082e+00 9.034695103764533997e-03
-1.072980594635009766e+01 -2.406569480895996094e+00 1.170774474740028381e-01
-7.090659141540527344e+00 -1.861729145050048828e+00 8.956504054367542267e-03
-1.069063377380371094e+01 -2.328980684280395508e+00 1.164918988943099976e-01
-7.085480213165283203e+00 -1.813970327377319336e+00 8.935734629631042480e-03
-1.121051216125488281e+01 -2.370281219482421875e+00 1.219960451126098633e-01
-7.154693126678466797e+00 -1.784984469413757324e+00 9.009039029479026794e-03
-1.083301830291748047e+01 -2.221113443374633789e+00 1.177375242114067078e-01
-6.998373508453369141e+00 -1.700440049171447754e+00 8.798900991678237915e-03
-1.130054378509521484e+01 -2.244806528091430664e+00 1.226667538285255432e-01
-7.034951210021972656e+00 -1.663680672645568848e+00 8.831888437271118164e-03
-1.117172145843505859e+01 -2.148048639297485352e+00 1.211230456829071045e-01
-6.755584716796875000e+00 -1.553906917572021484e+00 8.469033986330032349e-03
-1.031268501281738281e+01 -1.917336225509643555e+00 1.116797700524330139e-01
-7.069475650787353516e+00 -1.580498456954956055e+00 8.850214071571826935e-03
-1.138423824310302734e+01 -2.044373512268066406e+00 1.231458410620689392e-01
-7.085881233215332031e+00 -1.538576483726501465e+00 8.858766406774520874e-03
-1.144287490844726562e+01 -1.982505679130554199e+00 1.236462146043777466e-01
-7.098123550415039062e+00 -1.495687961578369141e+00 8.862431161105632782e-03
-1.144298839569091797e+01 -1.910280346870422363e+00 1.235184594988822937e-01
-6.925911903381347656e+00 -1.415073156356811523e+00 8.636411279439926147e-03
-1.160258769989013672e+01 -1.863821029663085938e+00 1.251154094934463501e-01
-7.212078571319580078e+00 -1.427498579025268555e+00 8.982160128653049469e-03
-1.118490886688232422e+01 -1.726393461227416992e+00 1.204949170351028442e-01
-7.301237583160400391e+00 -1.398646950721740723e+00 9.082342498004436493e-03
-1.202717304229736328e+01 -1.780911684036254883e+00 1.294484585523605347e-01
-7.111059665679931641e+00 -1.317034363746643066e+00 8.835553191602230072e-03
-1.218836021423339844e+01 -1.728421211242675781e+00 1.310666948556900024e-01
-7.145585060119628906e+00 -1.278131008148193359e+00 8.868539705872535706e-03
-1.274867439270019531e+01 -1.728149294853210449e+00 1.369753926992416382e-01
-7.392754554748535156e+00 -1.275580167770385742e+00 9.165420196950435638e-03
-1.195180606842041016e+01 -1.545507907867431641e+00 1.283093094825744629e-01
-7.404388427734375000e+00 -1.230851054191589355e+00 9.170306846499443054e-03
-1.214863777160644531e+01 -1.495229959487915039e+00 1.303214430809020996e-01
-7.355516433715820312e+00 -1.176393628120422363e+00 9.100668132305145264e-03
-1.235919952392578125e+01 -1.444218873977661133e+00 1.324826478958129883e-01
-7.514809608459472656e+00 -1.154625892639160156e+00 9.288814850151538849e-03
-1.218793678283691406e+01 -1.348454117774963379e+00 1.305556744337081909e-01
-7.487126827239990234e+00 -1.103391289710998535e+00 9.246054105460643768e-03
-1.204381752014160156e+01 -1.257754206657409668e+00 1.289267838001251221e-01
-7.025396347045898438e+00 -9.913409948348999023e-01 8.668175898492336273e-03
-1.276781940460205078e+01 -1.254215836524963379e+00 1.365921348333358765e-01
-6.801428794860839844e+00 -9.172095656394958496e-01 8.384734392166137695e-03
-1.275934314727783203e+01 -1.174383997917175293e+00 1.364217996597290039e-01
-7.659902095794677734e+00 -9.851630330085754395e-01 9.435422718524932861e-03
-1.262284469604492188e+01 -1.083754658699035645e+00 1.348887234926223755e-01
-7.994351863861083984e+00 -9.783521890640258789e-01 9.839816018939018250e-03
-1.361507606506347656e+01 -1.084830641746520996e+00 1.454179137945175171e-01
-7.952524662017822266e+00 -9.237430095672607422e-01 9.781172499060630798e-03
-1.394857501983642578e+01 -1.025313615798950195e+00 1.489099115133285522e-01
-8.248293876647949219e+00 -9.068408012390136719e-01 1.013791747391223907e-02
-1.353856945037841797e+01 -9.116916656494140625e-01 1.444703936576843262e-01
-8.193028450012207031e+00 -8.499190211296081543e-01 1.006339211016893387e-02
-1.395112419128417969e+01 -8.535164594650268555e-01 1.488140970468521118e-01
-8.298611640930175781e+00 -8.094363808631896973e-01 1.018678676337003708e-02
-8.295454978942871094e+00 -7.577740550041198730e-01 1.017701253294944763e-02
-7.996284484863281250e+00 1.873519569635391235e-01 2.373893111944198608e-01
-1.373482990264892578e+01 -6.712196469306945801e-01 1.464080214500427246e-01
-8.305927276611328125e+00 -7.073690295219421387e-01 1.018434297293424606e-02
-1.239798927307128906e+01 -5.296554565429687500e-01 1.321206837892532349e-01
-8.235344886779785156e+00 -6.504858732223510742e-01 1.009271387010812759e-02
-1.370006370544433594e+01 -5.010865330696105957e-01 1.459608823060989380e-01
-8.242172241210937500e+00 -6.001603007316589355e-01 1.009637769311666489e-02
-1.415464496612548828e+01 -4.307635128498077393e-01 1.507730036973953247e-01
-8.392374038696289062e+00 -5.593518614768981934e-01 1.027597300708293915e-02
-1.369118595123291016e+01 -3.325879871845245361e-01 1.458118408918380737e-01
-8.413616180419921875e+00 -5.089335441589355469e-01 1.029796432703733444e-02
-7.991070747375488281e+00 1.436700820922851562e-01 1.618340313434600830e-01
-7.101520538330078125e+00 -3.858477175235748291e-01 8.688945323228836060e-03
-7.993037223815917969e+00 1.927719861268997192e-01 1.618947684764862061e-01
-1.401019573211669922e+01 -1.683476269245147705e-01 1.491760760545730591e-01
-8.634977340698242188e+00 -4.160422384738922119e-01 1.056185830384492874e-02
-7.952729701995849609e+00 2.406334280967712402e-01 1.611052304506301880e-01
-8.730285644531250000e+00 -3.669568002223968506e-01 1.067547965794801712e-02
-1.400520610809326172e+01 3.590167965739965439e-03 1.491121798753738403e-01
-6.759644031524658203e+00 -2.425858080387115479e-01 8.263783529400825500e-03
-8.643171310424804688e+00 -2.570895254611968994e-01 1.056430116295814514e-02
-8.657583236694335938e+00 -2.043579667806625366e-01 1.058018393814563751e-02
-7.991155624389648438e+00 1.491651684045791626e-01 8.509594202041625977e-02
-8.742660522460937500e+00 -1.526990979909896851e-01 1.068280916661024094e-02
-7.960100650787353516e+00 1.974512785673141479e-01 8.477655053138732910e-02
-8.753432273864746094e+00 -9.916555881500244141e-02 1.069502718746662140e-02
-7.931753635406494141e+00 2.454547286033630371e-01 8.448909968137741089e-02
-7.579892635345458984e+00 -3.935784474015235901e-02 9.260714985430240631e-03
-8.782989501953125000e+00 8.287356235086917877e-03 1.073045656085014343e-02
-8.773774147033691406e+00 6.211489811539649963e-02 1.071946043521165848e-02
-8.433257102966308594e+00 1.114554852247238159e-01 1.030407194048166275e-02
-7.984499454498291016e+00 1.545300334692001343e-01 9.756737388670444489e-03
-7.975403308868408203e+00 2.033152133226394653e-01 9.746963158249855042e-03
-7.969008445739746094e+00 2.520894706249237061e-01 9.740855544805526733e-03
-8.912636756896972656e+00 3.366932272911071777e-01 1.089661195874214172e-02
-8.916397094726562500e+00 3.916370570659637451e-01 1.090394239872694016e-02
-9.095598220825195312e+00 4.554415047168731689e-01 1.112629752606153488e-02
-9.122584342956542969e+00 5.129265785217285156e-01 1.116294879466295242e-02
-9.134237289428710938e+00 5.698260068893432617e-01 1.118127536028623581e-02
-9.046765327453613281e+00 6.201176047325134277e-01 1.107865013182163239e-02
-9.122568130493164062e+00 6.815762519836425781e-01 1.117638871073722839e-02
-9.179015159606933594e+00 7.424564361572265625e-01 1.125091407448053360e-02
-9.088610649108886719e+00 7.913044095039367676e-01 1.114584412425756454e-02
-9.132372856140136719e+00 8.516057729721069336e-01 1.120571047067642212e-02
-9.293155670166015625e+00 9.241505861282348633e-01 1.140973903238773346e-02
-9.219687461853027344e+00 9.740108847618103027e-01 1.132666133344173431e-02
-9.181735038757324219e+00 1.027006268501281738e+00 1.128756534308195114e-02
-9.243784904479980469e+00 1.091415762901306152e+00 1.137186493724584579e-02
-9.261722564697265625e+00 1.151197552680969238e+00 1.140240766108036041e-02
-9.239611625671386719e+00 1.206063389778137207e+00 1.138408295810222626e-02
-9.519361495971679688e+00 1.302033305168151855e+00 1.173838414251804352e-02
-9.314198493957519531e+00 1.332241654396057129e+00 1.149525959044694901e-02
-9.329585075378417969e+00 1.392911314964294434e+00 1.152458135038614273e-02
-9.475996017456054688e+00 1.474265813827514648e+00 1.171639282256364822e-02
-9.376941680908203125e+00 1.517840981483459473e+00 1.160521525889635086e-02
-9.359561920166015625e+00 1.574021339416503906e+00 1.159544102847576141e-02
-9.557587623596191406e+00 1.667690038681030273e+00 1.185322646051645279e-02
