-3.160857362672686577e-03 -7.033109664916992188e-01 7.206059247255325317e-02
-3.639346221461892128e-03 -7.268581390380859375e-01 6.755739450454711914e-02
-8.088100701570510864e-03 -7.258265018463134766e-01 6.746485084295272827e-02
-1.346316747367382050e-02 -7.636660933494567871e-01 4.310337826609611511e-02
-1.768085546791553497e-02 -6.357173919677734375e-01 1.801992505788803101e-01
-3.806197643280029297e-02 -7.029362320899963379e-01 6.542887538671493530e-02
-1.288890745490789413e-02 -7.243674397468566895e-01 6.045446544885635376e-02
-2.126781083643436432e-02 -7.072212696075439453e-01 5.904081091284751892e-02
-6.038391217589378357e-02 -6.623867154121398926e-01 6.181964650750160217e-02
-5.308251827955245972e-02 -7.222530841827392578e-01 3.402578085660934448e-02
-8.780353516340255737e-02 -7.164915204048156738e-01 4.073691740632057190e-02
-1.241257488727569580e-01 -7.171887159347534180e-01 1.473795063793659210e-02
-1.071292981505393982e-01 -6.917136907577514648e-01 7.452415768057107925e-03
-1.190163120627403259e-01 -6.869978308677673340e-01 3.275861218571662903e-02
-1.126516312360763550e-01 -6.959410309791564941e-01 8.613198297098278999e-04
-3.461369514465332031e+00 -6.757019042968750000e+00 9.275375865399837494e-03
-3.502764701843261719e+00 -6.735653400421142578e+00 9.275375865399837494e-03
-3.883545398712158203e+00 -6.939185142517089844e+00 9.715198539197444916e-03
-3.938464641571044922e+00 -6.839010715484619141e+00 9.641895070672035217e-03
-4.318049430847167969e+00 -6.897927284240722656e+00 9.942440316081047058e-03
-4.259027957916259766e+00 -6.711720466613769531e+00 9.711533784866333008e-03
-4.409404754638671875e+00 -6.855351924896240234e+00 9.958323091268539429e-03
-4.139554023742675781e+00 -6.349835872650146484e+00 9.260714985430240631e-03
-4.157490253448486328e+00 -6.292611122131347656e+00 9.214289486408233643e-03
-4.044138431549072266e+00 -6.040135383605957031e+00 8.880757726728916168e-03
-4.717237949371337891e+00 -6.952781677246093750e+00 1.026497781276702881e-02
-4.766608715057373047e+00 -6.933595180511474609e+00 1.027963869273662567e-02
-4.155775547027587891e+00 -5.966313838958740234e+00 8.883200585842132568e-03
-4.320306301116943359e+00 -6.122085094451904297e+00 9.154425002634525299e-03
-4.577045440673828125e+00 -6.402145385742187500e+00 9.615017101168632507e-03
-4.423850059509277344e+00 -6.108292579650878906e+00 9.214289486408233643e-03
-4.738669395446777344e+00 -6.459183216094970703e+00 9.787281043827533722e-03
-4.441215038299560547e+00 -5.976491451263427734e+00 9.097003377974033356e-03
-4.426686286926269531e+00 -5.881215572357177734e+00 8.993156254291534424e-03
-4.457839012145996094e+00 -5.847580909729003906e+00 8.983382023870944977e-03
-4.867035388946533203e+00 -6.303742885589599609e+00 9.729859419167041779e-03
-4.593323707580566406e+00 -5.874363422393798828e+00 9.110442362725734711e-03
-4.579617977142333984e+00 -5.783351421356201172e+00 9.012703783810138702e-03
-5.154906749725341797e+00 -6.428409576416015625e+00 1.006705779582262039e-02
-4.362164497375488281e+00 -5.371951103210449219e+00 8.454373106360435486e-03
-5.644963741302490234e+00 -6.865188598632812500e+00 1.085873879492282867e-02
-5.164864540100097656e+00 -6.203327178955078125e+00 9.861806407570838928e-03
-4.398428440093994141e+00 -5.217350006103515625e+00 8.337086997926235199e-03
-4.907544136047363281e+00 -5.749296665191650391e+00 9.235058911144733429e-03
-4.752447605133056641e+00 -5.498908042907714844e+00 8.879534900188446045e-03
-5.030408382415771484e+00 -5.748846054077148438e+00 9.332797490060329437e-03
-4.554984092712402344e+00 -5.141518592834472656e+00 8.392064832150936127e-03
-4.582439899444580078e+00 -5.109006404876708984e+00 8.384734392166137695e-03
-4.828152179718017578e+00 -5.316953659057617188e+00 8.774465881288051605e-03
-4.813987255096435547e+00 -5.236432552337646484e+00 8.690167218446731567e-03
-5.433981418609619141e+00 -5.838521480560302734e+00 9.744520299136638641e-03
-4.609747409820556641e+00 -4.892386436462402344e+00 8.212470449507236481e-03
-4.631397247314453125e+00 -4.855326652526855469e+00 8.197810500860214233e-03
-5.257805824279785156e+00 -5.444736480712890625e+00 9.247276000678539276e-03
-5.322572708129882812e+00 -5.444550991058349609e+00 9.302253834903240204e-03
-4.783291339874267578e+00 -4.833224296569824219e+00 8.307765237987041473e-03
-5.215580463409423828e+00 -5.205747127532958984e+00 9.002930484712123871e-03
-5.119959354400634766e+00 -5.047974586486816406e+00 8.784241043031215668e-03
-4.793358802795410156e+00 -4.668311595916748047e+00 8.174597285687923431e-03
-4.814705848693847656e+00 -4.631878852844238281e+00 8.162379264831542969e-03
-4.787219047546386719e+00 -4.549207210540771484e+00 8.068306371569633484e-03
-4.802647590637207031e+00 -4.508113384246826172e+00 8.047536946833133698e-03
-5.223998069763183594e+00 -4.843671321868896484e+00 8.703606203198432922e-03
-5.740339279174804688e+00 -5.257287979125976562e+00 9.509948082268238068e-03
-5.327538967132568359e+00 -4.819451332092285156e+00 8.776910603046417236e-03
-5.401751518249511719e+00 -4.826649188995361328e+00 8.850214071571826935e-03
-5.395277023315429688e+00 -4.761651992797851562e+00 8.791571483016014099e-03
-5.145483970642089844e+00 -4.485332012176513672e+00 8.339530788362026215e-03
-5.360848903656005859e+00 -4.615485191345214844e+00 8.642519824206829071e-03
-5.036348819732666016e+00 -4.282575607299804688e+00 8.076858706772327423e-03
-5.048747539520263672e+00 -4.240016460418701172e+00 8.054867386817932129e-03
-5.407181262969970703e+00 -4.484745979309082031e+00 8.582654409110546112e-03
-5.435370922088623047e+00 -4.452117443084716797e+00 8.583877235651016235e-03
-5.567546367645263672e+00 -4.503584861755371094e+00 8.748809807002544403e-03
-5.292701721191406250e+00 -4.227802753448486328e+00 8.276000618934631348e-03
-5.247095584869384766e+00 -4.138890266418457031e+00 8.164823055267333984e-03
-5.274759292602539062e+00 -4.108460426330566406e+00 8.168488740921020508e-03
-5.770721912384033203e+00 -4.438140392303466797e+00 8.894195780158042908e-03
-5.512731552124023438e+00 -4.186144828796386719e+00 8.456816896796226501e-03
-5.533513069152832031e+00 -4.148641109466552734e+00 8.449486456811428070e-03
-5.496170520782470703e+00 -4.068204879760742188e+00 8.354191668331623077e-03
-6.060374736785888672e+00 -4.428523063659667969e+00 9.170306846499443054e-03
-5.848997116088867188e+00 -4.219254016876220703e+00 8.811118081212043762e-03
-5.976598739624023438e+00 -4.255791664123535156e+00 8.963834494352340698e-03
-6.022234439849853516e+00 -4.232840538024902344e+00 8.993156254291534424e-03
-6.220637798309326172e+00 -4.315510272979736328e+00 9.249719791114330292e-03
-6.376543998718261719e+00 -4.365957736968994141e+00 9.441531263291835785e-03
-6.409842014312744141e+00 -4.331228733062744141e+00 9.451305493712425232e-03
-6.446280479431152344e+00 -4.298474311828613281e+00 9.465965442359447479e-03
-6.516809940338134766e+00 -4.287972450256347656e+00 9.530717507004737854e-03
-6.568998336791992188e+00 -4.264785766601562500e+00 9.568590670824050903e-03
-6.008966445922851562e+00 -3.848992586135864258e+00 8.718267083168029785e-03
-6.603931903839111328e+00 -4.173169136047363281e+00 9.544156491756439209e-03
-6.361249923706054688e+00 -3.965404748916625977e+00 9.158089756965637207e-03
-6.176758766174316406e+00 -3.797970771789550781e+00 8.858766406774520874e-03
-6.437649250030517578e+00 -3.904155969619750977e+00 9.198406711220741272e-03
-6.423721790313720703e+00 -3.841996669769287109e+00 9.144650772213935852e-03
-6.736588001251220703e+00 -3.973203182220458984e+00 9.555152617394924164e-03
-6.625122070312500000e+00 -3.852865934371948242e+00 9.363340213894844055e-03
-6.697218418121337891e+00 -3.839997291564941406e+00 9.431757032871246338e-03
-6.436854839324951172e+00 -3.638414859771728516e+00 9.033473208546638489e-03
-6.291336059570312500e+00 -3.505398988723754883e+00 8.798900991678237915e-03
-6.637917041778564453e+00 -3.645313501358032227e+00 9.252163581550121307e-03
-6.492182254791259766e+00 -3.513605356216430664e+00 9.018812328577041626e-03
-6.495089530944824219e+00 -3.463822126388549805e+00 8.993156254291534424e-03
-6.261272430419921875e+00 -3.289942979812622070e+00 8.641297928988933563e-03
-6.073532104492187500e+00 -3.143892526626586914e+00 8.355412632226943970e-03
-6.624562263488769531e+00 -3.377749919891357422e+00 9.084786288440227509e-03
-7.068751811981201172e+00 -3.549754858016967773e+00 9.663886390626430511e-03
-7.159421443939208984e+00 -3.540447235107421875e+00 9.757959283888339996e-03
-7.257432937622070312e+00 -3.533661603927612305e+00 9.861806407570838928e-03
-7.193311214447021484e+00 -3.448001146316528320e+00 9.745742194354534149e-03
-6.966529369354248047e+00 -3.286882638931274414e+00 9.410988539457321167e-03
-7.076358318328857422e+00 -3.285768270492553711e+00 9.531939402222633362e-03
-7.165512561798095703e+00 -3.273869991302490234e+00 9.624790400266647339e-03
-7.315894603729248047e+00 -3.288469076156616211e+00 9.799497202038764954e-03
-7.342337608337402344e+00 -3.246348619461059570e+00 9.808050468564033508e-03
-7.427228927612304688e+00 -3.229547262191772461e+00 9.894792921841144562e-03
-6.904409408569335938e+00 -2.951970577239990234e+00 9.173972532153129578e-03
-6.943595886230468750e+00 -2.918462514877319336e+00 9.202072396874427795e-03
-6.384646892547607422e+00 -2.637552261352539062e+00 8.439712226390838623e-03
-7.133623123168945312e+00 -2.895848274230957031e+00 9.406100958585739136e-03
-7.559025287628173828e+00 -3.014646053314208984e+00 9.942440316081047058e-03
-7.515927314758300781e+00 -2.944135665893554688e+00 9.861806407570838928e-03
-7.266917705535888672e+00 -2.795285224914550781e+00 9.512391872704029083e-03
-7.810627937316894531e+00 -2.949540615081787109e+00 1.020022481679916382e-02
-7.569782733917236328e+00 -2.805640459060668945e+00 9.863027371466159821e-03
-7.929876327514648438e+00 -2.883888006210327148e+00 1.030896045267581940e-02
-7.830630779266357422e+00 -2.793512582778930664e+00 1.015746500343084335e-02
-7.899539470672607422e+00 -2.763574123382568359e+00 1.022465992718935013e-02
-8.418627738952636719e+00 -2.887317419052124023e+00 1.087339967489242554e-02
-8.419122695922851562e+00 -2.829872131347656250e+00 1.085140742361545563e-02
-8.250164031982421875e+00 -2.716854333877563477e+00 1.061194948852062225e-02
-3.803078174591064453e+00 -7.852004170417785645e-01 1.152533665299415588e-01
-8.066816329956054688e+00 -2.601721525192260742e+00 1.035538595169782639e-02
-3.804884195327758789e+00 -7.612620592117309570e-01 1.151643693447113037e-01
-8.117911338806152344e+00 -2.563316106796264648e+00 1.040058955550193787e-02
-3.799670219421386719e+00 -7.360005974769592285e-01 1.148677021265029907e-01
-8.583488464355468750e+00 -2.652519702911376953e+00 1.097602397203445435e-02
-3.802149772644042969e+00 -7.123042345046997070e-01 1.148083657026290894e-01
-7.908494472503662109e+00 -2.390869140625000000e+00 1.009393483400344849e-02
-8.106179237365722656e+00 -2.396447420120239258e+00 1.032728515565395355e-02
-8.420467376708984375e+00 -2.433279037475585938e+00 1.070846524089574814e-02
-3.800594806671142578e+00 -7.819648385047912598e-01 7.856865972280502319e-02
-8.233139991760253906e+00 -2.324506521224975586e+00 1.045190170407295227e-02
-3.856576442718505859e+00 -7.702481746673583984e-01 2.219401299953460693e-01
-3.805321455001831055e+00 -7.586300969123840332e-01 7.856865972280502319e-02
-8.528742790222167969e+00 -2.351559638977050781e+00 1.080864667892456055e-02
-3.858289241790771484e+00 -7.460015416145324707e-01 2.217710912227630615e-01
-3.812849521636962891e+00 -7.358351945877075195e-01 7.862939685583114624e-02
-7.988735198974609375e+00 -2.150011301040649414e+00 1.010737475007772446e-02
-3.867701053619384766e+00 -7.232310771942138672e-01 2.220528125762939453e-01
-3.805498838424682617e+00 -7.102249860763549805e-01 7.838646322488784790e-02
-7.775448322296142578e+00 -2.041527986526489258e+00 9.821489453315734863e-03
-3.814704656600952148e+00 -6.877484917640686035e-01 7.848767936229705811e-02
-8.593832969665527344e+00 -2.200127363204956055e+00 1.083796843886375427e-02
-3.841843128204345703e+00 -8.122955560684204102e-01 4.180805012583732605e-02
-8.790550231933593750e+00 -2.193105459213256836e+00 1.106887590140104294e-02
-3.840363979339599609e+00 -7.894923090934753418e-01 1.842085421085357666e-01
-3.825204610824584961e+00 -7.842885851860046387e-01 4.157383367419242859e-02
-7.808793544769287109e+00 -1.897353053092956543e+00 9.817823767662048340e-03
-3.860810518264770508e+00 -7.690356373786926270e-01 1.849594563245773315e-01
-3.823079347610473633e+00 -7.594389915466308594e-01 4.149930924177169800e-02
-8.310759544372558594e+00 -1.965393900871276855e+00 1.043357606977224350e-02
-3.842897415161132812e+00 -7.409818768501281738e-01 1.838800162076950073e-01
-3.806064128875732422e+00 -7.318130135536193848e-01 4.126508906483650208e-02
-8.714431762695312500e+00 -2.004477262496948242e+00 1.092471182346343994e-02
-3.794753313064575195e+00 -7.055212259292602539e-01 4.109474644064903259e-02
-8.679722785949707031e+00 -1.940495967864990234e+00 1.086606830358505249e-02
-3.814758062362670898e+00 -6.850516200065612793e-01 4.126508906483650208e-02
-7.700557708740234375e+00 -1.672042965888977051e+00 9.627234190702438354e-03
-3.797603845596313477e+00 -8.002157807350158691e-01 4.741535056382417679e-03
-3.809287309646606445e+00 -7.796828150749206543e-01 1.459738910198211670e-01
-3.762272119522094727e+00 -7.686916589736938477e-01 4.691443871706724167e-03
-3.818900585174560547e+00 -7.572666406631469727e-01 1.461614519357681274e-01
-3.785556554794311523e+00 -7.492814064025878906e-01 4.714657086879014969e-03
-3.829363584518432617e+00 -7.349501848220825195e-01 1.463865488767623901e-01
-3.796957731246948242e+00 -7.273565530776977539e-01 4.723208956420421600e-03
-3.855416536331176758e+00 -7.154510021209716797e-01 1.472119092941284180e-01
-3.813148498535156250e+00 -7.062305212020874023e-01 4.737869836390018463e-03
-3.809535026550292969e+00 -6.814115643501281738e-01 4.728096071630716324e-03
-9.290707588195800781e+00 -1.603061914443969727e+00 1.151847280561923981e-02
-9.353637695312500000e+00 -1.554880023002624512e+00 1.158444583415985107e-02
-8.414063453674316406e+00 -1.345690727233886719e+00 1.041036378592252731e-02
-8.262040138244628906e+00 -1.269435524940490723e+00 1.021244283765554428e-02
-8.541735649108886719e+00 -1.258810877799987793e+00 1.054841931909322739e-02
-9.564243316650390625e+00 -1.349593043327331543e+00 1.180069241672754288e-02
-9.566398620605468750e+00 -1.290080785751342773e+00 1.179336197674274445e-02
-9.361882209777832031e+00 -1.204059720039367676e+00 1.153191085904836655e-02
-9.698635101318359375e+00 -1.186923146247863770e+00 1.193752698600292206e-02
-9.730567932128906250e+00 -1.130275607109069824e+00 1.196806970983743668e-02
-9.276100158691406250e+00 -1.019840717315673828e+00 1.140118669718503952e-02
-9.613405227661132812e+00 -9.972644448280334473e-01 1.180802285671234131e-02
-9.828351020812988281e+00 -9.586452245712280273e-01 1.206458546221256256e-02
-9.680686950683593750e+00 -8.843123912811279297e-01 1.187643967568874359e-02
-1.008149814605712891e+01 -8.585843443870544434e-01 1.236146595329046249e-02
-9.632989883422851562e+00 -7.608817815780639648e-01 1.180557906627655029e-02
-1.010124874114990234e+01 -7.355304956436157227e-01 1.237368304282426834e-02
-9.688497543334960938e+00 -6.457384824752807617e-01 1.186299975961446762e-02
-1.016940498352050781e+01 -6.151399612426757812e-01 1.244698744267225266e-02
-9.665736198425292969e+00 -5.251695513725280762e-01 1.182634849101305008e-02
-9.450031280517578125e+00 -4.553124010562896729e-01 1.155878975987434387e-02
-7.813095569610595703e+00 -3.284048736095428467e-01 9.553929790854454041e-03
-1.031635189056396484e+01 -3.702266812324523926e-01 1.261192187666893005e-02
-9.879623413085937500e+00 -2.938675880432128906e-01 1.207558158785104752e-02
-1.038510036468505859e+01 -2.451351583003997803e-01 1.269133388996124268e-02
-1.061137485504150391e+01 -1.853380203247070312e-01 1.296622306108474731e-02
-1.061231231689453125e+01 -1.202243566513061523e-01 1.296622306108474731e-02
-1.061584949493408203e+01 -5.512174591422080994e-02 1.296988781541585922e-02
-1.062198829650878906e+01 1.002257782965898514e-02 1.297721918672323227e-02
-1.069572448730468750e+01 7.572155445814132690e-02 1.306762639433145523e-02
-1.116301727294921875e+01 1.475324928760528564e-01 1.363939605653285980e-02
-1.083696365356445312e+01 2.097359150648117065e-01 1.324233412742614746e-02
-1.073750400543212891e+01 2.737288475036621094e-01 1.312260422855615616e-02
-1.075161457061767578e+01 3.401136696338653564e-01 1.314215268939733505e-02
-1.090621280670166016e+01 4.120046794414520264e-01 1.333396416157484055e-02
-1.084653472900390625e+01 4.764149785041809082e-01 1.326432451605796814e-02
-1.084740161895751953e+01 5.431591272354125977e-01 1.326921116560697556e-02
-1.101259899139404297e+01 6.191945672035217285e-01 1.347568444907665253e-02
-1.103154754638671875e+01 6.881869435310363770e-01 1.350378431379795074e-02
-1.088944053649902344e+01 7.464251518249511719e-01 1.333518605679273605e-02
-1.103723049163818359e+01 8.246268033981323242e-01 1.352211087942123413e-02
-1.084756469726562500e+01 8.774191737174987793e-01 1.329609006643295288e-02
-1.102528285980224609e+01 9.599217176437377930e-01 1.352088805288076401e-02
-1.090468215942382812e+01 1.016875982284545898e+00 1.338038966059684753e-02
-1.093107604980468750e+01 1.087032198905944824e+00 1.342070661485195160e-02
-1.116983318328857422e+01 1.180033326148986816e+00 1.372247375547885895e-02
-1.083740901947021484e+01 1.212198734283447266e+00 1.332296803593635559e-02
-1.063809871673583984e+01 1.256042718887329102e+00 1.308717485517263412e-02
-1.126331901550292969e+01 1.399988532066345215e+00 1.386663783341646194e-02
-1.120493698120117188e+01 1.462600827217102051e+00 1.380555145442485809e-02
-1.123241138458251953e+01 1.536339759826660156e+00 1.385075598955154419e-02
-1.133265399932861328e+01 1.620948314666748047e+00 1.398636773228645325e-02
-1.139469432830810547e+01 1.701233148574829102e+00 1.407555397599935532e-02
-1.132870674133300781e+01 1.762508630752563477e+00 1.400713622570037842e-02
-1.110248088836669922e+01 1.797153115272521973e+00 1.374080032110214233e-02
-1.120859622955322266e+01 1.884978055953979492e+00 1.388618536293506622e-02
-1.124114894866943359e+01 1.961452364921569824e+00 1.394116319715976715e-02
-1.126137542724609375e+01 2.036261558532714844e+00 1.398148015141487122e-02
-1.134008216857910156e+01 2.122430801391601562e+00 1.409510150551795959e-02
-1.156345653533935547e+01 2.237761020660400391e+00 1.438953913748264313e-02
-1.136613559722900391e+01 2.272016048431396484e+00 1.416107546538114548e-02
-1.143718624114990234e+01 2.359291076660156250e+00 1.426736544817686081e-02
-1.085616302490234375e+01 2.308972120285034180e+00 1.355998404324054718e-02
-1.139369773864746094e+01 2.496468782424926758e+00 1.425026170909404755e-02
-1.085042285919189453e+01 2.447300434112548828e+00 1.358930487185716629e-02
-1.106119918823242188e+01 2.566264152526855469e+00 1.387274637818336487e-02
-1.108415412902832031e+01 2.643365144729614258e+00 1.392161566764116287e-02
-1.108132362365722656e+01 2.714657545089721680e+00 1.393872033804655075e-02
-1.101402854919433594e+01 2.769917726516723633e+00 1.387519016861915588e-02
-1.118660926818847656e+01 2.886415243148803711e+00 1.411464903503656387e-02
-1.112905120849609375e+01 2.944513559341430664e+00 1.406455785036087036e-02
-1.116868400573730469e+01 3.028447151184082031e+00 1.413786225020885468e-02
-1.095718669891357422e+01 3.043395519256591797e+00 1.389351673424243927e-02
-1.068918418884277344e+01 3.039726495742797852e+00 1.357708871364593506e-02
-1.110528755187988281e+01 3.231836557388305664e+00 1.413053274154663086e-02
-1.108237266540527344e+01 3.299060583114624023e+00 1.412686705589294434e-02
-1.104852771759033203e+01 3.362921953201293945e+00 1.410976238548755646e-02
-1.096657466888427734e+01 3.411639928817749023e+00 1.403157133609056473e-02
-1.088348770141601562e+01 3.459176301956176758e+00 1.395215839147567749e-02
-1.080498981475830078e+01 3.507366180419921875e+00 1.387885585427284241e-02
-1.095222854614257812e+01 3.629593133926391602e+00 1.409632246941328049e-02
-1.095153903961181641e+01 3.704095602035522461e+00 1.412442326545715332e-02
-1.050038433074951172e+01 3.623453617095947266e+00 1.357097923755645752e-02
-1.080904483795166016e+01 3.804345369338989258e+00 1.399980671703815460e-02
-1.094738960266113281e+01 3.928694486618041992e+00 1.420994382351636887e-02
-1.090053749084472656e+01 3.987547159194946289e+00 1.418062299489974976e-02
-9.947289466857910156e+00 3.708197593688964844e+00 1.296988781541585922e-02
-1.083863067626953125e+01 4.116397857666015625e+00 1.416474021971225739e-02
-1.056788158416748047e+01 4.087941169738769531e+00 1.384342461824417114e-02
-1.081521224975585938e+01 4.260089397430419922e+00 1.420139241963624954e-02
-1.093644618988037109e+01 4.385548591613769531e+00 1.439564768224954605e-02
-1.084359550476074219e+01 4.425741672515869141e+00 1.430890522897243500e-02
-1.064538478851318359e+01 4.421235561370849609e+00 1.408288441598415375e-02
-6.370396137237548828e+00 3.547992706298828125e+00 2.164152711629867554e-01
-1.059318542480468750e+01 4.475962638854980469e+00 1.404989790171384811e-02
-6.325008869171142578e+00 3.573737621307373047e+00 2.156142592430114746e-01
-1.057654666900634766e+01 4.545614719390869141e+00 1.406455785036087036e-02
-1.047057151794433594e+01 4.576384544372558594e+00 1.396071165800094604e-02
-1.037558364868164062e+01 4.610898494720458984e+00 1.387152448296546936e-02
-1.013293743133544922e+01 4.577724933624267578e+00 1.358441822230815887e-02
-1.046544170379638672e+01 4.805476665496826172e+00 1.406944543123245239e-02
-6.358976840972900391e+00 3.547360658645629883e+00 1.474402397871017456e-01
-1.046566295623779297e+01 4.883554935455322266e+00 1.410976238548755646e-02
-6.316207885742187500e+00 3.574493646621704102e+00 1.469543725252151489e-01
-1.023219490051269531e+01 4.851287364959716797e+00 1.383487321436405182e-02
-9.995920181274414062e+00 4.814606189727783203e+00 1.355509646236896515e-02
-9.964393615722656250e+00 4.874970912933349609e+00 1.355265360325574875e-02
-1.021549510955810547e+01 5.075738906860351562e+00 1.393627654761075974e-02
-6.361639022827148438e+00 3.503533363342285156e+00 7.732413709163665771e-02
-1.017523002624511719e+01 5.133820056915283203e+00 1.392405945807695389e-02
-6.344386100769042969e+00 3.544940233230590820e+00 7.737736403942108154e-02
-1.010526752471923828e+01 5.176552772521972656e+00 1.387152448296546936e-02
-6.324255466461181641e+00 3.584788322448730469e+00 7.739865779876708984e-02
-1.007242774963378906e+01 5.237998962402343750e+00 1.387030351907014847e-02
-9.815471649169921875e+00 5.181133747100830078e+00 1.355998404324054718e-02
-9.980065345764160156e+00 5.346569538116455078e+00 1.383242942392826080e-02
-9.882057189941406250e+00 5.372360706329345703e+00 1.374202128499746323e-02
-6.398112297058105469e+00 3.529352903366088867e+00 8.927182294428348541e-03
-6.310888767242431641e+00 3.531916618347167969e+00 8.835553191602230072e-03
-6.303012371063232422e+00 3.578472375869750977e+00 8.855100721120834351e-03
-9.732505798339843750e+00 5.604776859283447266e+00 1.372125279158353806e-02
-9.453562736511230469e+00 5.521656990051269531e+00 1.337550301104784012e-02
-9.549423217773437500e+00 5.656515121459960938e+00 1.355998404324054718e-02
-9.470815658569335938e+00 5.688742160797119141e+00 1.349767576903104782e-02
-9.585193634033203125e+00 5.837775230407714844e+00 1.371147856116294861e-02
-9.593438148498535156e+00 5.923799037933349609e+00 1.377500873059034348e-02
-9.533176422119140625e+00 5.967695236206054688e+00 1.374080032110214233e-02
-9.683825492858886719e+00 6.145023822784423828e+00 1.401202473789453506e-02
-9.349889755249023438e+00 6.013906955718994141e+00 1.358197536319494247e-02
-9.239933013916015625e+00 6.023651599884033203e+00 1.347568444907665253e-02
-9.249521255493164062e+00 6.111103057861328125e+00 1.354410126805305481e-02
-9.272508621215820312e+00 6.208355903625488281e+00 1.363328751176595688e-02
-9.219346046447753906e+00 6.255028247833251953e+00 1.361129712313413620e-02
-9.279678344726562500e+00 6.379460334777832031e+00 1.375790406018495560e-02
-9.156662940979003906e+00 6.377980709075927734e+00 1.363328751176595688e-02
-9.449073791503906250e+00 6.668136119842529297e+00 1.412930991500616074e-02
-9.235330581665039062e+00 6.688565731048583984e+00 1.393138989806175232e-02
-9.159445762634277344e+00 6.719671249389648438e+00 1.387885585427284241e-02
-8.190645217895507812e+00 6.734832763671875000e+00 1.295522693544626236e-02
-2.805835485458374023e+00 5.011461734771728516e+00 1.704622507095336914e-01
-2.744606971740722656e+00 4.973449230194091797e+00 1.685932725667953491e-01
-2.836222171783447266e+00 5.073912620544433594e+00 1.177011579275131226e-01
-2.714333057403564453e+00 4.926591396331787109e+00 1.138952076435089111e-01
-2.732771396636962891e+00 4.896739959716796875e+00 5.970449373126029968e-02
-2.707011222839355469e+00 4.921300888061523438e+00 5.980030819773674011e-02
-2.674381256103515625e+00 4.933423042297363281e+00 5.974708124995231628e-02
-2.795487403869628906e+00 4.945600509643554688e+00 6.940649356693029404e-03
-2.762655496597290039e+00 4.958292484283447266e+00 6.934540811926126480e-03
-2.726403713226318359e+00 4.964632034301757812e+00 6.919879931956529617e-03
-2.689702510833740234e+00 4.969834804534912109e+00 6.903997622430324554e-03
-4.788773655891418457e-01 2.393489599227905273e+00 7.244497537612915039e-02
-4.638020098209381104e-01 2.394420146942138672e+00 7.238563895225524902e-02
-4.467086195945739746e-01 2.384449005126953125e+00 7.199997454881668091e-02
-4.326035976409912109e-01 2.390095710754394531e+00 7.208897173404693604e-02
-4.168981611728668213e-01 2.386797189712524414e+00 7.191097736358642578e-02
-4.667542576789855957e-01 2.420691967010498047e+00 1.158284544944763184e-01
-4.529910087585449219e-01 2.429402112960815430e+00 1.161100491881370544e-01
-4.292223155498504639e-01 2.382981777191162109e+00 1.137634366750717163e-01
-3.947523236274719238e-01 2.271409749984741211e+00 1.083193123340606689e-01
-4.771790802478790283e-01 2.406417131423950195e+00 9.210123121738433838e-02
-4.654182195663452148e-01 2.425001859664916992e+00 9.270147979259490967e-02
-4.450601339340209961e-01 2.398336410522460938e+00 9.157600998878479004e-02
-4.313935637474060059e-01 2.406923532485961914e+00 9.180109947919845581e-02
-4.533041641116142273e-02 6.663230061531066895e-01 1.352328434586524963e-02
-9.434217587113380432e-03 7.227883338928222656e-01 4.079325869679450989e-02
-1.355760172009468079e-02 7.468346357345581055e-01 7.952791638672351837e-03
