-1.169487953186035156e+00 3.032423734664916992e+00 2.403850853443145752e-01
-8.147290349006652832e-01 3.074999809265136719e+00 2.096156179904937744e-01
-9.399895071983337402e-01 3.090052127838134766e+00 1.822737455368041992e-01
-1.072198510169982910e+00 3.113945722579956055e+00 1.547351777553558350e-01
-1.207969903945922852e+00 3.137097120285034180e+00 1.262030601501464844e-01
-8.191806077957153320e-01 3.093981981277465820e+00 9.499131888151168823e-02
-9.352712035179138184e-01 3.078400373458862305e+00 6.514660269021987915e-02
-1.103542923927307129e+00 3.210438013076782227e+00 3.614421561360359192e-02
-1.224238634109497070e+00 3.182659626007080078e+00 4.166100174188613892e-03
-7.988722920417785645e-01 3.082766532897949219e+00 9.384853839874267578e-01
-8.990318775177001953e-01 2.998887300491333008e+00 8.870928883552551270e-01
-1.013241052627563477e+00 2.973292350769042969e+00 8.569778800010681152e-01
-1.129469275474548340e+00 2.951892375946044922e+00 8.309360146522521973e-01
-7.887798547744750977e-01 3.041634559631347656e+00 7.980290055274963379e-01
-8.840448260307312012e-01 2.952641963958740234e+00 7.496369481086730957e-01
-1.028812885284423828e+00 3.024172306060791016e+00 7.445314526557922363e-01
-1.119379758834838867e+00 2.933189868927001953e+00 7.017668485641479492e-01
-8.107058405876159668e-01 3.123939990997314453e+00 6.930775046348571777e-01
-9.009885787963867188e-01 3.013059854507446289e+00 6.432647705078125000e-01
-9.988156557083129883e-01 2.942732334136962891e+00 6.051861047744750977e-01
-7.848451733589172363e-01 3.026461839675903320e+00 5.524244308471679688e-01
-9.187796115875244141e-01 3.076468229293823242e+00 5.349885821342468262e-01
-9.955521225929260254e-01 2.934800148010253906e+00 4.864082932472229004e-01
-1.114248394966125488e+00 2.933568716049194336e+00 4.628277122974395752e-01
-8.000295758247375488e-01 3.087232351303100586e+00 4.442414045333862305e-01
-9.235013723373413086e-01 3.096220016479492188e+00 4.184882640838623047e-01
-9.900189638137817383e-01 2.926882505416870117e+00 3.711696565151214600e-01
-7.959852218627929688e-01 3.076046943664550781e+00 3.255467414855957031e-01
-9.187431335449218750e-01 3.084197282791137695e+00 2.991034090518951416e-01
-1.015943050384521484e+00 3.006981849670410156e+00 2.648521065711975098e-01
-1.154037594795227051e+00 3.047936677932739258e+00 2.410489320755004883e-01
-7.963451147079467773e-01 3.081872940063476562e+00 2.097471058368682861e-01
-9.164564013481140137e-01 3.080450296401977539e+00 1.813722401857376099e-01
-1.055946111679077148e+00 3.128983974456787109e+00 1.551575660705566406e-01
-1.185871362686157227e+00 3.136972188949584961e+00 1.259029358625411987e-01
-7.906845808029174805e-01 3.062173128128051758e+00 9.386399388313293457e-02
-9.175038933753967285e-01 3.087914705276489258e+00 6.522757560014724731e-02
-1.090208172798156738e+00 3.236101150512695312e+00 3.635714203119277954e-02
-1.195148587226867676e+00 3.164852619171142578e+00 4.133113194257020950e-03
-7.872242927551269531e-01 3.116440296173095703e+00 9.472483396530151367e-01
-8.808847069740295410e-01 3.005270481109619141e+00 8.873654603958129883e-01
-9.931446909904479980e-01 2.973963260650634766e+00 8.553987741470336914e-01
-1.112015724182128906e+00 2.960577964782714844e+00 8.314445614814758301e-01
-7.743775844573974609e-01 3.063331365585327148e+00 8.024597764015197754e-01
-8.667300939559936523e-01 2.960808277130126953e+00 7.503459453582763672e-01
-1.008081555366516113e+00 3.023960828781127930e+00 7.429425120353698730e-01
-1.103072762489318848e+00 2.944572448730468750e+00 7.028575539588928223e-01
-7.924816012382507324e-01 3.132647037506103516e+00 6.939173340797424316e-01
-8.932055830955505371e-01 3.055205345153808594e+00 6.510801315307617188e-01
-9.798112511634826660e-01 2.946011304855346680e+00 6.046126484870910645e-01
-1.099213123321533203e+00 2.942082405090332031e+00 5.809640288352966309e-01
-7.677084207534790039e-01 3.036948919296264648e+00 5.534683465957641602e-01
-9.009913206100463867e-01 3.085835218429565430e+00 5.356460213661193848e-01
-9.803303480148315430e-01 2.949290990829467773e+00 4.878038167953491211e-01
-1.095190644264221191e+00 2.937569618225097656e+00 4.623899757862091064e-01
-7.813141942024230957e-01 3.093043327331542969e+00 4.443793594837188721e-01
-8.897720575332641602e-01 3.051368713378906250e+00 4.116804301738739014e-01
-9.739153981208801270e-01 2.938556432723999023e+00 3.718852698802947998e-01
-1.098439455032348633e+00 2.951003551483154297e+00 3.481878936290740967e-01
-7.802588343620300293e-01 3.093412637710571289e+00 3.268717527389526367e-01
-8.953471183776855469e-01 3.074480533599853516e+00 2.976227104663848877e-01
-1.001544713973999023e+00 3.025457382202148438e+00 2.659331262111663818e-01
-1.122807502746582031e+00 3.021306991577148438e+00 2.383935600519180298e-01
-7.732771039009094238e-01 3.070251703262329102e+00 2.086293399333953857e-01
-8.975378274917602539e-01 3.086015462875366211e+00 1.813722401857376099e-01
-1.033904790878295898e+00 3.126868724822998047e+00 1.547351777553558350e-01
-1.163820028305053711e+00 3.136694431304931641e+00 1.256028115749359131e-01
-8.982607126235961914e-01 3.092526197433471680e+00 6.520733237266540527e-02
-1.071271538734436035e+00 3.245578289031982422e+00 3.638907894492149353e-02
-1.182310104370117188e+00 3.189942121505737305e+00 4.156326409429311752e-03
-8.166802525520324707e-01 3.318674564361572266e+00 1.007175683975219727e+00
-8.661375045776367188e-01 3.023567676544189453e+00 8.911820650100708008e-01
-9.706785678863525391e-01 2.967164039611816406e+00 8.517138957977294922e-01
-1.089480519294738770e+00 2.955548763275146484e+00 8.281391263008117676e-01
-7.639104723930358887e-01 3.101905345916748047e+00 8.113213181495666504e-01
-8.573661446571350098e-01 2.996899127960205078e+00 7.581447958946228027e-01
-9.858799576759338379e-01 3.018979787826538086e+00 7.402185797691345215e-01
-1.083974123001098633e+00 2.948537349700927734e+00 7.022030949592590332e-01
-7.734791040420532227e-01 3.138400077819824219e+00 6.941273212432861328e-01
-8.822475075721740723e-01 3.087947130203247070e+00 6.568915247917175293e-01
-9.668852686882019043e-01 2.967833757400512695e+00 6.078622341156005859e-01
-1.075047254562377930e+00 2.932153463363647461e+00 5.776899456977844238e-01
-7.514143586158752441e-01 3.051164150238037109e+00 5.552082657814025879e-01
-8.779803514480590820e-01 3.077077627182006836e+00 5.331806540489196777e-01
-9.695558547973632812e-01 2.977795362472534180e+00 4.915251135826110840e-01
-1.075785756111145020e+00 2.940517902374267578e+00 4.618063271045684814e-01
-7.606642246246337891e-01 3.091047048568725586e+00 4.434136152267456055e-01
-8.669558763504028320e-01 3.042464494705200195e+00 4.097536802291870117e-01
-9.687421321868896484e-01 2.984139680862426758e+00 3.768946230411529541e-01
-1.074514627456665039e+00 2.941816329956054688e+00 3.463194668292999268e-01
-8.734677433967590332e-01 3.069381952285766602e+00 2.966047227382659912e-01
-9.851135611534118652e-01 3.038181543350219727e+00 2.665152251720428467e-01
-1.094339847564697266e+00 3.000968694686889648e+00 2.362544983625411987e-01
-8.774937391281127930e-01 3.087623119354248047e+00 1.811468750238418579e-01
-1.011621594429016113e+00 3.123650789260864258e+00 1.542658507823944092e-01
-1.142158746719360352e+00 3.137203454971313477e+00 1.253402084112167358e-01
-8.806332945823669434e-01 3.102788448333740234e+00 6.530855596065521240e-02
-1.158271670341491699e+00 3.184919357299804688e+00 4.140443634241819382e-03
-7.987602353096008301e-01 3.333884000778198242e+00 1.010285139083862305e+00
-8.504210114479064941e-01 3.039017200469970703e+00 8.941808938980102539e-01
-9.515711665153503418e-01 2.970308065414428711e+00 8.509243130683898926e-01
-1.087113738059997559e+00 3.005832910537719727e+00 8.403437733650207520e-01
-7.545807361602783203e-01 3.147062301635742188e+00 8.219059109687805176e-01
-8.376537561416625977e-01 2.997424364089965820e+00 7.569631338119506836e-01
-9.646675586700439453e-01 3.016623497009277344e+00 7.381756305694580078e-01
-1.065861821174621582e+00 2.955132961273193359e+00 7.022030949592590332e-01
-7.450823783874511719e-01 3.105058193206787109e+00 6.857289671897888184e-01
-8.580164909362792969e-01 3.074429273605346680e+00 6.528836488723754883e-01
-9.522366523742675781e-01 2.984932184219360352e+00 6.101560592651367188e-01
-1.054373145103454590e+00 2.931292533874511719e+00 5.762348175048828125e-01
-7.340562939643859863e-01 3.061462879180908203e+00 5.562522411346435547e-01
-8.535219430923461914e-01 3.062452793121337891e+00 5.297290682792663574e-01
-9.575679898262023926e-01 3.003454208374023438e+00 4.947813153266906738e-01
-1.054715156555175781e+00 2.938683271408081055e+00 4.604931473731994629e-01
-7.402989864349365234e-01 3.089877128601074219e+00 4.425858259201049805e-01
-8.469417691230773926e-01 3.042949914932250977e+00 4.091114699840545654e-01
-9.585341215133666992e-01 3.015575170516967773e+00 3.801149129867553711e-01
-1.050073623657226562e+00 2.930576086044311523e+00 3.442312180995941162e-01
-8.564844727516174316e-01 3.081398963928222656e+00 2.972525358200073242e-01
-1.075905561447143555e+00 3.007627010345458984e+00 2.362544983625411987e-01
-8.569297194480895996e-01 3.087177038192749023e+00 1.808087974786758423e-01
-9.882092475891113281e-01 3.116468667984008789e+00 1.536088138818740845e-01
-1.120871186256408691e+00 3.138506174087524414e+00 1.251151114702224731e-01
-8.634478449821472168e-01 3.114877700805664062e+00 6.545026600360870361e-02
-9.734276533126831055e-01 3.075440645217895508e+00 3.434498980641365051e-02
-1.149123549461364746e+00 3.221163988113403320e+00 4.178317263722419739e-03
-7.745869159698486328e-01 3.322841644287109375e+00 1.005479693412780762e+00
-8.391119241714477539e-01 3.071093082427978516e+00 9.020867943763732910e-01
-9.313069581985473633e-01 2.969647169113159180e+00 8.490819334983825684e-01
-1.066063046455383301e+00 3.005155086517333984e+00 8.383096456527709961e-01
-7.561757564544677734e-01 3.241302251815795898e+00 8.452904820442199707e-01
-8.225712180137634277e-01 3.014693975448608398e+00 7.600353956222534180e-01
-9.342111945152282715e-01 2.984379529953002930e+00 7.288690209388732910e-01
-1.054870009422302246e+00 2.981858253479003906e+00 7.070022821426391602e-01
-7.240154147148132324e-01 3.101002454757690430e+00 6.838393211364746094e-01
-8.406813740730285645e-01 3.085307598114013672e+00 6.540860533714294434e-01
-9.365367293357849121e-01 2.999151229858398438e+00 6.118764281272888184e-01
-1.034731507301330566e+00 2.933070182800292969e+00 5.753253698348999023e-01
-7.186135649681091309e-01 3.080294132232666016e+00 5.588620901107788086e-01
-8.318661451339721680e-01 3.057162523269653320e+00 5.279211401939392090e-01
-9.467729926109313965e-01 3.033792495727539062e+00 4.988127350807189941e-01
-1.033050656318664551e+00 2.934834718704223633e+00 4.588881433010101318e-01
-8.277345299720764160e-01 3.046175241470336914e+00 4.088545441627502441e-01
-9.462069272994995117e-01 3.041308879852294922e+00 3.826196193695068359e-01
-1.033719778060913086e+00 2.941652536392211914e+00 3.447807431221008301e-01
-8.375612497329711914e-01 3.086596250534057617e+00 2.972525358200073242e-01
-9.521919488906860352e-01 3.064316511154174805e+00 2.677625715732574463e-01
-1.056440472602844238e+00 3.011348962783813477e+00 2.360332161188125610e-01
-8.345763087272644043e-01 3.079849243164062500e+00 1.800763159990310669e-01
-9.669958353042602539e-01 3.115795612335205078e+00 1.532802879810333252e-01
-1.102253198623657227e+00 3.147210836410522461e+00 1.251901388168334961e-01
-8.448414206504821777e-01 3.122047424316406250e+00 6.549075245857238770e-02
-9.669661521911621094e-01 3.121472597122192383e+00 3.479213267564773560e-02
-1.128346562385559082e+00 3.225322484970092773e+00 4.174652043730020523e-03
-7.516393661499023438e-01 3.316305875778198242e+00 1.002087473869323730e+00
-8.202522397041320801e-01 3.076184034347534180e+00 9.020867943763732910e-01
-9.150492548942565918e-01 2.981761455535888672e+00 8.509243130683898926e-01
-1.038389086723327637e+00 2.985149621963500977e+00 8.309360146522521973e-01
-7.510673403739929199e-01 3.311101198196411133e+00 8.622750639915466309e-01
-8.073081374168395996e-01 3.031890869140625000e+00 7.631077170372009277e-01
-9.047577381134033203e-01 2.953739166259765625e+00 7.200163602828979492e-01
-1.038792490959167480e+00 2.994728803634643555e+00 7.085292935371398926e-01
-8.224897384643554688e-01 3.093248367309570312e+00 6.546872258186340332e-01
-9.229926466941833496e-01 3.020799636840820312e+00 6.151260137557983398e-01
-1.011893510818481445e+00 2.925424814224243164e+00 5.725969672203063965e-01
-8.057509660720825195e-01 3.034561634063720703e+00 5.231547355651855469e-01
-9.489129781723022461e-01 3.107573032379150391e+00 5.099767446517944336e-01
-1.013732433319091797e+00 2.937377214431762695e+00 4.583044648170471191e-01
-8.130947351455688477e-01 3.066534280776977539e+00 4.109097421169281006e-01
-9.492127299308776855e-01 3.118294715881347656e+00 3.915649056434631348e-01
-1.010146617889404297e+00 2.931964397430419922e+00 3.429123163223266602e-01
-8.119801878929138184e-01 3.066651344299316406e+00 2.948463857173919678e-01
-9.368500709533691406e-01 3.081542491912841797e+00 2.687604129314422607e-01
-1.041835665702819824e+00 3.029091119766235352e+00 2.369183450937271118e-01
-8.164286017417907715e-01 3.087807893753051758e+00 1.802453547716140747e-01
-9.475691914558410645e-01 3.120714426040649414e+00 1.532333493232727051e-01
-1.083895087242126465e+00 3.156750202178955078e+00 1.253026872873306274e-01
-8.195434808731079102e-01 3.103972434997558594e+00 6.500489264726638794e-02
-9.428645968437194824e-01 3.111078739166259766e+00 3.461114689707756042e-02
-1.107237458229064941e+00 3.228401660919189453e+00 4.169765394181013107e-03
-7.296265363693237305e-01 3.313361406326293945e+00 9.998261332511901855e-01
-7.989398837089538574e-01 3.071847677230834961e+00 8.993605971336364746e-01
-8.978458046913146973e-01 2.991016149520874023e+00 8.519771695137023926e-01
-1.013810396194458008e+00 2.973157167434692383e+00 8.258507251739501953e-01
-7.307366728782653809e-01 3.315647125244140625e+00 8.622750639915466309e-01
-7.908878922462463379e-01 3.045251607894897461e+00 7.652346491813659668e-01
-8.815855979919433594e-01 2.942442178726196289e+00 7.159305214881896973e-01
-1.026995062828063965e+00 3.020449638366699219e+00 7.131102681159973145e-01
-8.025106787681579590e-01 3.094443559646606445e+00 6.538856625556945801e-01
-9.061263203620910645e-01 3.032048940658569336e+00 6.162729263305664062e-01
-9.939243793487548828e-01 2.931578397750854492e+00 5.725969672203063965e-01
-7.839013338088989258e-01 3.027034759521484375e+00 5.210180878639221191e-01
-9.238904714584350586e-01 3.093458414077758789e+00 5.067205429077148438e-01
-9.960069060325622559e-01 2.944479465484619141e+00 4.584504067897796631e-01
-7.977395057678222656e-01 3.084907293319702148e+00 4.127080142498016357e-01
-9.204292297363281250e-01 3.091706275939941406e+00 3.875097036361694336e-01
-9.972253441810607910e-01 2.953174591064453125e+00 3.446708321571350098e-01
-7.978782653808593750e-01 3.089893579483032227e+00 2.966047227382659912e-01
-9.261608123779296875e-01 3.114933967590332031e+00 2.711719572544097900e-01
-1.028964042663574219e+00 3.052437305450439453e+00 2.382460385560989380e-01
-7.992118000984191895e-01 3.099526882171630859e+00 1.806397587060928345e-01
-9.269812703132629395e-01 3.121681928634643555e+00 1.529986858367919922e-01
-1.067692279815673828e+00 3.172812461853027344e+00 1.256778389215469360e-01
-4.656856358051300049e-01 2.123581647872924805e+00 6.452408432960510254e-02
-9.206320047378540039e-01 3.106259584426879883e+00 3.449403867125511169e-02
-1.095691323280334473e+00 3.259779930114746094e+00 4.201530013233423233e-03
-7.080791592597961426e-01 3.312147617340087891e+00 9.981300830841064453e-01
-7.850419878959655762e-01 3.096276760101318359e+00 9.050855040550231934e-01
-8.759443163871765137e-01 2.984435081481933594e+00 8.485555648803710938e-01
-9.918701648712158203e-01 2.968314409255981445e+00 8.227995038032531738e-01
-7.069309949874877930e-01 3.303956031799316406e+00 8.580904006958007812e-01
-7.791035175323486328e-01 3.077363729476928711e+00 7.720882296562194824e-01
-8.698115348815917969e-01 2.969292402267456055e+00 7.211512923240661621e-01
-1.002581357955932617e+00 3.009102821350097656e+00 7.089655995368957520e-01
-7.806270122528076172e-01 3.087911367416381836e+00 6.514809131622314453e-01
-8.886060714721679688e-01 3.041320323944091797e+00 6.170375347137451172e-01
-9.790179729461669922e-01 2.946953535079956055e+00 5.744159221649169922e-01
-7.655545473098754883e-01 3.032744169235229492e+00 5.211824774742126465e-01
-9.015692472457885742e-01 3.087689399719238281e+00 5.048598647117614746e-01
-9.822785854339599609e-01 2.963682174682617188e+00 4.604931473731994629e-01
-7.787958383560180664e-01 3.089744091033935547e+00 4.127080142498016357e-01
-8.992219567298889160e-01 3.089669466018676758e+00 3.865555524826049805e-01
-9.756519794464111328e-01 2.948858022689819336e+00 3.434618711471557617e-01
-7.825495004653930664e-01 3.109215021133422852e+00 2.979929149150848389e-01
-8.989642858505249023e-01 3.092807054519653320e+00 2.687604129314422607e-01
-1.010215282440185547e+00 3.058693408966064453e+00 2.382460385560989380e-01
-7.738513350486755371e-01 3.079196453094482422e+00 1.791748106479644775e-01
-9.061387181282043457e-01 3.121555328369140625e+00 1.527170985937118530e-01
-1.042884945869445801e+00 3.163170337677001953e+00 1.250400841236114502e-01
-4.445303976535797119e-01 2.088270664215087891e+00 6.336709856986999512e-02
-8.990507125854492188e-01 3.103205919265747070e+00 3.439822047948837280e-02
-6.822893023490905762e-01 3.290131568908691406e+00 9.902151823043823242e-01
-7.881790399551391602e-01 3.190703868865966797e+00 9.312566518783569336e-01
-8.634678721427917480e-01 3.010154962539672852e+00 8.543459177017211914e-01
-9.727355837821960449e-01 2.971587181091308594e+00 8.220367431640625000e-01
-6.807358264923095703e-01 3.279761314392089844e+00 8.507058024406433105e-01
-7.639296054840087891e-01 3.097180843353271484e+00 7.758694887161254883e-01
-8.582770824432373047e-01 2.997980833053588867e+00 7.268260717391967773e-01
-9.977249503135681152e-01 3.056946754455566406e+00 7.187820076942443848e-01
-6.721549630165100098e-01 3.235581159591674805e+00 7.096643447875976562e-01
-7.656480669975280762e-01 3.108814954757690430e+00 6.548876166343688965e-01
-8.726230859756469727e-01 3.056153774261474609e+00 6.189490556716918945e-01
-9.633516073226928711e-01 2.960385560989379883e+00 5.758710503578186035e-01
-7.521136403083801270e-01 3.058457374572753906e+00 5.247983336448669434e-01
-8.798958659172058105e-01 3.083663225173950195e+00 5.033093094825744629e-01
-9.698792695999145508e-01 2.987531661987304688e+00 4.632654488086700439e-01
-7.600593566894531250e-01 3.095427751541137695e+00 4.128364920616149902e-01
-8.745436668395996094e-01 3.075073957443237305e+00 3.840508759021759033e-01
-9.682641029357910156e-01 2.987882614135742188e+00 3.473086059093475342e-01
-8.791534304618835449e-01 3.095388889312744141e+00 2.685109674930572510e-01
-9.920423030853271484e-01 3.066731929779052734e+00 2.383935600519180298e-01
-8.853327035903930664e-01 3.121290445327758789e+00 1.524354964494705200e-01
-4.317086338996887207e-01 2.090958833694458008e+00 6.336709856986999512e-02
-8.794481158256530762e-01 3.106739521026611328e+00 3.437692672014236450e-02
-7.969358563423156738e-01 3.313346147537231445e+00 9.656062722206115723e-01
-8.488863706588745117e-01 3.029330968856811523e+00 8.582939505577087402e-01
-9.550744891166687012e-01 2.979341745376586914e+00 8.225452899932861328e-01
-6.537175178527832031e-01 3.249669551849365234e+00 8.418442606925964355e-01
-7.401463389396667480e-01 3.081968784332275391e+00 7.709065675735473633e-01
-8.406525254249572754e-01 3.006004571914672852e+00 7.275070548057556152e-01
-9.777607321739196777e-01 3.059292793273925781e+00 7.179094552993774414e-01
-6.528681516647338867e-01 3.242519855499267578e+00 7.102942466735839844e-01
-7.445023059844970703e-01 3.104879856109619141e+00 6.530840396881103516e-01
-8.522722721099853516e-01 3.055777788162231445e+00 6.178020834922790527e-01
-9.535279273986816406e-01 2.992474317550659180e+00 5.809640288352966309e-01
-7.335628271102905273e-01 3.063974142074584961e+00 5.249627232551574707e-01
-8.622844815254211426e-01 3.093762397766113281e+00 5.040845870971679688e-01
-9.671139717102050781e-01 3.042452812194824219e+00 4.708527922630310059e-01
-8.516728878021240234e-01 3.066032409667968750e+00 3.822618126869201660e-01
-9.556241035461425781e-01 3.011767864227294922e+00 3.493968844413757324e-01
-8.593447804450988770e-01 3.097844123840332031e+00 2.682614922523498535e-01
-9.683886766433715820e-01 3.057549715042114258e+00 2.372133880853652954e-01
-8.696309328079223633e-01 3.139178514480590820e+00 1.530456244945526123e-01
-9.889281392097473145e-01 3.128089189529418945e+00 1.231642886996269226e-01
-4.178901016712188721e-01 2.088667631149291992e+00 6.321876496076583862e-02
-8.619676828384399414e-01 3.117860078811645508e+00 3.444080427289009094e-02
-7.776868343353271484e-01 3.322857856750488281e+00 9.669693708419799805e-01
-8.277366757392883301e-01 3.025177240371704102e+00 8.556619286537170410e-01
-9.309840798377990723e-01 2.966690778732299805e+00 8.174600005149841309e-01
-6.285769343376159668e-01 3.226981878280639648e+00 8.349519968032836914e-01
-8.275793790817260742e-01 3.030835390090942383e+00 7.322738766670227051e-01
-9.580966234207153320e-01 3.062440395355224609e+00 7.172549962997436523e-01
-6.340827345848083496e-01 3.252222537994384766e+00 7.115539908409118652e-01
-7.109684944152832031e-01 3.047373771667480469e+00 6.400584578514099121e-01
-8.306695222854614258e-01 3.050531864166259766e+00 6.156994700431823730e-01
-9.386618733406066895e-01 3.009533166885375977e+00 5.831466913223266602e-01
-8.383567929267883301e-01 3.080883502960205078e+00 5.011385679244995117e-01
-9.769362807273864746e-01 3.139958858489990234e+00 4.850060641765594482e-01
-8.310250639915466309e-01 3.064492702484130859e+00 3.814269304275512695e-01
-9.450854659080505371e-01 3.043203830718994141e+00 3.523643910884857178e-01
-8.395391106605529785e-01 3.100172996520996094e+00 2.680120170116424561e-01
-9.493144154548645020e-01 3.062481403350830078e+00 2.371396273374557495e-01
-8.446161150932312012e-01 3.123241424560546875e+00 1.520131081342697144e-01
-9.649899005889892578e-01 3.118824005126953125e+00 1.225640401244163513e-01
-4.029755294322967529e-01 2.080398082733154297e+00 6.289244443178176880e-02
-8.482917547225952148e-01 3.143363714218139648e+00 3.466437757015228271e-02
-9.769799709320068359e-01 3.161483287811279297e+00 4.042705520987510681e-03
-7.570700645446777344e-01 3.326628923416137695e+00 9.666967988014221191e-01
-8.203592896461486816e-01 3.072142839431762695e+00 8.675059080123901367e-01
-9.107759594917297363e-01 2.965875625610351562e+00 8.156801462173461914e-01
-8.210036754608154297e-01 3.081027269363403320e+00 7.431694865226745605e-01
-9.392878413200378418e-01 3.068261384963989258e+00 7.172549962997436523e-01
-6.139343380928039551e-01 3.255091428756713867e+00 7.113440632820129395e-01
-8.142048716545104980e-01 3.064109086990356445e+00 6.174198389053344727e-01
-9.221871495246887207e-01 3.021819591522216797e+00 5.844199657440185547e-01
-8.179158568382263184e-01 3.080240488052368164e+00 5.002081990242004395e-01
-9.527537226676940918e-01 3.129805088043212891e+00 4.825256168842315674e-01
-8.132219314575195312e-01 3.073373556137084961e+00 3.819040060043334961e-01
-9.419986605644226074e-01 3.100300312042236328e+00 3.582994043827056885e-01
-8.177006840705871582e-01 3.094667911529541016e+00 2.670972943305969238e-01
-9.409248828887939453e-01 3.102605581283569336e+00 2.397949993610382080e-01
-8.216137290000915527e-01 3.113877534866333008e+00 1.513091325759887695e-01
-9.452559947967529297e-01 3.122773408889770508e+00 1.224890053272247314e-01
-3.902028501033782959e-01 2.082831382751464844e+00 6.289244443178176880e-02
-4.802149236202239990e-01 2.134192228317260742e+00 4.429483041167259216e-02
-8.172767162322998047e-01 3.104028224945068359e+00 3.417464718222618103e-02
-9.485922455787658691e-01 3.137744665145874023e+00 4.004831425845623016e-03
-7.333201169967651367e-01 3.316180706024169922e+00 9.623349308967590332e-01
-7.983322739601135254e-01 3.064981937408447266e+00 8.640843629837036133e-01
-8.939516544342041016e-01 2.976039409637451172e+00 8.169514536857604980e-01
-7.329364418983459473e-01 3.319941997528076172e+00 8.269166350364685059e-01
-8.013484477996826172e-01 3.083178997039794922e+00 7.424885034561157227e-01
-9.204436540603637695e-01 3.073966979980468750e+00 7.172549962997436523e-01
-5.932486057281494141e-01 3.254949569702148438e+00 7.105041742324829102e-01
-7.946497797966003418e-01 3.066196680068969727e+00 6.168463826179504395e-01
-9.067219495773315430e-01 3.037786006927490234e+00 5.864207744598388672e-01
-7.982574105262756348e-01 3.082332134246826172e+00 4.997430443763732910e-01
-9.250630140304565430e-01 3.107146978378295898e+00 4.781482815742492676e-01
-8.003026247024536133e-01 3.101378202438354492e+00 3.847664892673492432e-01
-9.161630272865295410e-01 3.083155393600463867e+00 3.556616008281707764e-01
-8.054106235504150391e-01 3.125682353973388672e+00 2.693425118923187256e-01
-9.190342426300048828e-01 3.098759412765502930e+00 2.390574067831039429e-01
-8.092125058174133301e-01 3.144979715347290039e+00 1.525762975215911865e-01
-9.252262711524963379e-01 3.125639915466308594e+00 1.223764568567276001e-01
-3.727868199348449707e-01 2.059613466262817383e+00 6.212111935019493103e-02
-4.626274704933166504e-01 2.116586923599243164e+00 4.386969283223152161e-02
-9.236515164375305176e-01 3.124326705932617188e+00 3.980397246778011322e-03
-7.075054049491882324e-01 3.295219421386718750e+00 9.549742937088012695e-01
-7.804606556892395020e-01 3.073562860488891602e+00 8.651371002197265625e-01
-8.778545856475830078e-01 2.988892078399658203e+00 8.189855813980102539e-01
-7.062388658523559570e-01 3.294923782348632812e+00 8.195904493331909180e-01
-7.795449495315551758e-01 3.076709270477294922e+00 7.397645711898803711e-01
-9.015648365020751953e-01 3.079556941986083984e+00 7.172549962997436523e-01
-7.753401398658752441e-01 3.069111585617065430e+00 6.164640784263610840e-01
-8.921971917152404785e-01 3.057451486587524414e+00 5.891491770744323730e-01
-7.720754742622375488e-01 3.058436393737792969e+00 4.950913786888122559e-01
-8.985159397125244141e-01 3.087117910385131836e+00 4.742087125778198242e-01
-7.798048257827758789e-01 3.100453376770019531e+00 3.840508759021759033e-01
-8.958415985107421875e-01 3.083946466445922852e+00 3.551120758056640625e-01
-7.867020964622497559e-01 3.132498502731323242e+00 2.695088386535644531e-01
-8.966709971427917480e-01 3.092846155166625977e+00 2.381722778081893921e-01
-3.418348133563995361e-01 1.955036282539367676e+00 1.307796239852905273e-01
-7.699763774871826172e-01 3.070436239242553711e+00 1.487278640270233154e-01
-9.082523584365844727e-01 3.138937711715698242e+00 1.226765885949134827e-01
-3.565305173397064209e-01 2.041184425354003906e+00 6.149812787771224976e-02
-4.454818069934844971e-01 2.099825143814086914e+00 4.346480593085289001e-02
-8.916934132575988770e-01 3.085743427276611328e+00 3.924197517335414886e-03
-6.825643181800842285e-01 3.276892662048339844e+00 9.484314918518066406e-01
-7.785007357597351074e-01 3.146658658981323242e+00 8.843506574630737305e-01
-8.584311604499816895e-01 2.990504026412963867e+00 8.179685473442077637e-01
-6.802718043327331543e-01 3.271606683731079102e+00 8.127368688583374023e-01
-7.657867670059204102e-01 3.102235794067382812e+00 7.447584271430969238e-01
-8.915107846260070801e-01 3.115993738174438477e+00 7.244537472724914551e-01
-7.574321031570434570e-01 3.077623605728149414e+00 6.172286272048950195e-01
-8.744989037513732910e-01 3.066650867462158203e+00 5.898767709732055664e-01
-7.596646547317504883e-01 3.089018106460571289e+00 4.992779195308685303e-01
-8.795567750930786133e-01 3.092572927474975586e+00 4.742087125778198242e-01
-7.567496299743652344e-01 3.088785886764526367e+00 3.820232450962066650e-01
-8.733737468719482422e-01 3.076954841613769531e+00 3.536832928657531738e-01
-8.741432428359985352e-01 3.085815906524658203e+00 2.372133880853652954e-01
-3.299983143806457520e-01 1.958081007003784180e+00 1.308453828096389771e-01
-8.848972320556640625e-01 3.130027294158935547e+00 1.221138462424278259e-01
-4.313802421092987061e-01 2.096643447875976562e+00 4.334333911538124084e-02
-8.749166131019592285e-01 3.098855733871459961e+00 3.933971282094717026e-03
-7.957817912101745605e-01 3.303317546844482422e+00 9.269890189170837402e-01
-8.489441275596618652e-01 3.027376174926757812e+00 8.266134858131408691e-01
-6.578811407089233398e-01 3.264288902282714844e+00 8.099008798599243164e-01
-7.471926212310791016e-01 3.108770132064819336e+00 7.452124357223510742e-01
-8.771029710769653320e-01 3.138323545455932617e+00 7.283803224563598633e-01
-6.534823775291442871e-01 3.248317241668701172e+00 6.777325272560119629e-01
-7.396775484085083008e-01 3.086986064910888672e+00 6.181844472885131836e-01
-8.538188338279724121e-01 3.065328121185302734e+00 5.886034965515136719e-01
-7.383961081504821777e-01 3.084013462066650391e+00 4.977273344993591309e-01
-8.621532320976257324e-01 3.103630542755126953e+00 4.750841557979583740e-01
-8.544774651527404785e-01 3.082255840301513672e+00 3.536832928657531738e-01
-8.573199510574340820e-01 3.098810911178588867e+00 2.378034740686416626e-01
-8.608879446983337402e-01 3.118059396743774414e+00 1.214385628700256348e-01
-4.175300002098083496e-01 2.094348430633544922e+00 4.324211925268173218e-02
-8.617334961891174316e-01 3.125374317169189453e+00 3.960849251598119736e-03
-7.796816229820251465e-01 3.325984477996826172e+00 9.319897890090942383e-01
-8.311187624931335449e-01 3.035326480865478516e+00 8.273763060569763184e-01
-6.339309215545654297e-01 3.248236894607543945e+00 8.049380183219909668e-01
-8.570592999458312988e-01 3.140821933746337891e+00 7.277259230613708496e-01
-6.318528056144714355e-01 3.243610858917236328e+00 6.759290099143981934e-01
-7.180479168891906738e-01 3.079995155334472656e+00 6.158906221389770508e-01
-8.344781994819641113e-01 3.068611621856689453e+00 5.882397294044494629e-01
-8.410220742225646973e-01 3.101223945617675781e+00 4.739168882369995117e-01
-8.363279700279235840e-01 3.090319156646728516e+00 3.540129959583282471e-01
-3.173690140247344971e-01 2.030588626861572266e+00 2.105759233236312866e-01
-8.434901833534240723e-01 3.123268604278564453e+00 2.392786890268325806e-01
-8.412196040153503418e-01 3.121353387832641602e+00 1.213635280728340149e-01
-4.048609137535095215e-01 2.097852468490600586e+00 4.326236248016357422e-02
-8.443595170974731445e-01 3.137362480163574219e+00 3.969401586800813675e-03
-7.560428380966186523e-01 3.316596984863281250e+00 9.280418753623962402e-01
-8.094824552536010742e-01 3.029156684875488281e+00 8.243250846862792969e-01
-6.058761477470397949e-01 3.209099292755126953e+00 7.943031787872314453e-01
-8.385248780250549316e-01 3.148850679397583008e+00 7.283803224563598633e-01
-6.233681440353393555e-01 3.308081388473510742e+00 6.885538101196289062e-01
-8.146250247955322266e-01 3.069872617721557617e+00 5.875121355056762695e-01
-8.232428431510925293e-01 3.111107826232910156e+00 4.746464490890502930e-01
-8.170966506004333496e-01 3.094431638717651367e+00 3.539031147956848145e-01
-3.059366941452026367e-01 2.039384603500366211e+00 2.112894207239151001e-01
-8.230397105216979980e-01 3.123563528060913086e+00 2.389098703861236572e-01
-8.210350275039672852e-01 3.122590303421020508e+00 1.212134733796119690e-01
-3.837269246578216553e-01 2.056070089340209961e+00 4.235136136412620544e-02
-4.663453102111816406e-01 2.079223155975341797e+00 2.268728055059909821e-02
-8.075703978538513184e-01 3.075746297836303711e+00 3.885101992636919022e-03
-7.319226861000061035e-01 3.304219007492065430e+00 9.233042001724243164e-01
-8.008825778961181641e-01 3.072437047958374023e+00 8.347499966621398926e-01
-8.167346715927124023e-01 3.144490718841552734e+00 7.261989116668701172e-01
-5.893684625625610352e-01 3.236662626266479492e+00 6.729230880737304688e-01
-7.935559749603271484e-01 3.066245555877685547e+00 5.858750939369201660e-01
-8.031491041183471680e-01 3.112268924713134766e+00 4.740628004074096680e-01
-7.995812296867370605e-01 3.105162143707275391e+00 3.545625209808349609e-01
-2.901620268821716309e-01 2.018575906753540039e+00 2.089451551437377930e-01
-7.991430163383483887e-01 3.110202789306640625e+00 2.375084459781646729e-01
-3.548012971878051758e-01 1.964034438133239746e+00 1.126322224736213684e-01
-8.001224994659423828e-01 3.120793581008911133e+00 1.209508627653121948e-01
-3.680882453918457031e-01 2.041659116744995117e+00 4.200720787048339844e-02
-4.601769745349884033e-01 2.112333297729492188e+00 2.301731891930103302e-02
-7.075774073600769043e-01 3.289784431457519531e+00 9.180402159690856934e-01
-7.829681634902954102e-01 3.081042766571044922e+00 8.357670307159423828e-01
-7.090804576873779297e-01 3.305190086364746094e+00 7.878867387771606445e-01
-7.897598147392272949e-01 3.119168996810913086e+00 7.192183136940002441e-01
-5.616962909698486328e-01 3.195831537246704102e+00 6.637049913406372070e-01
-7.740053534507751465e-01 3.068196535110473633e+00 5.853294134140014648e-01
-7.823482751846313477e-01 3.110422372817993164e+00 4.730414152145385742e-01
-7.780938744544982910e-01 3.100369453430175781e+00 3.534634709358215332e-01
-2.777708172798156738e-01 2.020318269729614258e+00 2.089451551437377930e-01
-7.771371006965637207e-01 3.103438854217529297e+00 2.366233170032501221e-01
-3.418862521648406982e-01 1.961256623268127441e+00 1.123505011200904846e-01
-3.440734148025512695e-01 1.977884054183959961e+00 4.065082967281341553e-02
-4.480346441268920898e-01 2.119030475616455078e+00 2.305990271270275116e-02
-6.858018040657043457e-01 3.286509037017822266e+00 9.159346818923950195e-01
-7.752059102058410645e-01 3.130850791931152344e+00 8.479717373847961426e-01
-6.816430091857910156e-01 3.275153875350952148e+00 7.797150611877441406e-01
-7.734108567237854004e-01 3.135326385498046875e+00 7.218360304832458496e-01
-7.591540217399597168e-01 3.089121341705322266e+00 5.884215831756591797e-01
-7.632483243942260742e-01 3.115164279937744141e+00 4.730414152145385742e-01
-2.654270529747009277e-01 2.016968727111816406e+00 2.833763360977172852e-01
-2.640746533870697021e-01 2.012121438980102539e+00 2.079259157180786133e-01
-4.255845248699188232e-01 2.075700044631958008e+00 2.255952730774879456e-02
-6.595025658607482910e-01 3.260396242141723633e+00 9.075122475624084473e-01
-7.587009072303771973e-01 3.146830558776855469e+00 8.510228991508483887e-01
-6.599934697151184082e-01 3.271637439727783203e+00 7.778990864753723145e-01
-7.509675025939941406e-01 3.126727581024169922e+00 7.187820076942443848e-01
-7.383548021316528320e-01 3.086070775985717773e+00 5.869664549827575684e-01
-7.448082566261291504e-01 3.122675657272338867e+00 4.734791517257690430e-01
-2.529229819774627686e-01 2.017576694488525391e+00 2.832383811473846436e-01
-2.512299418449401855e-01 2.009755134582519531e+00 2.075181901454925537e-01
-4.153730273246765137e-01 2.091022491455078125e+00 2.269792929291725159e-02
-2.500900924205780029e-01 2.099266290664672852e+00 6.230185627937316895e-01
-7.742815017700195312e-01 3.300194263458251953e+00 8.911966681480407715e-01
-6.354252696037292480e-01 3.252685546875000000e+00 7.724513411521911621e-01
-6.315734982490539551e-01 3.245006084442138672e+00 6.437987685203552246e-01
-7.160611152648925781e-01 3.076177358627319336e+00 5.842380523681640625e-01
-2.378438264131546021e-01 1.996470570564270020e+00 2.800652384757995605e-01
-2.380722463130950928e-01 2.004343986511230469e+00 2.068047225475311279e-01
-2.891871631145477295e-01 1.856513977050781250e+00 1.746312379837036133e-01
-4.020743966102600098e-01 2.085247516632080078e+00 9.977767616510391235e-02
-3.987587690353393555e-01 2.073892354965209961e+00 2.248500101268291473e-02
-2.289174497127532959e-01 2.027368068695068359e+00 6.012524962425231934e-01
-7.561685442924499512e-01 3.314312219619750977e+00 8.937392830848693848e-01
-6.116572618484497070e-01 3.236427307128906250e+00 7.676845192909240723e-01
-6.112873554229736328e-01 3.246890783309936523e+00 6.434164643287658691e-01
-2.249224632978439331e-01 1.991987228393554688e+00 2.792374491691589355e-01
-2.256580740213394165e-01 2.004778385162353516e+00 2.067028135061264038e-01
-3.014916181564331055e-01 2.016800642013549805e+00 1.895308792591094971e-01
-3.863423764705657959e-01 2.071963787078857422e+00 9.902676194906234741e-02
-3.679311275482177734e-01 1.978973627090454102e+00 2.143101766705513000e-02
-2.160663604736328125e-01 2.024919509887695312e+00 6.001218557357788086e-01
-7.320500612258911133e-01 3.301893949508666992e+00 8.891625404357910156e-01
-2.175464183092117310e-01 2.035423040390014648e+00 5.198757648468017578e-01
-5.881127715110778809e-01 3.220000267028808594e+00 7.629176974296569824e-01
-5.894207954406738281e-01 3.239957809448242188e+00 6.413137912750244141e-01
-2.124854475259780884e-01 1.991360068321228027e+00 2.789615094661712646e-01
-2.127215117216110229e-01 2.000190019607543945e+00 2.060912549495697021e-01
-2.855818867683410645e-01 1.993971347808837891e+00 1.872172653675079346e-01
-3.683096170425415039e-01 2.044802904129028320e+00 9.761879593133926392e-02
-9.789279848337173462e-02 6.869174838066101074e-01 1.404963899403810501e-02
-3.220237791538238525e-01 1.793211936950683594e+00 1.939757354557514191e-02
-4.475049078464508057e-01 2.060974121093750000e+00 2.576629165560007095e-03
-2.025824785232543945e-01 2.015708446502685547e+00 5.970123410224914551e-01
-7.117761969566345215e-01 3.306323528289794922e+00 8.891625404357910156e-01
-2.059270143508911133e-01 2.045398712158203125e+00 5.220911502838134766e-01
-5.605326294898986816e-01 3.192274332046508789e+00 6.311827301979064941e-01
-1.962026655673980713e-01 1.948810219764709473e+00 3.460699617862701416e-01
-1.997674852609634399e-01 1.987699031829833984e+00 2.782717049121856689e-01
-2.004445791244506836e-01 2.001457691192626953e+00 2.060912549495697021e-01
-2.717203497886657715e-01 1.983848214149475098e+00 1.861067414283752441e-01
-3.407047688961029053e-01 1.960419416427612305e+00 9.348876774311065674e-02
-3.340592086315155029e-01 1.928164958953857422e+00 2.083482407033443451e-02
-4.387681186199188232e-01 2.082272768020629883e+00 2.599841915071010590e-03
-1.893098950386047363e-01 2.007363796234130859e+00 5.941855907440185547e-01
-6.893004775047302246e-01 3.300214767456054688e+00 8.863655924797058105e-01
-1.915494054555892944e-01 2.027325153350830078e+00 5.171681046485900879e-01
-6.759628653526306152e-01 3.250528097152709961e+00 7.421233654022216797e-01
-1.864644140005111694e-01 1.973506569862365723e+00 3.502457439899444580e-01
-1.872884482145309448e-01 1.985929250717163086e+00 2.778578102588653564e-01
-2.631876170635223389e-01 2.007909059524536133e+00 2.622937560081481934e-01
-1.886253803968429565e-01 2.007602214813232422e+00 2.066008895635604858e-01
-2.618656456470489502e-01 2.003249645233154297e+00 1.877725422382354736e-01
-4.244071245193481445e-01 2.073520898818969727e+00 7.945840805768966675e-02
-4.255829453468322754e-01 2.082966327667236328e+00 2.597398590296506882e-03
-1.761473864316940308e-01 1.998932480812072754e+00 5.913588404655456543e-01
-6.640478968620300293e-01 3.279736757278442383e+00 8.797547817230224609e-01
-1.768046617507934570e-01 2.002394437789916992e+00 5.105219483375549316e-01
-6.560052633285522461e-01 3.254614353179931641e+00 7.421233654022216797e-01
-1.730525046586990356e-01 1.959899663925170898e+00 3.476358950138092041e-01
-1.743170171976089478e-01 1.978161454200744629e+00 2.766161561012268066e-01
-2.503709793090820312e-01 2.005549907684326172e+00 2.617799639701843262e-01
-1.757815480232238770e-01 2.002775669097900391e+00 2.059893459081649780e-01
-4.147861897945404053e-01 2.091769456863403320e+00 8.005866408348083496e-02
-4.143473803997039795e-01 2.093386173248291016e+00 2.607172355055809021e-03
-1.625471413135528564e-01 1.983723521232604980e+00 5.865533351898193359e-01
-6.416780352592468262e-01 3.272360801696777344e+00 8.767036199569702148e-01
-1.638802886009216309e-01 1.995713710784912109e+00 5.085526704788208008e-01
-6.337794661521911621e-01 3.247084140777587891e+00 7.395055890083312988e-01
-1.661464422941207886e-01 2.018990516662597656e+00 4.350368380546569824e-01
-6.366686224937438965e-01 3.277093648910522461e+00 6.175243854522705078e-01
-1.611847132444381714e-01 1.962887287139892578e+00 3.479838669300079346e-01
-1.617715358734130859e-01 1.974257946014404297e+00 2.759263217449188232e-01
-2.380604445934295654e-01 2.007048368453979492e+00 2.617799639701843262e-01
-1.628422737121582031e-01 1.995884537696838379e+00 2.051739245653152466e-01
-4.053339064121246338e-01 2.111940145492553711e+00 8.073394745588302612e-02
-3.962268531322479248e-01 2.068389415740966797e+00 2.572963945567607880e-03
-1.490677595138549805e-01 1.967467069625854492e+00 5.814651846885681152e-01
-2.361949980258941650e-01 2.075371503829956055e+00 5.918495655059814453e-01
-1.511913836002349854e-01 1.990883231163024902e+00 5.070758461952209473e-01
-6.143870353698730469e-01 3.253788709640502930e+00 7.401600480079650879e-01
-1.513804346323013306e-01 1.988775610923767090e+00 4.283181726932525635e-01
-6.141878962516784668e-01 3.268375396728515625e+00 6.151597499847412109e-01
-1.486156582832336426e-01 1.956966161727905273e+00 3.467659354209899902e-01
-1.502532958984375000e-01 1.983114480972290039e+00 2.770300507545471191e-01
-2.254086434841156006e-01 2.005514621734619141e+00 2.613945901393890381e-01
-1.636096388101577759e-01 2.169449806213378906e+00 2.229087948799133301e-01
-3.872624635696411133e-01 2.086876869201660156e+00 7.968350499868392944e-02
-3.791572749614715576e-01 2.047182798385620117e+00 2.543642185628414154e-03
-1.361270099878311157e-01 1.955904960632324219e+00 5.777903795242309570e-01
-2.225299775600433350e-01 2.068172454833984375e+00 5.893960595130920410e-01
-1.379607617855072021e-01 1.977270126342773438e+00 5.033835172653198242e-01
-5.935347080230712891e-01 3.252697229385375977e+00 7.390693426132202148e-01
-1.381513327360153198e-01 1.975036978721618652e+00 4.251687526702880859e-01
-5.863923430442810059e-01 3.229512214660644531e+00 6.071565151214599609e-01
-1.370849311351776123e-01 1.964717507362365723e+00 3.479838669300079346e-01
-2.171467840671539307e-01 2.038205862045288086e+00 3.415380418300628662e-01
-1.379447728395462036e-01 1.982022881507873535e+00 2.767541110515594482e-01
-2.127846330404281616e-01 2.003901481628417969e+00 2.610092461109161377e-01
-1.529065072536468506e-01 2.208124876022338867e+00 2.267819344997406006e-01
-3.682799935340881348e-01 2.054786920547485352e+00 7.837045192718505859e-02
-3.658845722675323486e-01 2.045533180236816406e+00 2.538755303248763084e-03
-1.240625083446502686e-01 1.955745935440063477e+00 5.775076746940612793e-01
-2.040123194456100464e-01 2.012065887451171875e+00 5.730390548706054688e-01
-1.254566907882690430e-01 1.972275733947753906e+00 5.019065737724304199e-01
-2.102121710777282715e-01 2.080447435379028320e+00 5.085809230804443359e-01
-5.671321749687194824e-01 3.219755172729492188e+00 7.307798862457275391e-01
-1.255322545766830444e-01 1.968041777610778809e+00 4.234890937805175781e-01
-1.247770115733146667e-01 1.961590647697448730e+00 3.472878932952880859e-01
-1.996141523122787476e-01 1.989444971084594727e+00 3.331557512283325195e-01
-1.260942220687866211e-01 1.987774372100830078e+00 2.774439156055450439e-01
-2.002876102924346924e-01 2.003196001052856445e+00 2.607523798942565918e-01
-2.762717306613922119e-01 2.019536256790161133e+00 2.448622584342956543e-01
-1.387911438941955566e-01 2.200086116790771484e+00 2.258646041154861450e-01
-3.224651813507080078e-01 1.864994287490844727e+00 7.105487585067749023e-02
-1.113469004631042480e-01 1.944021224975585938e+00 5.738329291343688965e-01
-1.908420622348785400e-01 2.004659891128540039e+00 5.705855488777160645e-01
-1.133526712656021118e-01 1.973008394241333008e+00 5.019065737724304199e-01
-1.941398829221725464e-01 2.046874046325683594e+00 5.000730752944946289e-01
-1.132854595780372620e-01 1.965846657752990723e+00 4.228591918945312500e-01
-1.131904348731040955e-01 1.970184564590454102e+00 3.486798703670501709e-01
-1.875882744789123535e-01 1.992596268653869629e+00 3.334844410419464111e-01
-1.137818172574043274e-01 1.986532926559448242e+00 2.771679759025573730e-01
-1.877146363258361816e-01 2.001425027847290039e+00 2.603670060634613037e-01
-2.643890082836151123e-01 2.025131225585937500e+00 2.453393340110778809e-01
-1.248367577791213989e-01 2.192950963973999023e+00 2.250492125749588013e-01
-1.000531539320945740e-01 1.957121133804321289e+00 5.775076746940612793e-01
-1.765761524438858032e-01 1.983751416206359863e+00 5.643153786659240723e-01
-1.012443825602531433e-01 1.973666787147521973e+00 5.019065737724304199e-01
-1.784876286983489990e-01 2.013183116912841797e+00 4.915652275085449219e-01
-1.010200753808021545e-01 1.962598919868469238e+00 4.220193326473236084e-01
-1.001913920044898987e-01 1.953139662742614746e+00 3.455479741096496582e-01
-1.742348670959472656e-01 1.980935931205749512e+00 3.313477635383605957e-01
-1.018939465284347534e-01 1.993128538131713867e+00 2.779957652091979980e-01
-1.753440350294113159e-01 2.001550912857055664e+00 2.602385580539703369e-01
-2.515906095504760742e-01 2.023759603500366211e+00 2.449815124273300171e-01
-1.105211824178695679e-01 2.176785945892333984e+00 2.233165055513381958e-01
-8.795642107725143433e-02 1.955781817436218262e+00 5.769423842430114746e-01
-1.634477078914642334e-01 1.973291397094726562e+00 5.610439777374267578e-01
-8.860772848129272461e-02 1.962632060050964355e+00 4.989527761936187744e-01
-1.658920049667358398e-01 2.011335372924804688e+00 4.908562302589416504e-01
-8.884309977293014526e-02 1.960251927375793457e+00 4.213894903659820557e-01
-1.619060486555099487e-01 1.971408128738403320e+00 4.045954942703247070e-01
-8.816085755825042725e-02 1.952733993530273438e+00 3.453740179538726807e-01
-1.616748273372650146e-01 1.977052211761474609e+00 3.305259943008422852e-01
-9.108635038137435913e-02 2.025378227233886719e+00 2.824105918407440186e-01
-1.628179997205734253e-01 1.999623894691467285e+00 2.598531842231750488e-01
-2.390518784523010254e-01 2.024279356002807617e+00 2.448622584342956543e-01
-9.680781513452529907e-02 2.169472455978393555e+00 2.225010991096496582e-01
-5.862992629408836365e-02 7.294977903366088867e-01 1.481892820447683334e-02
-7.565659284591674805e-02 1.948616623878479004e+00 5.746809244155883789e-01
-1.511161327362060547e-01 1.971379160881042480e+00 5.602261424064636230e-01
-7.656358182430267334e-02 1.963138818740844727e+00 4.989527761936187744e-01
-1.518472135066986084e-01 1.990031599998474121e+00 4.854206442832946777e-01
-7.689008861780166626e-02 1.962713956832885742e+00 4.218093752861022949e-01
-1.492130905389785767e-01 1.964549422264099121e+00 4.029923677444458008e-01
-7.621581852436065674e-02 1.954222083091735840e+00 3.455479741096496582e-01
-1.488715559244155884e-01 1.969154596328735352e+00 3.290467560291290283e-01
-2.292467206716537476e-01 2.033069133758544922e+00 3.211194276809692383e-01
-8.415199816226959229e-02 2.167424917221069336e+00 3.021393120288848877e-01
-1.509175598621368408e-01 2.005529880523681641e+00 2.604954540729522705e-01
-2.259643077850341797e-01 2.019787788391113281e+00 2.441466301679611206e-01
-2.732633948326110840e-01 1.836463928222656250e+00 2.053077518939971924e-01
-8.299714326858520508e-02 2.157102823257446289e+00 2.211760729551315308e-01
-6.363601982593536377e-02 1.947126984596252441e+00 5.741156339645385742e-01
-1.388818472623825073e-01 1.970349907875061035e+00 5.596809387207031250e-01
-2.252283096313476562e-01 2.086189985275268555e+00 5.724591612815856934e-01
-6.454837322235107422e-02 1.964540243148803711e+00 4.991989135742187500e-01
-1.392258703708648682e-01 1.985110044479370117e+00 4.840026497840881348e-01
-6.468427181243896484e-02 1.958263039588928223e+00 4.207595884799957275e-01
-1.371560394763946533e-01 1.965427994728088379e+00 4.029923677444458008e-01
-6.438519805669784546e-02 1.959573984146118164e+00 3.464179337024688721e-01
