-1.975062489509582520e+00 -5.244144439697265625e+00 9.337235689163208008e-01
-1.752597212791442871e+00 -5.229618072509765625e+00 8.656734228134155273e-01
-1.550539970397949219e+00 -5.245459079742431641e+00 8.067384362220764160e-01
-2.202710151672363281e+00 -5.256082534790039062e+00 7.938400506973266602e-01
-1.973551630973815918e+00 -5.234592437744140625e+00 7.245832681655883789e-01
-1.740670323371887207e+00 -5.179024219512939453e+00 6.563453078269958496e-01
-1.536586165428161621e+00 -5.188259124755859375e+00 5.983380079269409180e-01
-2.354311227798461914e+00 -5.612335205078125000e+00 6.235738992691040039e-01
-1.989308476448059082e+00 -5.270811080932617188e+00 5.236160755157470703e-01
-1.751787424087524414e+00 -5.206082344055175781e+00 4.583562612533569336e-01
-1.544182419776916504e+00 -5.203899383544921875e+00 4.014777839183807373e-01
-2.218611478805541992e+00 -5.283675670623779297e+00 3.776105642318725586e-01
-1.979615092277526855e+00 -5.239590644836425781e+00 3.160914182662963867e-01
-1.754252433776855469e+00 -5.207393646240234375e+00 2.581735551357269287e-01
-1.747390627861022949e+00 -5.877425670623779297e+00 2.301967889070510864e-01
-2.192396402359008789e+00 -5.218691825866699219e+00 1.679999381303787231e-01
-2.000813245773315430e+00 -5.290111541748046875e+00 1.145227774977684021e-01
-1.764892101287841797e+00 -5.229924201965332031e+00 5.876762047410011292e-02
-2.072219848632812500e+00 -6.961106300354003906e+00 8.873427286744117737e-03
-1.711792945861816406e+00 -5.020010471343994141e+00 1.236194491386413574e+00
-2.008263587951660156e+00 -5.240160942077636719e+00 1.147856831550598145e+00
-1.785617470741271973e+00 -5.224565505981445312e+00 1.075228095054626465e+00
-1.585109353065490723e+00 -5.257077693939208984e+00 1.015686631202697754e+00
-2.254753351211547852e+00 -5.291552543640136719e+00 1.016286849975585938e+00
-2.013562679290771484e+00 -5.248504161834716797e+00 9.366820454597473145e-01
-1.793602943420410156e+00 -5.244938850402832031e+00 8.700149655342102051e-01
-1.586703777313232422e+00 -5.249104022979736328e+00 8.087812066078186035e-01
-2.241910934448242188e+00 -5.258868217468261719e+00 7.963233590126037598e-01
-2.000300168991088867e+00 -5.208497524261474609e+00 7.226565480232238770e-01
-1.857122898101806641e+00 -5.415247440338134766e+00 6.877134442329406738e-01
-1.558884620666503906e+00 -5.147341251373291016e+00 5.947110652923583984e-01
-2.394169807434082031e+00 -5.610593318939208984e+00 6.250008344650268555e-01
-2.006605386734008789e+00 -5.219470500946044922e+00 5.197291970252990723e-01
-1.793082952499389648e+00 -5.222569465637207031e+00 4.607678055763244629e-01
-1.697989344596862793e+00 -5.596092224121093750e+00 4.325308799743652344e-01
-2.230216026306152344e+00 -5.221328258514404297e+00 3.741257190704345703e-01
-2.015313386917114258e+00 -5.236663818359375000e+00 3.166548609733581543e-01
-1.804679155349731445e+00 -5.250376701354980469e+00 2.608486711978912354e-01
-1.611647486686706543e+00 -5.301541805267333984e+00 2.080249637365341187e-01
-2.229089975357055664e+00 -5.216171264648437500e+00 1.683559417724609375e-01
-2.026765823364257812e+00 -5.260942459106445312e+00 1.141583845019340515e-01
-1.787834048271179199e+00 -5.192523002624511719e+00 5.846951901912689209e-02
-2.117222785949707031e+00 -6.955913543701171875e+00 8.883200585842132568e-03
-1.637509584426879883e+00 -5.345831394195556641e+00 1.469902396202087402e+00
-1.745762705802917480e+00 -5.018610954284667969e+00 1.238464474678039551e+00
-1.639887213706970215e+00 -5.336957454681396484e+00 1.247997522354125977e+00
-2.067451000213623047e+00 -5.297102451324462891e+00 1.163086891174316406e+00
-1.824750065803527832e+00 -5.233901500701904297e+00 1.079433321952819824e+00
-1.619943141937255859e+00 -5.255710124969482422e+00 1.017323732376098633e+00
-2.302059173583984375e+00 -5.311953067779541016e+00 1.022898554801940918e+00
-2.050036430358886719e+00 -5.247076034545898438e+00 9.386543631553649902e-01
-1.826727747917175293e+00 -5.236633300781250000e+00 8.704801797866821289e-01
-1.616545319557189941e+00 -5.231708049774169922e+00 8.076139092445373535e-01
-2.280046224594116211e+00 -5.258643150329589844e+00 7.983928322792053223e-01
-2.044141530990600586e+00 -5.226604461669921875e+00 7.268953919410705566e-01
-1.894577145576477051e+00 -5.415933609008789062e+00 6.892639398574829102e-01
-1.601020097732543945e+00 -5.171860694885253906e+00 5.986677408218383789e-01
-2.422609806060791016e+00 -5.582108497619628906e+00 6.234719157218933105e-01
-2.086872339248657227e+00 -5.330375194549560547e+00 5.320376157760620117e-01
-1.830034971237182617e+00 -5.225576877593994141e+00 4.620151519775390625e-01
-1.729340195655822754e+00 -5.576042652130126953e+00 4.317932724952697754e-01
-2.278909921646118164e+00 -5.245984554290771484e+00 3.768872916698455811e-01
-2.044492721557617188e+00 -5.216763019561767578e+00 3.162041306495666504e-01
-1.818353533744812012e+00 -5.186417102813720703e+00 2.582204937934875488e-01
-1.604118108749389648e+00 -5.162723541259765625e+00 2.029603421688079834e-01
-2.263842821121215820e+00 -5.208812713623046875e+00 1.685636043548583984e-01
-2.064120054244995117e+00 -5.261437416076660156e+00 1.144418045878410339e-01
-1.838215589523315430e+00 -5.234289169311523438e+00 5.906571820378303528e-02
-1.673458456993103027e+00 -5.345835685729980469e+00 1.472699284553527832e+00
-1.884625554084777832e+00 -5.312531948089599609e+00 1.313825488090515137e+00
-1.652722716331481934e+00 -5.263480663299560547e+00 1.233163833618164062e+00
-2.112215757369995117e+00 -5.315272808074951172e+00 1.169900178909301758e+00
-1.860447406768798828e+00 -5.232779979705810547e+00 1.081536054611206055e+00
-1.655705928802490234e+00 -5.256926536560058594e+00 1.019506454467773438e+00
-2.339374542236328125e+00 -5.308541297912597656e+00 1.024986505508422852e+00
-2.086203813552856445e+00 -5.244480133056640625e+00 9.404622912406921387e-01
-1.862135648727416992e+00 -5.234633922576904297e+00 8.720306754112243652e-01
-1.647126793861389160e+00 -5.216973781585693359e+00 8.068843483924865723e-01
-2.326254606246948242e+00 -5.276273727416992188e+00 8.032215833663940430e-01
-2.068101406097412109e+00 -5.193693161010742188e+00 7.240694761276245117e-01
-1.929440975189208984e+00 -5.408882617950439453e+00 6.898603439331054688e-01
-1.635421752929687500e+00 -5.170468807220458984e+00 5.996569395065307617e-01
-2.297766923904418945e+00 -5.206735134124755859e+00 5.831098556518554688e-01
-2.081934213638305664e+00 -5.223126888275146484e+00 5.225980877876281738e-01
-1.855696320533752441e+00 -5.196418285369873047e+00 4.604351818561553955e-01
-1.640008807182312012e+00 -5.175545215606689453e+00 4.015515148639678955e-01
-2.624330520629882812e+00 -5.941112041473388672e+00 4.279761612415313721e-01
-2.101623773574829102e+00 -5.267177581787109375e+00 3.200355172157287598e-01
-1.877716422080993652e+00 -5.252290725708007812e+00 2.620688974857330322e-01
-1.633044362068176270e+00 -5.144211292266845703e+00 2.026226967573165894e-01
-2.093768835067749023e+00 -5.242174148559570312e+00 1.143000945448875427e-01
-1.865915536880493164e+00 -5.210673332214355469e+00 5.892731621861457825e-02
-1.701515078544616699e+00 -5.320728302001953125e+00 1.468631148338317871e+00
-1.919837117195129395e+00 -5.308195114135742188e+00 1.315641522407531738e+00
-1.718669533729553223e+00 -5.358249664306640625e+00 1.257813930511474609e+00
-2.146259546279907227e+00 -5.305845737457275391e+00 1.170701861381530762e+00
-1.856061100959777832e+00 -5.120679378509521484e+00 1.060700535774230957e+00
-1.692748904228210449e+00 -5.261645317077636719e+00 1.022416591644287109e+00
-2.368682146072387695e+00 -5.286898136138916016e+00 1.023594617843627930e+00
-2.128339767456054688e+00 -5.256266593933105469e+00 9.448999762535095215e-01
-1.899945616722106934e+00 -5.238897800445556641e+00 8.746666312217712402e-01
-1.680624723434448242e+00 -5.211476802825927734e+00 8.076139092445373535e-01
-2.377220869064331055e+00 -5.303475379943847656e+00 8.095678687095642090e-01
-2.118184328079223633e+00 -5.225941658020019531e+00 7.303634881973266602e-01
-1.994488477706909180e+00 -5.484651565551757812e+00 7.010717391967773438e-01
-1.680866360664367676e+00 -5.202898025512695312e+00 6.046028137207031250e-01
-2.334151029586791992e+00 -5.202522754669189453e+00 5.842310190200805664e-01
-2.121056318283081055e+00 -5.227784633636474609e+00 5.243564248085021973e-01
-1.906977176666259766e+00 -5.238309860229492188e+00 4.651750922203063965e-01
-1.677876114845275879e+00 -5.184360980987548828e+00 4.030267298221588135e-01
-2.446126699447631836e+00 -5.447009563446044922e+00 3.934566378593444824e-01
-2.130146026611328125e+00 -5.244932651519775391e+00 3.194720745086669922e-01
-1.909566521644592285e+00 -5.239731788635253906e+00 2.620219886302947998e-01
-1.677830576896667480e+00 -5.174969673156738281e+00 2.042358815670013428e-01
-2.127400875091552734e+00 -5.232932567596435547e+00 1.143810674548149109e-01
-1.900252699851989746e+00 -5.205701351165771484e+00 5.900183692574501038e-02
-1.713546037673950195e+00 -5.278846263885498047e+00 6.780602503567934036e-03
-1.745238900184631348e+00 -5.344203948974609375e+00 1.478038787841796875e+00
-1.953382015228271484e+00 -5.299056529998779297e+00 1.316322445869445801e+00
-1.643070340156555176e+00 -5.016508102416992188e+00 1.179936885833740234e+00
-2.188472032546997070e+00 -5.316131114959716797e+00 1.175912141799926758e+00
-1.945610284805297852e+00 -5.266641139984130859e+00 1.093387365341186523e+00
-1.724695086479187012e+00 -5.250225543975830078e+00 1.022234797477722168e+00
-2.400260925292968750e+00 -5.270472049713134766e+00 1.023246526718139648e+00
-2.173329353332519531e+00 -5.274116516113281250e+00 9.504882097244262695e-01
-1.933082580566406250e+00 -5.229920864105224609e+00 8.751317858695983887e-01
-1.723399400711059570e+00 -5.233954906463623047e+00 8.127207756042480469e-01
-2.429018259048461914e+00 -5.331150054931640625e+00 8.160521388053894043e-01
-2.155126333236694336e+00 -5.224764347076416016e+00 7.320333719253540039e-01
-2.073648452758789062e+00 -5.595199584960937500e+00 7.168154120445251465e-01
-1.835744023323059082e+00 -5.565333843231201172e+00 6.480163335800170898e-01
-2.376761436462402344e+00 -5.211635589599609375e+00 5.868810415267944336e-01
-2.304334163665771484e+00 -5.580968379974365234e+00 5.611891150474548340e-01
-1.939776182174682617e+00 -5.228378772735595703e+00 4.653413891792297363e-01
-1.703397274017333984e+00 -5.155029773712158203e+00 4.015515148639678955e-01
-2.428122758865356445e+00 -5.319338798522949219e+00 3.853034675121307373e-01
-2.181737422943115234e+00 -5.278821468353271484e+00 3.223456442356109619e-01
-1.953505635261535645e+00 -5.259754180908203125e+00 2.636176645755767822e-01
-1.705469608306884766e+00 -5.152244567871093750e+00 2.037481665611267090e-01
-2.177433252334594727e+00 -5.263202190399169922e+00 1.153325662016868591e-01
-1.973995208740234375e+00 -5.306406974792480469e+00 6.027939543128013611e-02
-1.746533274650573730e+00 -5.270131111145019531e+00 6.783045828342437744e-03
-1.715600848197937012e+00 -5.146225929260253906e+00 1.426168918609619141e+00
-1.983804941177368164e+00 -5.281500816345214844e+00 1.314960479736328125e+00
-1.670725584030151367e+00 -4.997076034545898438e+00 1.177755355834960938e+00
-2.231647968292236328e+00 -5.327905178070068359e+00 1.181523084640502930e+00
-1.976505994796752930e+00 -5.250929355621337891e+00 1.092622756958007812e+00
-1.757189989089965820e+00 -5.240476131439208984e+00 1.022416591644287109e+00
-2.485085964202880859e+00 -5.369140625000000000e+00 1.045343637466430664e+00
-2.215947628021240234e+00 -5.285243511199951172e+00 9.549258947372436523e-01
-1.969314575195312500e+00 -5.229055404663085938e+00 8.769924640655517578e-01
-1.754536390304565430e+00 -5.220468521118164062e+00 8.122830390930175781e-01
-2.476249933242797852e+00 -5.347601890563964844e+00 8.208808302879333496e-01
-2.200576305389404297e+00 -5.243447780609130859e+00 7.365290522575378418e-01
-2.109344005584716797e+00 -5.586086273193359375e+00 7.172925472259521484e-01
-1.881591796875000000e+00 -5.588818550109863281e+00 6.520829200744628906e-01
-2.405348062515258789e+00 -5.189733505249023438e+00 5.860656499862670898e-01
-2.349718809127807617e+00 -5.593346118927001953e+00 5.638728737831115723e-01
-1.991200327873229980e+00 -5.267647266387939453e+00 4.699150025844573975e-01
-1.752524256706237793e+00 -5.196455001831054688e+00 4.056083261966705322e-01
-2.448538303375244141e+00 -5.278090000152587891e+00 3.833966851234436035e-01
-2.214860677719116211e+00 -5.267176151275634766e+00 3.224583268165588379e-01
-1.981499910354614258e+00 -5.236457824707031250e+00 2.630544900894165039e-01
-1.761678814888000488e+00 -5.214581012725830078e+00 2.066368907690048218e-01
-2.192232608795166016e+00 -5.208275318145751953e+00 1.144215613603591919e-01
-2.007226228713989258e+00 -5.296064853668212891e+00 6.030068546533584595e-02
-1.770827531814575195e+00 -5.235633373260498047e+00 6.752503104507923126e-03
-1.696943879127502441e+00 -4.973799705505371094e+00 1.174701452255249023e+00
-2.280426979064941406e+00 -5.351966381072998047e+00 1.189939618110656738e+00
-2.004471063613891602e+00 -5.227705001831054688e+00 1.090329051017761230e+00
-1.796951770782470703e+00 -5.251924514770507812e+00 1.026782035827636719e+00
-2.518821716308593750e+00 -5.355573654174804688e+00 1.045691490173339844e+00
-2.251818180084228516e+00 -5.279712677001953125e+00 9.564051032066345215e-01
-2.012331724166870117e+00 -5.245467185974121094e+00 8.817992210388183594e-01
-1.794558525085449219e+00 -5.232999801635742188e+00 8.159308433532714844e-01
-2.513232469558715820e+00 -5.341269016265869141e+00 8.222604990005493164e-01
-2.242053270339965820e+00 -5.251736640930175781e+00 7.396118640899658203e-01
-2.143579721450805664e+00 -5.573038578033447266e+00 7.172925472259521484e-01
-1.910682082176208496e+00 -5.562127590179443359e+00 6.503244042396545410e-01
-2.457491159439086914e+00 -5.218075752258300781e+00 5.909579992294311523e-01
-2.405514240264892578e+00 -5.629181861877441406e+00 5.689628124237060547e-01
-2.013458251953125000e+00 -5.229290485382080078e+00 4.675865769386291504e-01
-1.794110894203186035e+00 -5.213894367218017578e+00 4.078211486339569092e-01
-2.484281539916992188e+00 -5.270186901092529297e+00 3.839226961135864258e-01
-2.237321615219116211e+00 -5.230537891387939453e+00 3.210497200489044189e-01
-2.016826152801513672e+00 -5.232589244842529297e+00 2.634768784046173096e-01
-1.809923768043518066e+00 -5.250910758972167969e+00 2.085126638412475586e-01
-2.224542140960693359e+00 -5.195645332336425781e+00 1.144418045878410339e-01
-2.038604259490966797e+00 -5.280850887298583984e+00 6.026874855160713196e-02
-1.815641283988952637e+00 -5.261536121368408203e+00 6.800150498747825623e-03
-2.321793556213378906e+00 -5.357649803161621094e+00 1.194348335266113281e+00
-2.064358234405517578e+00 -5.286624431610107422e+00 1.105238795280456543e+00
-1.833031296730041504e+00 -5.251940250396728516e+00 1.028964757919311523e+00
-2.288882017135620117e+00 -5.276655673980712891e+00 9.583774209022521973e-01
-2.049512386322021484e+00 -5.245903015136718750e+00 8.839699625968933105e-01
-1.827613711357116699e+00 -5.224691390991210938e+00 8.163685202598571777e-01
-2.558346509933471680e+00 -5.351661205291748047e+00 8.262614011764526367e-01
-2.283714294433593750e+00 -5.259712696075439453e+00 7.426946163177490234e-01
-2.187149763107299805e+00 -5.583817005157470703e+00 7.203935384750366211e-01
-1.916508674621582031e+00 -5.469629287719726562e+00 6.408723592758178711e-01
-2.545709371566772461e+00 -5.320452690124511719e+00 6.043101549148559570e-01
-2.434452772140502930e+00 -5.601531505584716797e+00 5.676671862602233887e-01
-2.045506715774536133e+00 -5.216837882995605469e+00 4.675865769386291504e-01
-1.832674384117126465e+00 -5.221607685089111328e+00 4.092963635921478271e-01
-2.536828756332397461e+00 -5.297142505645751953e+00 3.870130181312561035e-01
-2.289287090301513672e+00 -5.262487888336181641e+00 3.238669335842132568e-01
-2.059113502502441406e+00 -5.246151447296142578e+00 2.647909820079803467e-01
-1.852383255958557129e+00 -5.268931388854980469e+00 2.096756696701049805e-01
-2.057432651519775391e+00 -5.233809471130371094e+00 5.987483263015747070e-02
-1.847227215766906738e+00 -5.248409748077392578e+00 6.797706708312034607e-03
-1.828362226486206055e+00 -5.151257038116455078e+00 1.221820354461669922e+00
-2.106548786163330078e+00 -5.298485755920410156e+00 1.110399961471557617e+00
-1.875113725662231445e+00 -5.268386363983154297e+00 1.034421563148498535e+00
-2.339129686355590820e+00 -5.303124904632568359e+00 9.657735824584960938e-01
-2.089329957962036133e+00 -5.252505779266357422e+00 8.872261047363281250e-01
-1.855981230735778809e+00 -5.203128814697265625e+00 8.147634863853454590e-01
-2.597625255584716797e+00 -5.349226951599121094e+00 8.283308148384094238e-01
-2.321952581405639648e+00 -5.259210109710693359e+00 7.446213960647583008e-01
-2.233506917953491211e+00 -5.600725650787353516e+00 7.243294715881347656e-01
-1.953043341636657715e+00 -5.466190338134765625e+00 6.418614983558654785e-01
-2.547431945800781250e+00 -5.241208076477050781e+00 5.970734953880310059e-01
-2.406796216964721680e+00 -5.446234226226806641e+00 5.534154176712036133e-01
-2.089670419692993164e+00 -5.234730720520019531e+00 4.703307449817657471e-01
-1.880472898483276367e+00 -5.254395008087158203e+00 4.127630889415740967e-01
-2.564482212066650391e+00 -5.271606922149658203e+00 3.862897753715515137e-01
-2.576789617538452148e+00 -5.825404167175292969e+00 3.594765067100524902e-01
-2.095712661743164062e+00 -5.244549274444580078e+00 2.653541564941406250e-01
-1.889398813247680664e+00 -5.270635604858398438e+00 2.102008759975433350e-01
-2.090251207351684570e+00 -5.222943782806396484e+00 5.989613011479377747e-02
-1.864533901214599609e+00 -5.195562839508056641e+00 6.743951234966516495e-03
-1.920704603195190430e+00 -5.307877540588378906e+00 1.261740565299987793e+00
-2.148962020874023438e+00 -5.310027122497558594e+00 1.115561008453369141e+00
-1.913777232170104980e+00 -5.274343967437744141e+00 1.037877440452575684e+00
-2.379697084426879883e+00 -5.306673526763916016e+00 9.690607786178588867e-01
-2.124856472015380859e+00 -5.247828483581542969e+00 8.886216282844543457e-01
-1.896324276924133301e+00 -5.214886665344238281e+00 8.184112906455993652e-01
-2.647484779357910156e+00 -5.367830276489257812e+00 8.337113857269287109e-01
-2.367580175399780273e+00 -5.274720668792724609e+00 7.488602399826049805e-01
-2.231607675552368164e+00 -5.497679233551025391e+00 7.127602696418762207e-01
-2.050837039947509766e+00 -5.630615234375000000e+00 6.626340746879577637e-01
-2.590992212295532227e+00 -5.248671054840087891e+00 5.997235178947448730e-01
-2.329993486404418945e+00 -5.186134815216064453e+00 5.284283757209777832e-01
-2.128878355026245117e+00 -5.239351749420166016e+00 4.719107151031494141e-01
-1.924298763275146484e+00 -5.274611473083496094e+00 4.152709543704986572e-01
-2.609156131744384766e+00 -5.280821323394775391e+00 3.881307840347290039e-01
-2.435589790344238281e+00 -5.416114330291748047e+00 3.351357877254486084e-01
-2.143283128738403320e+00 -5.269527912139892578e+00 2.672783732414245605e-01
-1.924447059631347656e+00 -5.266451835632324219e+00 2.105010002851486206e-01
-2.144892692565917969e+00 -5.265583515167236328e+00 6.053490564227104187e-02
-1.904279708862304688e+00 -5.205624103546142578e+00 6.772050634026527405e-03
-1.959653139114379883e+00 -5.313389301300048828e+00 1.265885353088378906e+00
-2.181503295898437500e+00 -5.296741485595703125e+00 1.115561008453369141e+00
-1.953948378562927246e+00 -5.283714294433593750e+00 1.042060971260070801e+00
-2.403621912002563477e+00 -5.273123264312744141e+00 9.656092524528503418e-01
-2.169436931610107422e+00 -5.264833927154541016e+00 8.937384486198425293e-01
-1.936881184577941895e+00 -5.226343631744384766e+00 8.220590353012084961e-01
-2.418013095855712891e+00 -5.299792766571044922e+00 7.545119524002075195e-01
-2.174702167510986328e+00 -5.264564514160156250e+00 6.842546463012695312e-01
-2.070820093154907227e+00 -5.578789234161376953e+00 6.580179929733276367e-01
-2.694478511810302734e+00 -5.374963283538818359e+00 6.160314083099365234e-01
-2.374593496322631836e+00 -5.199818611145019531e+00 5.312972664833068848e-01
-2.153751134872436523e+00 -5.208693027496337891e+00 4.703307449817657471e-01
-1.970528364181518555e+00 -5.300095081329345703e+00 4.182213544845581055e-01
-2.766357898712158203e+00 -5.513544082641601562e+00 4.064754247665405273e-01
-2.443457841873168945e+00 -5.345676898956298828e+00 3.316987752914428711e-01
-2.158767461776733398e+00 -5.215667724609375000e+00 2.652133703231811523e-01
-1.950448155403137207e+00 -5.237688064575195312e+00 2.098257392644882202e-01
-2.130830526351928711e+00 -5.140552043914794922e+00 5.924670025706291199e-02
-1.939328670501708984e+00 -5.202274799346923828e+00 6.783045828342437744e-03
-2.003547906875610352e+00 -5.331411838531494141e+00 1.273084044456481934e+00
-2.220032215118408203e+00 -5.297740459442138672e+00 1.118619441986083984e+00
-1.991532683372497559e+00 -5.285428524017333984e+00 1.044789433479309082e+00
-2.475321292877197266e+00 -5.343303203582763672e+00 9.812233448028564453e-01
-2.211631774902343750e+00 -5.275111198425292969e+00 8.977699279785156250e-01
-1.975552916526794434e+00 -5.231945991516113281e+00 8.248313665390014648e-01
-2.462167501449584961e+00 -5.310048103332519531e+00 7.581086158752441406e-01
-2.202347755432128906e+00 -5.240138053894042969e+00 6.828233599662780762e-01
-2.110285997390747070e+00 -5.579923152923583984e+00 6.596665978431701660e-01
-2.746360778808593750e+00 -5.395564556121826172e+00 6.203122735023498535e-01
-2.407292604446411133e+00 -5.186956882476806641e+00 5.314823985099792480e-01
-2.254842519760131836e+00 -5.359802246093750000e+00 4.852156937122344971e-01
-1.994533777236938477e+00 -5.265522003173828125e+00 4.164511263370513916e-01
-2.770241498947143555e+00 -5.437785148620605469e+00 4.021358489990234375e-01
-2.447609901428222656e+00 -5.269010543823242188e+00 3.278673887252807617e-01
-2.198095083236694336e+00 -5.219814777374267578e+00 2.661050856113433838e-01
-1.989638686180114746e+00 -5.244308471679687500e+00 2.105760425329208374e-01
-2.201965332031250000e+00 -5.221360206604003906e+00 6.033262610435485840e-02
-2.012753009796142578e+00 -5.299654483795166016e+00 6.925988476723432541e-03
-2.044596672058105469e+00 -5.340891838073730469e+00 1.278319478034973145e+00
-2.262119531631469727e+00 -5.306592464447021484e+00 1.123398184776306152e+00
-2.026040077209472656e+00 -5.278617382049560547e+00 1.045880794525146484e+00
-2.518983602523803711e+00 -5.351218223571777344e+00 9.854966402053833008e-01
-2.249383449554443359e+00 -5.274163722991943359e+00 8.999406695365905762e-01
-2.010814428329467773e+00 -5.228035449981689453e+00 8.261445164680480957e-01
-2.502311229705810547e+00 -5.310988426208496094e+00 7.604206204414367676e-01
-2.241094112396240234e+00 -5.242045402526855469e+00 6.848509311676025391e-01
-2.141268491744995117e+00 -5.558522224426269531e+00 6.586774587631225586e-01
-2.480694770812988281e+00 -5.260345935821533203e+00 5.405516624450683594e-01
-2.406090021133422852e+00 -5.622549533843994141e+00 5.103288292884826660e-01
-2.031830549240112305e+00 -5.266210556030273438e+00 4.174837768077850342e-01
-2.523789644241333008e+00 -5.346890449523925781e+00 3.336708545684814453e-01
-2.222215652465820312e+00 -5.187865257263183594e+00 2.651664316654205322e-01
-2.026462316513061523e+00 -5.244119167327880859e+00 2.110637575387954712e-01
-2.246181964874267578e+00 -5.236238479614257812e+00 6.066266447305679321e-02
-2.040182352066040039e+00 -5.274147987365722656e+00 6.908884271979331970e-03
-2.079810619354248047e+00 -5.334610462188720703e+00 1.279846429824829102e+00
-2.305569887161254883e+00 -5.317828178405761719e+00 1.128750443458557129e+00
-2.062686681747436523e+00 -5.277076244354248047e+00 1.048063397407531738e+00
-2.673060417175292969e+00 -5.589274406433105469e+00 1.032338976860046387e+00
-2.288779020309448242e+00 -5.276576042175292969e+00 9.027316570281982422e-01
-2.054040193557739258e+00 -5.244154930114746094e+00 8.306677341461181641e-01
-2.539989948272705078e+00 -5.306269168853759766e+00 7.619620561599731445e-01
-2.272820472717285156e+00 -5.227285385131835938e+00 6.847316622734069824e-01
-2.182230949401855469e+00 -5.562859058380126953e+00 6.607656478881835938e-01
-2.523680448532104492e+00 -5.267475128173828125e+00 5.428653359413146973e-01
-2.446906805038452148e+00 -5.622300624847412109e+00 5.116593241691589355e-01
-2.073951721191406250e+00 -5.278706073760986328e+00 4.194752871990203857e-01
-2.591949701309204102e+00 -5.405124664306640625e+00 3.382910788059234619e-01
-2.288713932037353516e+00 -5.253805160522460938e+00 2.692495286464691162e-01
-2.075433254241943359e+00 -5.274361133575439453e+00 2.127894759178161621e-01
-2.048317193984985352e+00 -5.200122356414794922e+00 6.828250363469123840e-03
-2.359538078308105469e+00 -5.352081298828125000e+00 1.139072656631469727e+00
-2.108843803405761719e+00 -5.299038410186767578e+00 1.054975390434265137e+00
-2.336660861968994141e+00 -5.297684192657470703e+00 9.087787866592407227e-01
-2.094607114791870117e+00 -5.252588272094726562e+00 8.340236544609069824e-01
-2.599821805953979492e+00 -5.346772193908691406e+00 7.700543999671936035e-01
-2.307260751724243164e+00 -5.218689441680908203e+00 6.854472756385803223e-01
-2.299638032913208008e+00 -5.757973670959472656e+00 6.856048107147216797e-01
-2.575561285018920898e+00 -5.292179584503173828e+00 5.470297932624816895e-01
-2.477325677871704102e+00 -5.598067760467529297e+00 5.108277201652526855e-01
-2.097413063049316406e+00 -5.243658065795898438e+00 4.177050292491912842e-01
-2.567353010177612305e+00 -5.270637512207031250e+00 3.308536112308502197e-01
-2.583460807800292969e+00 -5.832401275634765625e+00 2.997084558010101318e-01
-2.095494031906127930e+00 -5.230915546417236328e+00 2.115514576435089111e-01
-2.083163499832153320e+00 -5.194881439208984375e+00 6.838024128228425980e-03
-2.399559736251831055e+00 -5.353625774383544922e+00 1.142513394355773926e+00
-2.154240369796752930e+00 -5.317897319793701172e+00 1.061341643333435059e+00
-2.380440950393676758e+00 -5.308487415313720703e+00 9.131203889846801758e-01
-2.131633996963500977e+00 -5.251553535461425781e+00 8.359205126762390137e-01
-2.676492929458618164e+00 -5.419638633728027344e+00 7.828993201255798340e-01
-2.354705810546875000e+00 -5.238846778869628906e+00 6.899796128273010254e-01
-2.269421100616455078e+00 -5.582620143890380859e+00 6.663709282875061035e-01
-2.603572845458984375e+00 -5.267350673675537109e+00 5.461043715476989746e-01
-2.394694328308105469e+00 -5.322844982147216797e+00 4.870451390743255615e-01
-2.132180452346801758e+00 -5.237155437469482422e+00 4.182213544845581055e-01
-2.663396358489990234e+00 -5.383649349212646484e+00 3.389672040939331055e-01
-2.396489381790161133e+00 -5.321869373321533203e+00 2.742243409156799316e-01
-2.147924661636352539e+00 -5.267927169799804688e+00 2.135773152112960815e-01
-2.113865852355957031e+00 -5.179224491119384766e+00 6.834358908236026764e-03
-2.425445795059204102e+00 -5.323616981506347656e+00 1.139263868331909180e+00
-2.187953948974609375e+00 -5.307306289672851562e+00 1.061887264251708984e+00
-2.414607286453247070e+00 -5.297376632690429688e+00 9.137405753135681152e-01
-2.168726921081542969e+00 -5.250261783599853516e+00 8.378173112869262695e-01
-2.718588352203369141e+00 -5.420843601226806641e+00 7.854682803153991699e-01
-2.411561727523803711e+00 -5.278484821319580078e+00 6.971358060836791992e-01
-2.305532455444335938e+00 -5.573182582855224609e+00 6.669204831123352051e-01
-2.687211513519287109e+00 -5.353614330291748047e+00 5.567469596862792969e-01
-2.390010833740234375e+00 -5.226486206054687500e+00 4.795610606670379639e-01
-2.185650587081909180e+00 -5.275568962097167969e+00 4.223519563674926758e-01
-2.711618423461914062e+00 -5.397539138793945312e+00 3.408828973770141602e-01
-2.426604270935058594e+00 -5.301614761352539062e+00 2.739427387714385986e-01
-2.180973291397094727e+00 -5.256494522094726562e+00 2.136523276567459106e-01
-2.136783361434936523e+00 -5.144915103912353516e+00 6.806259043514728546e-03
-2.223140239715576172e+00 -5.300128936767578125e+00 1.063160538673400879e+00
-2.457031965255737305e+00 -5.303975105285644531e+00 9.174618721008300781e-01
-2.212783336639404297e+00 -5.265129089355468750e+00 8.423405885696411133e-01
-2.453521251678466797e+00 -5.284300804138183594e+00 6.998790502548217773e-01
-2.349324941635131836e+00 -5.581833839416503906e+00 6.696681976318359375e-01
-2.844797849655151367e+00 -5.581875324249267578e+00 5.822892189025878906e-01
-2.441354274749755859e+00 -5.253293991088867188e+00 4.833862483501434326e-01
-2.224564790725708008e+00 -5.277681827545166016e+00 4.236058890819549561e-01
-2.497004985809326172e+00 -5.368139266967773438e+00 2.781666219234466553e-01
-2.218237638473510742e+00 -5.254981517791748047e+00 2.141400426626205444e-01
-2.269126176834106445e+00 -5.318042755126953125e+00 1.069526672363281250e+00
-2.513512611389160156e+00 -5.339747428894042969e+00 9.263000488281250000e-01
-2.251270294189453125e+00 -5.266007423400878906e+00 8.446751832962036133e-01
-2.499878883361816406e+00 -5.298779010772705078e+00 7.038149833679199219e-01
-2.266563892364501953e+00 -5.294110298156738281e+00 6.368057131767272949e-01
-2.479073524475097656e+00 -5.249929904937744141e+00 4.844672679901123047e-01
-2.379909992218017578e+00 -5.550822734832763672e+00 4.466928839683532715e-01
-2.539286851882934570e+00 -5.372585296630859375e+00 2.791991531848907471e-01
-2.234275102615356445e+00 -5.203624248504638672e+00 2.126019001007080078e-01
-2.310717582702636719e+00 -5.324767112731933594e+00 1.073710322380065918e+00
-2.297345638275146484e+00 -5.283848285675048828e+00 8.497820496559143066e-01
-2.558521986007690430e+00 -5.337954998016357422e+00 7.110904455184936523e-01
-2.270833015441894531e+00 -5.215400695800781250e+00 6.290022730827331543e-01
-2.506929636001586914e+00 -5.225635051727294922e+00 4.836357235908508301e-01
-2.453385829925537109e+00 -5.626616477966308594e+00 4.539951384067535400e-01
-2.599011898040771484e+00 -5.412732601165771484e+00 2.821089327335357666e-01
-2.292954444885253906e+00 -5.251175403594970703e+00 2.151154577732086182e-01
-2.335803747177124023e+00 -5.293395519256591797e+00 1.070254325866699219e+00
-2.779580831527709961e+00 -5.721699714660644531e+00 9.984006881713867188e-01
-2.332523584365844727e+00 -5.275986194610595703e+00 8.508033752441406250e-01
-2.604265451431274414e+00 -5.348936080932617188e+00 7.146685719490051270e-01
-2.330152988433837891e+00 -5.263171195983886719e+00 6.364760398864746094e-01
-2.590458631515502930e+00 -5.315862655639648438e+00 4.934481680393218994e-01
-2.483013391494750977e+00 -5.600516796112060547e+00 4.531100094318389893e-01
-2.655383110046386719e+00 -5.444266796112060547e+00 2.845963239669799805e-01
-2.398121833801269531e+00 -5.401406288146972656e+00 2.218683063983917236e-01
-2.408890724182128906e+00 -5.369577884674072266e+00 1.088625431060791016e+00
-2.379858493804931641e+00 -5.294961929321289062e+00 8.562021255493164062e-01
-2.646718978881835938e+00 -5.352436065673828125e+00 7.172925472259521484e-01
-2.353020668029785156e+00 -5.227927684783935547e+00 6.339481472969055176e-01
-2.601809740066528320e+00 -5.256997108459472656e+00 4.894566237926483154e-01
-2.392755031585693359e+00 -5.308781147003173828e+00 4.306868612766265869e-01
-2.691842317581176758e+00 -5.434136867523193359e+00 2.849248349666595459e-01
-2.421352624893188477e+00 -5.364729881286621094e+00 2.209679186344146729e-01
-2.445464372634887695e+00 -5.362748622894287109e+00 1.090262532234191895e+00
-2.429157733917236328e+00 -5.317152976989746094e+00 8.621844053268432617e-01
-2.725402116775512695e+00 -5.427484512329101562e+00 7.295773625373840332e-01
-2.402007818222045898e+00 -5.250449657440185547e+00 6.384543776512145996e-01
-2.670265197753906250e+00 -5.313056945800781250e+00 4.961923062801361084e-01
-2.427361011505126953e+00 -5.298532962799072266e+00 4.310556948184967041e-01
-2.464641332626342773e+00 -5.372478961944580078e+00 2.219058126211166382e-01
-2.486593008041381836e+00 -5.365485668182373047e+00 1.093900322914123535e+00
-2.471319437026977539e+00 -5.322785377502441406e+00 8.655403256416320801e-01
-2.421188592910766602e+00 -5.207672119140625000e+00 6.350472569465637207e-01
-2.859992265701293945e+00 -5.604584693908691406e+00 5.250474214553833008e-01
-2.458142757415771484e+00 -5.279922485351562500e+00 4.307606220245361328e-01
-2.505582571029663086e+00 -5.374463558197021484e+00 2.226186096668243408e-01
-2.510264635086059570e+00 -5.320942878723144531e+00 8.677290081977844238e-01
-2.480693101882934570e+00 -5.251133918762207031e+00 6.421912312507629395e-01
-2.497743368148803711e+00 -5.280066013336181641e+00 4.320145845413208008e-01
-2.529100894927978516e+00 -5.339119911193847656e+00 2.217932641506195068e-01
-2.559114217758178711e+00 -5.339340209960937500e+00 8.732735514640808105e-01
-2.505903244018554688e+00 -5.214303970336914062e+00 4.278839826583862305e-01
-2.606551408767700195e+00 -5.353779315948486328e+00 8.782345056533813477e-01
-2.532600879669189453e+00 -5.188076019287109375e+00 4.269988834857940674e-01
-2.622859477996826172e+00 -5.290379524230957031e+00 4.367352426052093506e-01
-2.721329450607299805e+00 -5.412452697753906250e+00 6.698880195617675781e-01
-2.735991954803466797e+00 -5.434523105621337891e+00 4.500120878219604492e-01
-2.778818130493164062e+00 -5.436280727386474609e+00 4.515610635280609131e-01
-1.085650682449340820e+00 -1.586202263832092285e+00 5.704819038510322571e-02
-1.090236425399780273e+00 -1.572118520736694336e+00 5.678119137883186340e-02
-1.093678116798400879e+00 -1.557175397872924805e+00 1.253880113363265991e-01
-1.096414446830749512e+00 -1.560492157936096191e+00 5.660319700837135315e-02
-1.117096424102783203e+00 -1.569947957992553711e+00 1.269660443067550659e-01
-1.106548428535461426e+00 -1.554549574851989746e+00 5.663286149501800537e-02
-1.115038752555847168e+00 -1.546874880790710449e+00 1.256510168313980103e-01
-1.110219717025756836e+00 -1.539623141288757324e+00 5.633619800209999084e-02
-1.136277914047241211e+00 -1.556121349334716797e+00 1.269660443067550659e-01
-1.117877125740051270e+00 -1.530360579490661621e+00 5.624720454216003418e-02
-1.138684272766113281e+00 -1.539493083953857422e+00 1.261770278215408325e-01
-1.121895313262939453e+00 -1.516240954399108887e+00 5.598020553588867188e-02
-1.077386736869812012e+00 -1.571809649467468262e+00 3.858589753508567810e-02
-1.104314804077148438e+00 -1.591270208358764648e+00 1.093079075217247009e-01
-1.132376551628112793e+00 -1.510928273200988770e+00 5.603953823447227478e-02
-1.081878066062927246e+00 -1.557778596878051758e+00 3.840369731187820435e-02
-1.103147029876708984e+00 -1.568946361541748047e+00 1.082373708486557007e-01
-1.090265393257141113e+00 -1.549475669860839844e+00 3.836320713162422180e-02
-1.104643583297729492e+00 -1.550763249397277832e+00 1.074485480785369873e-01
-1.098591685295104980e+00 -1.541128516197204590e+00 3.832272067666053772e-02
-1.114722251892089844e+00 -1.544765830039978027e+00 1.075048893690109253e-01
-1.104515194892883301e+00 -1.529495477676391602e+00 3.820125386118888855e-02
-1.134785294532775879e+00 -1.552405357360839844e+00 1.085190922021865845e-01
-1.111518025398254395e+00 -1.519461750984191895e+00 3.812027722597122192e-02
-1.133000850677490234e+00 -1.530167698860168457e+00 1.074485480785369873e-01
-1.081761121749877930e+00 -1.577637672424316406e+00 8.987499773502349854e-02
-1.117248892784118652e+00 -1.507793188095092773e+00 3.799881041049957275e-02
-1.065044760704040527e+00 -1.551516175270080566e+00 2.003635093569755554e-02
-1.095410466194152832e+00 -1.576712846755981445e+00 9.020351618528366089e-02
-1.124679088592529297e+00 -1.498510599136352539e+00 3.793807327747344971e-02
-1.077399373054504395e+00 -1.549056529998779297e+00 2.008958347141742706e-02
-1.083559036254882812e+00 -1.540551662445068359e+00 1.571649760007858276e-01
-1.094140172004699707e+00 -1.554442048072814941e+00 8.931181579828262329e-02
-1.084004044532775879e+00 -1.538329601287841797e+00 2.003635093569755554e-02
-1.097039461135864258e+00 -1.539555072784423828e+00 1.577470749616622925e-01
-1.110036969184875488e+00 -1.556645393371582031e+00 8.982805907726287842e-02
-1.090517640113830566e+00 -1.527580142021179199e+00 1.998312026262283325e-02
-1.107048630714416504e+00 -1.533602833747863770e+00 1.578302234411239624e-01
-1.110208511352539062e+00 -1.536849617958068848e+00 8.907715231180191040e-02
-1.102800130844116211e+00 -1.524911403656005859e+00 2.003635093569755554e-02
-1.100555777549743652e+00 -1.505061864852905273e+00 1.555850058794021606e-01
-1.115488290786743164e+00 -1.524365663528442383e+00 8.874862641096115112e-02
-1.106817603111267090e+00 -1.510856270790100098e+00 1.994053460657596588e-02
-1.060003042221069336e+00 -1.562348484992980957e+00 2.306626643985509872e-03
-1.121846437454223633e+00 -1.513480067253112793e+00 8.851396292448043823e-02
-1.092039108276367188e+00 -1.589688181877136230e+00 7.240544259548187256e-02
-1.113683700561523438e+00 -1.500824451446533203e+00 1.989794895052909851e-02
-1.073534965515136719e+00 -1.561583399772644043e+00 2.315178746357560158e-03
-1.085624575614929199e+00 -1.561500191688537598e+00 1.406610459089279175e-01
-1.125714302062988281e+00 -1.499378800392150879e+00 8.809157460927963257e-02
-1.101201772689819336e+00 -1.582137465476989746e+00 7.236792892217636108e-02
-1.122270822525024414e+00 -1.493163347244262695e+00 1.988730207085609436e-02
-1.081381797790527344e+00 -1.552505254745483398e+00 2.311513526365160942e-03
-1.102651238441467285e+00 -1.565408706665039062e+00 1.416199356317520142e-01
-1.097643494606018066e+00 -1.556567430496215820e+00 7.150506973266601562e-02
-1.092617154121398926e+00 -1.548291921615600586e+00 2.315178746357560158e-03
-1.104704856872558594e+00 -1.548060297966003418e+00 1.406610459089279175e-01
-1.109497308731079102e+00 -1.553055644035339355e+00 7.165513187646865845e-02
-1.099770426750183105e+00 -1.538304567337036133e+00 2.310291863977909088e-03
-1.118856906890869141e+00 -1.547718524932861328e+00 1.412511318922042847e-01
-1.117833971977233887e+00 -1.544599533081054688e+00 7.158009707927703857e-02
-1.108015418052673340e+00 -1.529907703399658203e+00 2.307848306372761726e-03
-1.127153992652893066e+00 -1.539215087890625000e+00 1.411036103963851929e-01
-1.115473985671997070e+00 -1.521592974662780762e+00 7.082978636026382446e-02
-1.113241314888000488e+00 -1.517436265945434570e+00 2.299296204000711441e-03
-1.123597741127014160e+00 -1.513115286827087402e+00 7.075475156307220459e-02
-1.126706361770629883e+00 -1.516195535659790039e+00 2.307848306372761726e-03
-1.128771901130676270e+00 -1.499665975570678711e+00 2.293187659233808517e-03
-5.584690570831298828e+00 -6.964369773864746094e+00 1.090638525784015656e-02
-5.740231990814208984e+00 -6.981050014495849609e+00 1.104199700057506561e-02
-6.184937953948974609e+00 -6.981357574462890625e+00 1.139507815241813660e-02
-6.274397373199462891e+00 -6.995385646820068359e+00 1.148059871047735214e-02
-6.191489696502685547e+00 -6.818315505981445312e+00 1.125213503837585449e-02
-6.222381114959716797e+00 -6.768418312072753906e+00 1.123258750885725021e-02
-5.981739997863769531e+00 -6.427058696746826172e+00 1.072679180651903152e-02
-6.502473354339599609e+00 -6.901162147521972656e+00 1.158444583415985107e-02
-6.656511783599853516e+00 -6.978355884552001953e+00 1.178236585110425949e-02
-6.563748359680175781e+00 -6.797108650207519531e+00 1.154412887990474701e-02
-6.477405071258544922e+00 -6.625848293304443359e+00 1.132055278867483139e-02
-6.486987113952636719e+00 -6.554704666137695312e+00 1.126679591834545135e-02
-6.587244510650634766e+00 -6.574825286865234375e+00 1.137064304202795029e-02
-6.867438793182373047e+00 -6.770884990692138672e+00 1.178236585110425949e-02
-6.792799949645996094e+00 -6.615592479705810547e+00 1.158444583415985107e-02
-6.882990360260009766e+00 -6.621625423431396484e+00 1.166874542832374573e-02
-6.901743412017822266e+00 -6.558601856231689453e+00 1.163209415972232819e-02
-7.017683029174804688e+00 -6.587306499481201172e+00 1.175915263593196869e-02
-6.919377803802490234e+00 -6.415620803833007812e+00 1.152824703603982925e-02
-7.131176471710205078e+00 -6.531085968017578125e+00 1.181413047015666962e-02
-7.055429935455322266e+00 -6.382553100585937500e+00 1.162354182451963425e-02
-7.197363853454589844e+00 -6.431090354919433594e+00 1.179214008152484894e-02
-7.212697029113769531e+00 -6.365632534027099609e+00 1.175304502248764038e-02
-6.851348400115966797e+00 -5.972339153289794922e+00 1.110430620610713959e-02
-6.710534095764160156e+00 -5.777512073516845703e+00 1.081842090934514999e-02
-7.049821853637695312e+00 -5.994699001312255859e+00 1.130589190870523453e-02
-7.219716072082519531e+00 -6.063230037689208984e+00 1.151847280561923981e-02
-7.201364994049072266e+00 -5.972852230072021484e+00 1.143050845712423325e-02
-7.555057525634765625e+00 -6.188354492187500000e+00 1.193141750991344452e-02
-7.452939510345458984e+00 -6.028678417205810547e+00 1.171150617301464081e-02
-7.617146492004394531e+00 -6.084566593170166016e+00 1.191064808517694473e-02
-7.759546279907226562e+00 -6.120702266693115234e+00 1.207435969263315201e-02
-7.807212352752685547e+00 -6.080964088439941406e+00 1.209024246782064438e-02
-7.581206798553466797e+00 -5.830545902252197266e+00 1.168462727218866348e-02
-6.877773761749267578e+00 -5.222702503204345703e+00 1.055086217820644379e-02
-7.597778797149658203e+00 -5.696283340454101562e+00 1.160155050456523895e-02
-7.682421207427978516e+00 -5.686443805694580078e+00 1.167729776352643967e-02
-7.805175304412841797e+00 -5.703507900238037109e+00 1.181046664714813232e-02
-7.463715553283691406e+00 -5.384053707122802734e+00 1.124358270317316055e-02
-3.919511079788208008e+00 -2.194469928741455078e+00 1.333201080560684204e-01
-7.667673587799072266e+00 -5.459965229034423828e+00 1.150014623999595642e-02
-3.906647682189941406e+00 -2.155890464782714844e+00 1.324301213026046753e-01
-7.691213607788085938e+00 -5.405913829803466797e+00 1.148548536002635956e-02
-3.918924570083618164e+00 -2.131401538848876953e+00 1.324004530906677246e-01
-8.002775192260742188e+00 -5.551852226257324219e+00 1.189965289086103439e-02
-7.835360050201416016e+00 -5.364794731140136719e+00 1.160155050456523895e-02
-8.106759071350097656e+00 -5.477862358093261719e+00 1.195340882986783981e-02
-3.901457548141479492e+00 -2.212369441986083984e+00 9.081654250621795654e-02
-8.342392921447753906e+00 -5.562829494476318359e+00 1.225028932094573975e-02
-3.914958953857421875e+00 -2.188388824462890625e+00 9.081654250621795654e-02
-8.353813171386718750e+00 -5.496695518493652344e+00 1.221730187535285950e-02
-3.923058748245239258e+00 -2.161431074142456055e+00 9.069507569074630737e-02
-8.388221740722656250e+00 -5.445878982543945312e+00 1.221852377057075500e-02
-3.949426889419555664e+00 -2.144475460052490234e+00 9.099874645471572876e-02
-7.837929248809814453e+00 -5.020519256591796875e+00 1.137186493724584579e-02
-8.221100807189941406e+00 -5.195093154907226562e+00 1.188132632523775101e-02
-6.655355930328369141e+00 -3.207031011581420898e+00 2.192632108926773071e-01
-8.259612083435058594e+00 -5.148784160614013672e+00 1.189110055565834045e-02
-6.623430728912353516e+00 -3.141716480255126953e+00 2.175722420215606689e-01
-3.895724534988403320e+00 -2.205581665039062500e+00 4.766352102160453796e-02
-8.283382415771484375e+00 -5.093293190002441406e+00 1.188010536134243011e-02
-3.924012184143066406e+00 -2.192606925964355469e+00 2.111945003271102905e-01
-3.906564474105834961e+00 -2.180174350738525391e+00 4.763158038258552551e-02
-8.248639106750488281e+00 -5.002442836761474609e+00 1.178603153675794601e-02
-3.940016984939575195e+00 -2.169934034347534180e+00 2.113353013992309570e-01
-3.911983251571655273e+00 -2.151825904846191406e+00 4.753576219081878662e-02
-8.281752586364746094e+00 -4.953275680541992188e+00 1.178969722241163254e-02
-3.913684844970703125e+00 -2.121586799621582031e+00 4.739736020565032959e-02
-8.107850074768066406e+00 -4.781966209411621094e+00 1.150014623999595642e-02
-6.653717994689941406e+00 -3.251032114028930664e+00 1.499505490064620972e-01
-7.849179267883300781e+00 -4.564721584320068359e+00 1.109331101179122925e-02
-6.660025596618652344e+00 -3.203643560409545898e+00 1.496468782424926758e-01
-7.439811706542968750e+00 -4.265779495239257812e+00 1.047755777835845947e-02
-6.628051280975341797e+00 -3.138330221176147461e+00 1.484929472208023071e-01
-3.901810169219970703e+00 -2.205487489700317383e+00 5.475794896483421326e-03
-3.913500070571899414e+00 -2.182309865951538086e+00 1.682207286357879639e-01
-3.903913021087646484e+00 -2.175177574157714844e+00 5.459912586957216263e-03
-3.920686721801757812e+00 -2.154886722564697266e+00 1.679581254720687866e-01
-3.911926984786987305e+00 -2.148294448852539062e+00 5.452582146972417831e-03
-3.926793813705444336e+00 -2.125202894210815430e+00 5.455025471746921539e-03
-6.662330150604248047e+00 -3.249570369720458984e+00 7.892107963562011719e-02
-3.945936441421508789e+00 -2.104362249374389648e+00 5.463577341288328171e-03
-6.623551845550537109e+00 -3.180495500564575195e+00 7.822906970977783203e-02
-7.923745155334472656e+00 -4.163477897644042969e+00 1.093570701777935028e-02
-6.661927223205566406e+00 -3.148767471313476562e+00 7.845264673233032227e-02
-8.612533569335937500e+00 -4.458177089691162109e+00 1.184834074229001999e-02
-8.638834953308105469e+00 -4.404793262481689453e+00 1.184711791574954987e-02
-8.091085433959960938e+00 -4.063145637512207031e+00 1.106154639273881912e-02
-8.094349861145019531e+00 -4.002784252166748047e+00 1.103222463279962540e-02
-6.655943393707275391e+00 -3.240794897079467773e+00 9.044469334185123444e-03
-6.674396991729736328e+00 -3.202133178710937500e+00 2.779168784618377686e-01
-6.651355743408203125e+00 -3.188223123550415039e+00 9.011481888592243195e-03
-6.678028106689453125e+00 -3.150764703750610352e+00 9.021256119012832642e-03
-6.698142051696777344e+00 -3.110151052474975586e+00 9.022478014230728149e-03
-9.803527832031250000e+00 -3.250810146331787109e+00 3.065412938594818115e-01
-8.553501129150390625e+00 -3.908031702041625977e+00 1.148915104568004608e-02
-9.846106529235839844e+00 -3.198006391525268555e+00 3.072533011436462402e-01
-8.594649314880371094e+00 -3.863264560699462891e+00 1.151236426085233688e-02
-8.641970634460449219e+00 -3.820969820022583008e+00 1.154412887990474701e-02
-8.684511184692382812e+00 -3.776245594024658203e+00 1.156978495419025421e-02
-8.671659469604492188e+00 -3.707555770874023438e+00 1.152213849127292633e-02
-8.713603973388671875e+00 -3.662414550781250000e+00 1.154779456555843353e-02
-9.856476783752441406e+00 -3.260851144790649414e+00 2.102182358503341675e-01
-8.508549690246582031e+00 -3.514954328536987305e+00 1.124724838882684708e-02
-9.876298904418945312e+00 -3.200311660766601562e+00 2.102182358503341675e-01
-8.685619354248046875e+00 -3.525871038436889648e+00 1.145249884575605392e-02
-8.533393859863281250e+00 -3.403238296508789062e+00 1.122403517365455627e-02
-8.604394912719726562e+00 -3.370509862899780273e+00 1.129000913351774216e-02
-8.357982635498046875e+00 -3.214972972869873047e+00 1.094059459865093231e-02
-7.695559978485107422e+00 -2.906087160110473633e+00 1.004995312541723251e-02
-9.831689834594726562e+00 -3.245156526565551758e+00 1.102318689227104187e-01
-7.648547172546386719e+00 -2.834833621978759766e+00 9.965653531253337860e-03
-9.834290504455566406e+00 -3.179232835769653320e+00 1.100402399897575378e-01
-8.645989418029785156e+00 -3.144319772720336914e+00 1.123991888016462326e-02
-8.641572952270507812e+00 -3.082809686660766602e+00 1.120937429368495941e-02
-8.455498695373535156e+00 -2.958070993423461914e+00 1.094425935298204422e-02
-8.064855575561523438e+00 -2.765985012054443359e+00 1.041647139936685562e-02
-8.127174377441406250e+00 -2.731741189956665039e+00 1.047511491924524307e-02
-8.567403793334960938e+00 -2.821324586868286133e+00 1.102000661194324493e-02
-8.675919532775878906e+00 -2.798170089721679688e+00 1.113729272037744522e-02
-1.301717376708984375e+01 -2.604410409927368164e+00 3.939974308013916016e-01
-8.578495025634765625e+00 -2.708750486373901367e+00 1.099068485200405121e-02
-1.302996444702148438e+01 -2.523919343948364258e+00 3.939084112644195557e-01
