-7.626906633377075195e-01 -4.964645385742187500e+00 6.033892035484313965e-01
-5.764110684394836426e-01 -4.941171646118164062e+00 5.500884652137756348e-01
-1.161622881889343262e+00 -5.066324710845947266e+00 5.325553417205810547e-01
-9.630908370018005371e-01 -5.032591342926025391e+00 4.762333631515502930e-01
-1.171417951583862305e+00 -5.100870132446289062e+00 3.448663353919982910e-01
-1.211406111717224121e+00 -5.146545410156250000e+00 1.558111786842346191e+00
-9.987489581108093262e-01 -5.097582340240478516e+00 1.471854448318481445e+00
-7.933776378631591797e-01 -5.034600257873535156e+00 1.390483617782592773e+00
-6.009603142738342285e-01 -5.013521194458007812e+00 1.327514290809631348e+00
-1.211386203765869141e+00 -5.150491237640380859e+00 1.343750834465026855e+00
-9.945513010025024414e-01 -5.066783428192138672e+00 1.255854487419128418e+00
-7.929204702377319336e-01 -5.014622211456298828e+00 1.183305621147155762e+00
-6.063860654830932617e-01 -5.021697521209716797e+00 1.130636453628540039e+00
-1.202064037322998047e+00 -5.114861011505126953e+00 1.128324270248413086e+00
-9.960593581199645996e-01 -5.065111160278320312e+00 1.055876016616821289e+00
-7.960671782493591309e-01 -5.011839389801025391e+00 9.882539510726928711e-01
-6.053079366683959961e-01 -4.976278305053710938e+00 9.272869229316711426e-01
-1.195832967758178711e+00 -5.084362983703613281e+00 9.228532910346984863e-01
-9.981533885002136230e-01 -5.066418170928955078e+00 8.604194521903991699e-01
-7.993012070655822754e-01 -5.026536941528320312e+00 7.988446354866027832e-01
-6.062363982200622559e-01 -4.955049037933349609e+00 7.362636923789978027e-01
-1.203862428665161133e+00 -5.114496231079101562e+00 7.318946123123168945e-01
-9.995491504669189453e-01 -5.064181327819824219e+00 6.685793399810791016e-01
-8.008210062980651855e-01 -5.007912635803222656e+00 6.092334985733032227e-01
-6.065974235534667969e-01 -4.936555385589599609e+00 5.499786138534545898e-01
-1.205698490142822266e+00 -5.114291667938232422e+00 5.383650064468383789e-01
-9.922137260437011719e-01 -5.017796039581298828e+00 4.754004478454589844e-01
-1.196273803710937500e+00 -5.066394805908203125e+00 3.430253267288208008e-01
-1.247471928596496582e+00 -5.157661914825439453e+00 1.563765287399291992e+00
-1.032488465309143066e+00 -5.103617668151855469e+00 1.475398421287536621e+00
-8.278428912162780762e-01 -5.051534175872802734e+00 1.396537184715270996e+00
-6.331633329391479492e-01 -5.021254062652587891e+00 1.330565571784973145e+00
-1.245698571205139160e+00 -5.154266834259033203e+00 1.346704721450805664e+00
-1.028516888618469238e+00 -5.074870586395263672e+00 1.259399533271789551e+00
-8.273087739944458008e-01 -5.031765460968017578e+00 1.188526272773742676e+00
-6.374331712722778320e-01 -5.019818782806396484e+00 1.131072759628295898e+00
-1.236179828643798828e+00 -5.118793964385986328e+00 1.130843877792358398e+00
-1.030628442764282227e+00 -5.076186656951904297e+00 1.059483170509338379e+00
-8.295230269432067871e-01 -5.023324012756347656e+00 9.915035963058471680e-01
-6.374518275260925293e-01 -4.985150337219238281e+00 9.296514987945556641e-01
-1.233716249465942383e+00 -5.104687690734863281e+00 9.278990030288696289e-01
-1.012706875801086426e+00 -4.979002952575683594e+00 8.466132283210754395e-01
-8.314174413681030273e-01 -5.029335021972656250e+00 8.000850677490234375e-01
-6.406658887863159180e-01 -4.982635021209716797e+00 7.409328222274780273e-01
-1.236618757247924805e+00 -5.112789630889892578e+00 7.327224016189575195e-01
-1.029217600822448730e+00 -5.051150798797607422e+00 6.676802039146423340e-01
-8.299059271812438965e-01 -4.993110179901123047e+00 6.080407500267028809e-01
-6.414580345153808594e-01 -4.968228340148925781e+00 5.539352893829345703e-01
-1.219491362571716309e+00 -5.034285068511962891e+00 5.307206511497497559e-01
-1.025373339653015137e+00 -5.023320674896240234e+00 4.765110015869140625e-01
-1.226161718368530273e+00 -5.054110527038574219e+00 3.426965475082397461e-01
-1.042916297912597656e+00 -5.100178241729736328e+00 2.937790751457214355e-01
-1.285800695419311523e+00 -5.176907539367675781e+00 1.571963071823120117e+00
-1.067125797271728516e+00 -5.113197803497314453e+00 1.480032920837402344e+00
-8.602796196937561035e-01 -5.054919242858886719e+00 1.398905873298645020e+00
-6.633268594741821289e-01 -5.012480258941650391e+00 1.329294204711914062e+00
-1.281970500946044922e+00 -5.165339946746826172e+00 1.351627826690673828e+00
-1.062420129776000977e+00 -5.081779479980468750e+00 1.262708187103271484e+00
-8.599703907966613770e-01 -5.037154674530029297e+00 1.191023230552673340e+00
-6.677066683769226074e-01 -5.011943817138671875e+00 1.130200147628784180e+00
-1.268976926803588867e+00 -5.116806030273437500e+00 1.132103562355041504e+00
-1.065973162651062012e+00 -5.089904308319091797e+00 1.063691377639770508e+00
-8.624861836433410645e-01 -5.030716419219970703e+00 9.939885735511779785e-01
-6.680281162261962891e-01 -4.981145381927490234e+00 9.296514987945556641e-01
-1.272130966186523438e+00 -5.125694751739501953e+00 9.331187605857849121e-01
-1.056402921676635742e+00 -5.035445690155029297e+00 8.572965860366821289e-01
-8.644335269927978516e-01 -5.036796569824218750e+00 8.021008372306823730e-01
-6.737381815910339355e-01 -4.997238159179687500e+00 7.437051534652709961e-01
-1.273219347000122070e+00 -5.126252651214599609e+00 7.357575297355651855e-01
-1.057743906974792480e+00 -5.033093929290771484e+00 6.661387681961059570e-01
-8.635658025741577148e-01 -5.005535125732421875e+00 6.101876497268676758e-01
-6.709972023963928223e-01 -4.957304000854492188e+00 5.531659722328186035e-01
-1.264285802841186523e+00 -5.082699775695800781e+00 5.366322994232177734e-01
-1.072176098823547363e+00 -5.092933654785156250e+00 4.837294518947601318e-01
-1.261732935905456543e+00 -5.064888477325439453e+00 3.439458310604095459e-01
-1.082019567489624023e+00 -5.130805969238281250e+00 2.959201633930206299e-01
-1.181637570261955261e-01 -6.820766329765319824e-01 3.252395242452621460e-02
-1.321095228195190430e+00 -5.182863235473632812e+00 1.576203107833862305e+00
-1.100502967834472656e+00 -5.115959644317626953e+00 1.482758998870849609e+00
-8.931244611740112305e-01 -5.059996128082275391e+00 1.401801109313964844e+00
-6.947341561317443848e-01 -5.013105869293212891e+00 1.330565571784973145e+00
-1.313161849975585938e+00 -5.155498504638671875e+00 1.351135492324829102e+00
-1.096856117248535156e+00 -5.090363025665283203e+00 1.266489386558532715e+00
-8.940875530242919922e-01 -5.050003528594970703e+00 1.195336103439331055e+00
-7.000644803047180176e-01 -5.019351005554199219e+00 1.132817864418029785e+00
-1.306137204170227051e+00 -5.131663799285888672e+00 1.137142658233642578e+00
-1.100904941558837891e+00 -5.100505828857421875e+00 1.067298531532287598e+00
-8.950557112693786621e-01 -5.034993648529052734e+00 9.959000349044799805e-01
-6.998094916343688965e-01 -4.985716819763183594e+00 9.312885999679565430e-01
-1.297724127769470215e+00 -5.094889640808105469e+00 9.289429783821105957e-01
-1.088530659675598145e+00 -5.034653663635253906e+00 8.582827448844909668e-01
-8.953225016593933105e-01 -5.031397819519042969e+00 8.021008372306823730e-01
-7.070137262344360352e-01 -5.011622428894042969e+00 7.464774847030639648e-01
-1.307340502738952637e+00 -5.128901004791259766e+00 7.372751832008361816e-01
-1.088816404342651367e+00 -5.027478218078613281e+00 6.662672162055969238e-01
-8.951369524002075195e-01 -5.005029201507568359e+00 6.107839941978454590e-01
-7.039104700088500977e-01 -4.970807552337646484e+00 5.551442503929138184e-01
-1.301846146583557129e+00 -5.099907398223876953e+00 5.392823219299316406e-01
-1.103194475173950195e+00 -5.085286140441894531e+00 4.836369156837463379e-01
-1.299953818321228027e+00 -5.085086822509765625e+00 3.458526134490966797e-01
-1.114117264747619629e+00 -5.126996994018554688e+00 2.960892021656036377e-01
-1.519141197204589844e+00 -6.979114532470703125e+00 1.446262598037719727e-01
-1.360878348350524902e+00 -5.205284118652343750e+00 1.585531473159790039e+00
-1.134786605834960938e+00 -5.122261524200439453e+00 1.486575603485107422e+00
-9.271050095558166504e-01 -5.070554256439208984e+00 1.406275510787963867e+00
-7.289468050003051758e-01 -5.032677650451660156e+00 1.336922168731689453e+00
-1.345260620117187500e+00 -5.149219512939453125e+00 1.351627826690673828e+00
-1.131647944450378418e+00 -5.099663257598876953e+00 1.270506978034973145e+00
-9.280433058738708496e-01 -5.060707569122314453e+00 1.199195027351379395e+00
-7.328197956085205078e-01 -5.028481006622314453e+00 1.135871887207031250e+00
-1.342045426368713379e+00 -5.140581130981445312e+00 1.140921950340270996e+00
-1.132180333137512207e+00 -5.093655109405517578e+00 1.067298531532287598e+00
-9.268216490745544434e-01 -5.034233570098876953e+00 9.968557953834533691e-01
-7.340970635414123535e-01 -5.006624698638916016e+00 9.360178112983703613e-01
-1.340162634849548340e+00 -5.129705905914306641e+00 9.367725849151611328e-01
-1.119402170181274414e+00 -5.027879714965820312e+00 8.582827448844909668e-01
-9.200903177261352539e-01 -4.992776870727539062e+00 7.968289256095886230e-01
-7.397699952125549316e-01 -5.020892143249511719e+00 7.485201954841613770e-01
-1.344297647476196289e+00 -5.141863822937011719e+00 7.403103113174438477e-01
-1.132811069488525391e+00 -5.079747200012207031e+00 6.741026043891906738e-01
-9.287230372428894043e-01 -5.015062332153320312e+00 6.126922965049743652e-01
-7.386140227317810059e-01 -4.994909286499023438e+00 5.583316087722778320e-01
-1.332358121871948242e+00 -5.088936328887939453e+00 5.389765501022338867e-01
-1.133291125297546387e+00 -5.073562622070312500e+00 4.831741750240325928e-01
-1.342518806457519531e+00 -5.120449542999267578e+00 3.488114178180694580e-01
-1.148824930191040039e+00 -5.134679794311523438e+00 2.969343662261962891e-01
-1.551441073417663574e+00 -6.922832489013671875e+00 1.436545252799987793e-01
-1.395523309707641602e+00 -5.207027912139892578e+00 1.588640928268432617e+00
-1.167050361633300781e+00 -5.118954658508300781e+00 1.487666130065917969e+00
-9.598138928413391113e-01 -5.073301315307617188e+00 1.408644318580627441e+00
-7.635701894760131836e-01 -5.052973270416259766e+00 1.343533039093017578e+00
-1.384603381156921387e+00 -5.169891357421875000e+00 1.359258532524108887e+00
-1.166162252426147461e+00 -5.106832981109619141e+00 1.274051904678344727e+00
-9.590777754783630371e-01 -5.054917812347412109e+00 1.199195027351379395e+00
-7.654201388359069824e-01 -5.035468101501464844e+00 1.138489603996276855e+00
-1.376089811325073242e+00 -5.141694068908691406e+00 1.143021583557128906e+00
-1.169092535972595215e+00 -5.111443519592285156e+00 1.072508692741394043e+00
-9.587955474853515625e-01 -5.034237384796142578e+00 9.980027079582214355e-01
-7.668840289115905762e-01 -5.015634536743164062e+00 9.385643005371093750e-01
-1.380274415016174316e+00 -5.153727531433105469e+00 9.426882863044738770e-01
-1.165209770202636719e+00 -5.086298465728759766e+00 8.694592118263244629e-01
-9.638429284095764160e-01 -5.055937767028808594e+00 8.078377842903137207e-01
-7.710143327713012695e-01 -5.019192218780517578e+00 7.489579916000366211e-01
-1.381463050842285156e+00 -5.154565811157226562e+00 7.433455586433410645e-01
-1.161296963691711426e+00 -5.061101436614990234e+00 6.725612282752990723e-01
-9.583566784858703613e-01 -5.003418445587158203e+00 6.119766831398010254e-01
-7.698540091514587402e-01 -4.994212150573730469e+00 5.587711930274963379e-01
-1.365878939628601074e+00 -5.089312553405761719e+00 5.398938655853271484e-01
-1.165515780448913574e+00 -5.071365356445312500e+00 4.836369156837463379e-01
-1.376501798629760742e+00 -5.121751785278320312e+00 3.494689166545867920e-01
-1.173366069793701172e+00 -5.097372055053710938e+00 2.951877117156982422e-01
-1.834854602813720703e+00 -6.822460651397705078e+00 2.096810191869735718e-01
-1.426938652992248535e+00 -5.196516990661621094e+00 1.588075518608093262e+00
-1.198437690734863281e+00 -5.111697196960449219e+00 1.487666130065917969e+00
-9.937022924423217773e-01 -5.081518173217773438e+00 1.412592291831970215e+00
-7.957632541656494141e-01 -5.055835723876953125e+00 1.345567107200622559e+00
-1.420146346092224121e+00 -5.175318241119384766e+00 1.362950801849365234e+00
-1.200807094573974609e+00 -5.113770484924316406e+00 1.277596831321716309e+00
-9.912004470825195312e-01 -5.054671764373779297e+00 1.200556874275207520e+00
-7.982862591743469238e-01 -5.043207645416259766e+00 1.141325473785400391e+00
-1.411491155624389648e+00 -5.147296905517578125e+00 1.146170854568481445e+00
-1.204246878623962402e+00 -5.120386600494384766e+00 1.075915455818176270e+00
-9.945954084396362305e-01 -5.053299427032470703e+00 1.002972722053527832e+00
-7.988815903663635254e-01 -5.018603324890136719e+00 9.400194287300109863e-01
-1.416822314262390137e+00 -5.163204669952392578e+00 9.459941983222961426e-01
-1.194361329078674316e+00 -5.070411682128906250e+00 8.679799437522888184e-01
-9.980936646461486816e-01 -5.066406250000000000e+00 8.104737997055053711e-01
-8.058583736419677734e-01 -5.039766311645507812e+00 7.527516484260559082e-01
-1.421981692314147949e+00 -5.178464889526367188e+00 7.480362653732299805e-01
-1.195973038673400879e+00 -5.069324493408203125e+00 6.746164560317993164e-01
-1.003110408782958984e+00 -5.068544387817382812e+00 6.206834912300109863e-01
-8.039473891258239746e-01 -5.010985374450683594e+00 5.611892342567443848e-01
-1.397871851921081543e+00 -5.083713054656982422e+00 5.401996374130249023e-01
-1.192718505859375000e+00 -5.047645092010498047e+00 4.820636510848999023e-01
-1.000458717346191406e+00 -5.045896530151367188e+00 4.292516410350799561e-01
-1.410816192626953125e+00 -5.123791694641113281e+00 3.501921892166137695e-01
-1.200941920280456543e+00 -5.074531078338623047e+00 2.942861616611480713e-01
-1.868981838226318359e+00 -6.783128261566162109e+00 2.088207006454467773e-01
-1.464250087738037109e+00 -5.207055091857910156e+00 1.594011783599853516e+00
-1.230906724929809570e+00 -5.108924388885498047e+00 1.489029288291931152e+00
-1.029828071594238281e+00 -5.099912643432617188e+00 1.419435501098632812e+00
-8.281763195991516113e-01 -5.059447765350341797e+00 1.347855448722839355e+00
-1.455021381378173828e+00 -5.177704334259033203e+00 1.365904688835144043e+00
-1.237404346466064453e+00 -5.128031253814697266e+00 1.283032417297363281e+00
-1.026641964912414551e+00 -5.070448875427246094e+00 1.205777764320373535e+00
-8.312761783599853516e-01 -5.050733089447021484e+00 1.144161343574523926e+00
-1.446219921112060547e+00 -5.149835109710693359e+00 1.148690462112426758e+00
-1.238173723220825195e+00 -5.123376369476318359e+00 1.078119754791259766e+00
-1.029492378234863281e+00 -5.066339969635009766e+00 1.006795763969421387e+00
-8.317471146583557129e-01 -5.026218414306640625e+00 9.423840045928955078e-01
-1.451140403747558594e+00 -5.163894176483154297e+00 9.477340579032897949e-01
-1.215240240097045898e+00 -5.020804405212402344e+00 8.607482314109802246e-01
-1.020301461219787598e+00 -5.016623020172119141e+00 8.034963011741638184e-01
-8.374153375625610352e-01 -5.038630008697509766e+00 7.533352375030517578e-01
-1.457214951515197754e+00 -5.182037353515625000e+00 7.498298287391662598e-01
-1.234998941421508789e+00 -5.094659805297851562e+00 6.789837479591369629e-01
-1.027434706687927246e+00 -5.029219627380371094e+00 6.166282296180725098e-01
-8.358233571052551270e-01 -5.012821197509765625e+00 5.619585514068603516e-01
-1.439284682273864746e+00 -5.111427783966064453e+00 5.440727472305297852e-01
-1.224372625350952148e+00 -5.043134689331054688e+00 4.823413193225860596e-01
-1.028403759002685547e+00 -5.025018215179443359e+00 4.280043244361877441e-01
-1.444936633110046387e+00 -5.124642848968505859e+00 3.508497178554534912e-01
-1.235594391822814941e+00 -5.081619262695312500e+00 2.951313555240631104e-01
-1.051858663558959961e+00 -5.130506515502929688e+00 2.460650652647018433e-01
-1.914367079734802246e+00 -6.785000801086425781e+00 2.092360258102416992e-01
-1.496703028678894043e+00 -5.199816226959228516e+00 1.594577074050903320e+00
-1.270550727844238281e+00 -5.134897708892822266e+00 1.498843431472778320e+00
-1.065036296844482422e+00 -5.112386703491210938e+00 1.424699425697326660e+00
-8.627707958221435547e-01 -5.075247287750244141e+00 1.353449344635009766e+00
-1.495605587959289551e+00 -5.199417114257812500e+00 1.374027729034423828e+00
-1.270482063293457031e+00 -5.126944065093994141e+00 1.284686803817749023e+00
-1.060920119285583496e+00 -5.079307079315185547e+00 1.209409475326538086e+00
-8.640595078468322754e-01 -5.056118488311767578e+00 1.146560907363891602e+00
-1.485084533691406250e+00 -5.166234970092773438e+00 1.154359340667724609e+00
-1.273126721382141113e+00 -5.129945755004882812e+00 1.081125736236572266e+00
-1.063378453254699707e+00 -5.073377132415771484e+00 1.009471774101257324e+00
-8.662344217300415039e-01 -5.042340755462646484e+00 9.463856220245361328e-01
-1.487970471382141113e+00 -5.172873973846435547e+00 9.510399103164672852e-01
-1.271720528602600098e+00 -5.116639137268066406e+00 8.784989714622497559e-01
-1.072158098220825195e+00 -5.110821247100830078e+00 8.196220397949218750e-01
-8.679797053337097168e-01 -5.031446933746337891e+00 7.530434131622314453e-01
-1.495284914970397949e+00 -5.194889545440673828e+00 7.530029416084289551e-01
-1.263121843338012695e+00 -5.074475288391113281e+00 6.773138642311096191e-01
-1.066666603088378906e+00 -5.062653541564941406e+00 6.215183734893798828e-01
-8.682605028152465820e-01 -5.017391681671142578e+00 5.630576014518737793e-01
-1.476681590080261230e+00 -5.123529434204101562e+00 5.463150739669799805e-01
-1.255052924156188965e+00 -5.034561157226562500e+00 4.822487533092498779e-01
-1.068889617919921875e+00 -5.064441204071044922e+00 4.319126307964324951e-01
-1.484377264976501465e+00 -5.143482685089111328e+00 3.527565002441406250e-01
-1.275215744972229004e+00 -5.107845306396484375e+00 2.971034049987792969e-01
-1.086418390274047852e+00 -5.138615608215332031e+00 2.467690557241439819e-01
-1.960122823715209961e+00 -6.787531375885009766e+00 2.096810191869735718e-01
-1.532915949821472168e+00 -5.205256938934326172e+00 1.599099874496459961e+00
-1.309612154960632324e+00 -5.156846046447753906e+00 1.507567167282104492e+00
-1.098410725593566895e+00 -5.115188121795654297e+00 1.427331447601318359e+00
-8.925521969795227051e-01 -5.062237739562988281e+00 1.351415157318115234e+00
-1.531585097312927246e+00 -5.204089164733886719e+00 1.377719998359680176e+00
-1.301437497138977051e+00 -5.117168903350830078e+00 1.284214138984680176e+00
-1.092066287994384766e+00 -5.072701930999755859e+00 1.209409475326538086e+00
-8.976214528083801270e-01 -5.065135955810546875e+00 1.149833083152770996e+00
-1.523928761482238770e+00 -5.181413173675537109e+00 1.159818291664123535e+00
-1.309657573699951172e+00 -5.141974925994873047e+00 1.085333943367004395e+00
-1.101120114326477051e+00 -5.097458839416503906e+00 1.015588641166687012e+00
-8.983643651008605957e-01 -5.043707370758056641e+00 9.476588368415832520e-01
-1.523018956184387207e+00 -5.174982547760009766e+00 9.531278014183044434e-01
-1.308211326599121094e+00 -5.128811359405517578e+00 8.819504976272583008e-01
-1.103079795837402344e+00 -5.102215290069580078e+00 8.193119764328002930e-01
-9.045829772949218750e-01 -5.058163642883300781e+00 7.578584551811218262e-01
-1.531328916549682617e+00 -5.199868202209472656e+00 7.550723552703857422e-01
-1.296934366226196289e+00 -5.077198982238769531e+00 6.787268519401550293e-01
-1.100659489631652832e+00 -5.069597244262695312e+00 6.231881380081176758e-01
-9.009606838226318359e-01 -5.022731304168701172e+00 5.642666220664978027e-01
-1.516250729560852051e+00 -5.142043590545654297e+00 5.492709279060363770e-01
-1.280985355377197266e+00 -5.007472515106201172e+00 4.803978800773620605e-01
-1.103544473648071289e+00 -5.074341773986816406e+00 4.333263039588928223e-01
-1.520429968833923340e+00 -5.149589538574218750e+00 3.538085222244262695e-01
-1.310992956161499023e+00 -5.117333889007568359e+00 2.981176078319549561e-01
-1.121754884719848633e+00 -5.149420261383056641e+00 2.476138174533843994e-01
-1.915920615196228027e+00 -6.484920978546142578e+00 2.006921470165252686e-01
-1.527363300323486328e+00 -6.993757247924804688e+00 7.621692121028900146e-02
-1.571464776992797852e+00 -5.217796325683593750e+00 1.605884194374084473e+00
-1.341471791267395020e+00 -5.149644374847412109e+00 1.507839679718017578e+00
-1.131859540939331055e+00 -5.117771625518798828e+00 1.429963469505310059e+00
-9.246393442153930664e-01 -5.062374591827392578e+00 1.352940678596496582e+00
-1.568516135215759277e+00 -5.211299419403076172e+00 1.382150769233703613e+00
-1.335754513740539551e+00 -5.120368957519531250e+00 1.287050008773803711e+00
-1.126544117927551270e+00 -5.081118583679199219e+00 1.213041424751281738e+00
-9.330883622169494629e-01 -5.083530426025390625e+00 1.155286669731140137e+00
-1.563578009605407715e+00 -5.198180198669433594e+00 1.165697097778320312e+00
-1.341431140899658203e+00 -5.134789943695068359e+00 1.085534334182739258e+00
-1.135787010192871094e+00 -5.105937004089355469e+00 1.018647193908691406e+00
-9.323273301124572754e-01 -5.054539680480957031e+00 9.507510662078857422e-01
-1.557297825813293457e+00 -5.174027442932128906e+00 9.546937942504882812e-01
-1.346397280693054199e+00 -5.146453380584716797e+00 8.863881826400756836e-01
-1.118694067001342773e+00 -5.024957180023193359e+00 8.079929351806640625e-01
-9.393849968910217285e-01 -5.072945594787597656e+00 7.609225511550903320e-01
-1.566633343696594238e+00 -5.201754570007324219e+00 7.567279338836669922e-01
-1.325549602508544922e+00 -5.059552192687988281e+00 6.774423122406005859e-01
-1.127846360206604004e+00 -5.045307159423828125e+00 6.210412383079528809e-01
-9.362998604774475098e-01 -5.041539669036865234e+00 5.670143365859985352e-01
-1.542603373527526855e+00 -5.115499019622802734e+00 5.474362969398498535e-01
-1.322299242019653320e+00 -5.039968967437744141e+00 4.842847287654876709e-01
-1.134223818778991699e+00 -5.065529823303222656e+00 4.331599771976470947e-01
-1.556325078010559082e+00 -5.154492378234863281e+00 3.547948300838470459e-01
-1.353276968002319336e+00 -5.150715827941894531e+00 3.005403876304626465e-01
-1.159232378005981445e+00 -5.168757438659667969e+00 2.488810122013092041e-01
-1.864323735237121582e+00 -6.170680522918701172e+00 1.913176178932189941e-01
-1.557525753974914551e+00 -6.927669525146484375e+00 7.559943199157714844e-02
-1.612200736999511719e+00 -5.236474990844726562e+00 1.614647150039672852e+00
-1.379498600959777832e+00 -5.165484428405761719e+00 1.514927744865417480e+00
-1.160885095596313477e+00 -5.100383281707763672e+00 1.427068352699279785e+00
-9.576597809791564941e-01 -5.067059516906738281e+00 1.355737686157226562e+00
-1.609583616256713867e+00 -5.231221199035644531e+00 1.390027761459350586e+00
-1.376184701919555664e+00 -5.145869731903076172e+00 1.295557975769042969e+00
-1.163115978240966797e+00 -5.097848415374755859e+00 1.218716263771057129e+00
-9.657193422317504883e-01 -5.085379600524902344e+00 1.157031893730163574e+00
-1.598892450332641602e+00 -5.199702739715576172e+00 1.168216705322265625e+00
-1.376967430114746094e+00 -5.141604423522949219e+00 1.088740587234497070e+00
-1.170599222183227539e+00 -5.114180564880371094e+00 1.021705508232116699e+00
-9.480271339416503906e-01 -4.968554496765136719e+00 9.356539845466613770e-01
-1.598282694816589355e+00 -5.194492340087890625e+00 9.602614641189575195e-01
-1.382038116455078125e+00 -5.153338909149169922e+00 8.890179395675659180e-01
-1.170241117477416992e+00 -5.108517169952392578e+00 8.225681185722351074e-01
-9.719830751419067383e-01 -5.074859142303466797e+00 7.620898485183715820e-01
-1.605807185173034668e+00 -5.215708732604980469e+00 7.601770162582397461e-01
-1.384091854095458984e+00 -5.153805732727050781e+00 6.911863684654235840e-01
-1.162120699882507324e+00 -5.052805423736572266e+00 6.228302717208862305e-01
-9.707787036895751953e-01 -5.054245471954345703e+00 5.691025853157043457e-01
-1.576306819915771484e+00 -5.113543033599853516e+00 5.482516884803771973e-01
-1.364059686660766602e+00 -5.072144985198974609e+00 4.881715774536132812e-01
-1.165955066680908203e+00 -5.061388492584228516e+00 4.334094524383544922e-01
-1.590571641921997070e+00 -5.153427124023437500e+00 3.553865551948547363e-01
-1.385115265846252441e+00 -5.143279552459716797e+00 3.005967438220977783e-01
-1.196315169334411621e+00 -5.184906482696533203e+00 2.500073611736297607e-01
-1.903921008110046387e+00 -6.164855480194091797e+00 1.914956122636795044e-01
-1.851950407028198242e+00 -6.867207527160644531e+00 1.440189331769943237e-01
-1.613748311996459961e+00 -6.977409839630126953e+00 7.624885439872741699e-02
-1.650058150291442871e+00 -5.244784355163574219e+00 1.620300650596618652e+00
-1.417515993118286133e+00 -5.180122852325439453e+00 1.521743178367614746e+00
-1.189520120620727539e+00 -5.081892013549804688e+00 1.423909902572631836e+00
-9.959645867347717285e-01 -5.098106384277343750e+00 1.365653991699218750e+00
-1.650082111358642578e+00 -5.248059749603271484e+00 1.397166132926940918e+00
-1.412355542182922363e+00 -5.154196739196777344e+00 1.299811840057373047e+00
-1.197488307952880859e+00 -5.103889465332031250e+00 1.221894145011901855e+00
-9.974682927131652832e-01 -5.082231044769287109e+00 1.157686233520507812e+00
-1.635163664817810059e+00 -5.203785896301269531e+00 1.171366214752197266e+00
-1.413933992385864258e+00 -5.152899742126464844e+00 1.092948913574218750e+00
-1.204880595207214355e+00 -5.119322776794433594e+00 1.024190545082092285e+00
-1.639577150344848633e+00 -5.214648723602294922e+00 9.658291935920715332e-01
-1.416245818138122559e+00 -5.154273033142089844e+00 8.906614780426025391e-01
-1.646102547645568848e+00 -5.232211112976074219e+00 7.640399932861328125e-01
-1.010091781616210938e+00 -5.090115547180175781e+00 5.738285779953002930e-01
-1.632459998130798340e+00 -5.182528018951416016e+00 5.567114353179931641e-01
-1.929378867149353027e+00 -6.113975048065185547e+00 1.902793049812316895e-01
-1.871953725814819336e+00 -6.775728225708007812e+00 1.423386335372924805e-01
-1.676925897598266602e+00 -5.218122959136962891e+00 1.615212440490722656e+00
-1.452129960060119629e+00 -5.181518554687500000e+00 1.524742007255554199e+00
-1.686401844024658203e+00 -5.250755786895751953e+00 1.400612235069274902e+00
-1.670648217201232910e+00 -5.204825401306152344e+00 1.173885583877563477e+00
-1.049083471298217773e+00 -5.121797561645507812e+00 5.781149864196777344e-01
-1.923019051551818848e+00 -6.797786235809326172e+00 1.430471986532211304e-01
-1.493181824684143066e+00 -5.204879283905029297e+00 1.534283518791198730e+00
-1.269378423690795898e+00 -5.138092041015625000e+00 1.443912982940673828e+00
-1.061801314353942871e+00 -5.101596832275390625e+00 1.369976520538330078e+00
-1.726743221282958984e+00 -5.265175819396972656e+00 1.407258510589599609e+00
-1.486766576766967773e+00 -5.175700664520263672e+00 1.309737682342529297e+00
-1.706207275390625000e+00 -5.205625534057617188e+00 1.176405191421508789e+00
-1.725317597389221191e+00 -5.257729530334472656e+00 7.708002328872680664e-01
-1.078436374664306641e+00 -5.105539321899414062e+00 5.770159363746643066e-01
-1.731464385986328125e+00 -5.260959625244140625e+00 1.643806695938110352e-01
-1.755283117294311523e+00 -6.999869346618652344e+00 7.683440297842025757e-02
-1.743271231651306152e+00 -5.204427719116210938e+00 1.617473840713500977e+00
-1.530509829521179199e+00 -5.214082717895507812e+00 1.539735794067382812e+00
-1.305623769760131836e+00 -5.148909568786621094e+00 1.449177026748657227e+00
-1.096330165863037109e+00 -5.110115528106689453e+00 1.374044775962829590e+00
-1.764555454254150391e+00 -5.271025180816650391e+00 1.411689162254333496e+00
-1.520140051841735840e+00 -5.172074317932128906e+00 1.311155676841735840e+00
-1.305383801460266113e+00 -5.136672973632812500e+00 1.235286593437194824e+00
-1.097012996673583984e+00 -5.091630458831787109e+00 1.164230585098266602e+00
-1.742769360542297363e+00 -5.208966255187988281e+00 1.179554462432861328e+00
-1.524584889411926270e+00 -5.180512428283691406e+00 1.104571700096130371e+00
-1.306663990020751953e+00 -5.126714229583740234e+00 1.030307412147521973e+00
-1.097748875617980957e+00 -5.073538303375244141e+00 9.602094888687133789e-01
-1.757479071617126465e+00 -5.249886989593505859e+00 9.781826734542846680e-01
-1.526213884353637695e+00 -5.179371356964111328e+00 8.997012972831726074e-01
-1.758489608764648438e+00 -5.249861240386962891e+00 7.712140679359436035e-01
-1.102767586708068848e+00 -5.066776275634765625e+00 5.733889937400817871e-01
-1.529592037200927734e+00 -6.992618083953857422e+00 2.687254846096038818e-01
-1.766895413398742676e+00 -5.259711265563964844e+00 1.646773219108581543e-01
-2.049167871475219727e+00 -6.918428897857666016e+00 1.461041122674942017e-01
-1.808987975120544434e+00 -5.292568683624267578e+00 1.648285627365112305e+00
-1.569943428039550781e+00 -5.229474067687988281e+00 1.547096490859985352e+00
-1.337921023368835449e+00 -5.143602848052978516e+00 1.449966669082641602e+00
-1.130586028099060059e+00 -5.116513252258300781e+00 1.377604365348815918e+00
-1.804070949554443359e+00 -5.281194210052490234e+00 1.417350769042968750e+00
-1.561077237129211426e+00 -5.193357467651367188e+00 1.318954467773437500e+00
-1.337368607521057129e+00 -5.130451202392578125e+00 1.235740542411804199e+00
-1.132039189338684082e+00 -5.101952552795410156e+00 1.168157100677490234e+00
-1.786070466041564941e+00 -5.231484889984130859e+00 1.187113165855407715e+00
-1.561990261077880859e+00 -5.189823150634765625e+00 1.108579635620117188e+00
-1.344054341316223145e+00 -5.141391277313232422e+00 1.034894943237304688e+00
-1.128858804702758789e+00 -5.066707134246826172e+00 9.602094888687133789e-01
-1.795707106590270996e+00 -5.256710052490234375e+00 9.814885258674621582e-01
-1.557111263275146484e+00 -5.167075634002685547e+00 8.992081880569458008e-01
-1.346145391464233398e+00 -5.145719528198242188e+00 8.348174691200256348e-01
-1.137555122375488281e+00 -5.088998794555664062e+00 7.690935730934143066e-01
-1.795474171638488770e+00 -5.253031253814697266e+00 7.732835412025451660e-01
-1.569893836975097656e+00 -5.202918529510498047e+00 7.039029598236083984e-01
-1.345309376716613770e+00 -5.124256610870361328e+00 6.364271640777587891e-01
-1.132097244262695312e+00 -5.052155017852783203e+00 5.725097060203552246e-01
-1.800379037857055664e+00 -5.261379241943359375e+00 5.697576999664306641e-01
-1.548089146614074707e+00 -5.124185562133789062e+00 4.975185990333557129e-01
-1.322183847427368164e+00 -5.029024124145507812e+00 4.339084029197692871e-01
-1.141608834266662598e+00 -5.082129478454589844e+00 3.852504789829254150e-01
-1.790590405464172363e+00 -5.226816654205322266e+00 3.640657663345336914e-01
-1.568827748298645020e+00 -5.186290264129638672e+00 3.057804107666015625e-01
-1.375653028488159180e+00 -5.224980354309082031e+00 2.538557946681976318e-01
-1.573786258697509766e+00 -6.988950252532958984e+00 2.689505815505981445e-01
-1.812423825263977051e+00 -5.287539005279541016e+00 1.658936440944671631e-01
-1.895086884498596191e+00 -6.256968021392822266e+00 1.323783844709396362e-01
-1.845849752426147461e+00 -5.294049263000488281e+00 1.652243018150329590e+00
-1.604824304580688477e+00 -5.228940486907958984e+00 1.549822688102722168e+00
-1.376665234565734863e+00 -5.162329196929931641e+00 1.457599401473999023e+00
-1.164532542228698730e+00 -5.120796680450439453e+00 1.380655646324157715e+00
-1.840906858444213867e+00 -5.282838821411132812e+00 1.420796871185302734e+00
-1.602617859840393066e+00 -5.215260505676269531e+00 1.326989650726318359e+00
-1.373349070549011230e+00 -5.139084815979003906e+00 1.239826440811157227e+00
-1.163974642753601074e+00 -5.097764968872070312e+00 1.168811559677124023e+00
-1.819744586944580078e+00 -5.225043773651123047e+00 1.188162922859191895e+00
-1.599567174911499023e+00 -5.198868751525878906e+00 1.112587451934814453e+00
-1.382182121276855469e+00 -5.157698631286621094e+00 1.039864897727966309e+00
-1.172450661659240723e+00 -5.114316940307617188e+00 9.705773591995239258e-01
-1.839269280433654785e+00 -5.278139591217041016e+00 9.875782132148742676e-01
-1.602725744247436523e+00 -5.202672958374023438e+00 9.070973992347717285e-01
-1.378973007202148438e+00 -5.142134189605712891e+00 8.355927467346191406e-01
-1.174746036529541016e+00 -5.107954502105712891e+00 7.730331420898437500e-01
-1.827672362327575684e+00 -5.241915225982666016e+00 7.732835412025451660e-01
-1.606173157691955566e+00 -5.207402706146240234e+00 7.058296799659729004e-01
-1.374145746231079102e+00 -5.106317520141601562e+00 6.352344155311584473e-01
-1.167540907859802246e+00 -5.064484119415283203e+00 5.747078061103820801e-01
-1.827710747718811035e+00 -5.236145496368408203e+00 5.682288408279418945e-01
-1.578913688659667969e+00 -5.112687110900878906e+00 4.973334670066833496e-01
-1.374278903007507324e+00 -5.099717617034912109e+00 4.407271742820739746e-01
-1.175914406776428223e+00 -5.088633060455322266e+00 3.862831294536590576e-01
-1.822627902030944824e+00 -5.215731620788574219e+00 3.640657663345336914e-01
-1.592952370643615723e+00 -5.151766300201416016e+00 3.043154478073120117e-01
-1.412111163139343262e+00 -5.232835769653320312e+00 2.546536326408386230e-01
-1.846812725067138672e+00 -5.281979560852050781e+00 1.660716384649276733e-01
-1.931077599525451660e+00 -6.237581253051757812e+00 1.322164088487625122e-01
-1.618633508682250977e+00 -6.976689338684082031e+00 8.750031702220439911e-03
-1.878298640251159668e+00 -5.282623767852783203e+00 1.652243018150329590e+00
-1.639469504356384277e+00 -5.227257251739501953e+00 1.552276134490966797e+00
-1.415435314178466797e+00 -5.179842472076416016e+00 1.464969038963317871e+00
-1.199895739555358887e+00 -5.130506038665771484e+00 1.385232448577880859e+00
-1.878804445266723633e+00 -5.286969661712646484e+00 1.424981594085693359e+00
-1.643903493881225586e+00 -5.234994411468505859e+00 1.334552288055419922e+00
-1.409743070602416992e+00 -5.148408412933349609e+00 1.244139313697814941e+00
-1.196793556213378906e+00 -5.097177505493164062e+00 1.170338511466979980e+00
-1.850134372711181641e+00 -5.209173202514648438e+00 1.187113165855407715e+00
-1.632024526596069336e+00 -5.190825939178466797e+00 1.112988352775573730e+00
-1.420560240745544434e+00 -5.173730373382568359e+00 1.044834852218627930e+00
-1.205839753150939941e+00 -5.115640640258789062e+00 9.722143411636352539e-01
-1.877226352691650391e+00 -5.282528877258300781e+00 9.905360937118530273e-01
-1.635507225990295410e+00 -5.195563793182373047e+00 9.075905084609985352e-01
-1.422276735305786133e+00 -5.176443099975585938e+00 8.425702452659606934e-01
-1.211301565170288086e+00 -5.122793197631835938e+00 7.763890624046325684e-01
-1.863451600074768066e+00 -5.240867137908935547e+00 7.748011350631713867e-01
-1.644355177879333496e+00 -5.217311859130859375e+00 7.085270881652832031e-01
-1.404132127761840820e+00 -5.093003749847412109e+00 6.346380710601806641e-01
-1.206387639045715332e+00 -5.090108394622802734e+00 5.784447193145751953e-01
-1.928525686264038086e+00 -5.417892932891845703e+00 5.892252922058105469e-01
-1.604861497879028320e+00 -5.085811138153076172e+00 4.956676959991455078e-01
-1.403422713279724121e+00 -5.083504199981689453e+00 4.400619566440582275e-01
-1.206423997879028320e+00 -5.078410625457763672e+00 3.860618472099304199e-01
-1.858950972557067871e+00 -5.216669082641601562e+00 3.649205267429351807e-01
-1.643783211708068848e+00 -5.202825069427490234e+00 3.079214990139007568e-01
-1.457766890525817871e+00 -5.273174762725830078e+00 2.570471763610839844e-01
-1.660358905792236328e+00 -6.973000049591064453e+00 2.691006660461425781e-01
-1.874152183532714844e+00 -5.256425857543945312e+00 1.656266450881958008e-01
-1.955443859100341797e+00 -6.181766033172607422e+00 1.312851756811141968e-01
-1.660019397735595703e+00 -6.960790157318115234e+00 8.742701262235641479e-03
-1.895313024520874023e+00 -5.228615283966064453e+00 1.638957262039184570e+00
-1.680612802505493164e+00 -5.245502948760986328e+00 1.560727357864379883e+00
-1.454211711883544922e+00 -5.196144104003906250e+00 1.472075462341308594e+00
-1.235873699188232422e+00 -5.141853809356689453e+00 1.390317678451538086e+00
-1.899324059486389160e+00 -5.242536067962646484e+00 1.416119933128356934e+00
-1.681336164474487305e+00 -5.241463184356689453e+00 1.338806271553039551e+00
-1.445776820182800293e+00 -5.155602455139160156e+00 1.247998118400573730e+00
-1.234455823898315430e+00 -5.116301536560058594e+00 1.176446557044982910e+00
-1.892048716545104980e+00 -5.225302219390869141e+00 1.193411946296691895e+00
-1.670135140419006348e+00 -5.200302600860595703e+00 1.117196559906005859e+00
-1.455732941627502441e+00 -5.177200317382812500e+00 1.047319889068603516e+00
-1.239289283752441406e+00 -5.116746425628662109e+00 9.738513827323913574e-01
-1.912622809410095215e+00 -5.279243469238281250e+00 9.921020269393920898e-01
-1.665845990180969238e+00 -5.180735111236572266e+00 9.067686796188354492e-01
-1.458293199539184570e+00 -5.182834625244140625e+00 8.450511097908020020e-01
-1.244813561439514160e+00 -5.123916625976562500e+00 7.777023315429687500e-01
-1.897599101066589355e+00 -5.234921455383300781e+00 7.756289243698120117e-01
-1.676640987396240234e+00 -5.208068370819091797e+00 7.086555361747741699e-01
-1.454238533973693848e+00 -5.151178836822509766e+00 6.429870128631591797e-01
-1.227720856666564941e+00 -5.042049884796142578e+00 5.738285779953002930e-01
-2.000417947769165039e+00 -5.512562274932861328e+00 6.008447408676147461e-01
-1.660779356956481934e+00 -5.152631282806396484e+00 5.031637549400329590e-01
-1.451937675476074219e+00 -5.136170864105224609e+00 4.453839361667633057e-01
-1.238271236419677734e+00 -5.073819637298583984e+00 3.862831294536590576e-01
-1.888539910316467285e+00 -5.198599338531494141e+00 3.644602596759796143e-01
-1.683035135269165039e+00 -5.215445041656494141e+00 3.092737793922424316e-01
-1.481117010116577148e+00 -5.232413768768310547e+00 2.554984092712402344e-01
-1.703113198280334473e+00 -6.962680816650390625e+00 2.691006660461425781e-01
-1.912516117095947266e+00 -5.261736869812011719e+00 1.661606431007385254e-01
-1.981349945068359375e+00 -6.132547855377197266e+00 1.304956376552581787e-01
-1.707933425903320312e+00 -6.971841812133789062e+00 8.769580163061618805e-03
-1.895447373390197754e+00 -5.130508899688720703e+00 1.611820340156555176e+00
-1.719049572944641113e+00 -5.254294872283935547e+00 1.566452264785766602e+00
-1.488724231719970703e+00 -5.196397781372070312e+00 1.474707365036010742e+00
-1.272499442100524902e+00 -5.154830455780029297e+00 1.395911455154418945e+00
-1.882103562355041504e+00 -5.097126960754394531e+00 1.379935503005981445e+00
-1.719817280769348145e+00 -5.250439167022705078e+00 1.343769073486328125e+00
-1.484101653099060059e+00 -5.170036792755126953e+00 1.253672838211059570e+00
-1.275214314460754395e+00 -5.146521568298339844e+00 1.185172200202941895e+00
-1.865174531936645508e+00 -5.053994178771972656e+00 1.156878829002380371e+00
-1.706896781921386719e+00 -5.204851627349853516e+00 1.120402812957763672e+00
-1.491544604301452637e+00 -5.182320117950439453e+00 1.050187230110168457e+00
-1.276357650756835938e+00 -5.131947994232177734e+00 9.782168269157409668e-01
-1.934405565261840820e+00 -5.238771438598632812e+00 9.867083430290222168e-01
-1.708988189697265625e+00 -5.205091953277587891e+00 9.128500223159790039e-01
-1.497995853424072266e+00 -5.201319217681884766e+00 8.495476841926574707e-01
-1.278145432472229004e+00 -5.123861312866210938e+00 7.788695693016052246e-01
-1.930714011192321777e+00 -5.225966930389404297e+00 7.760428190231323242e-01
-1.717236757278442383e+00 -5.224061489105224609e+00 7.122520804405212402e-01
-1.475896239280700684e+00 -5.107820034027099609e+00 6.386932730674743652e-01
-1.255019187927246094e+00 -5.019958019256591797e+00 5.721799731254577637e-01
-2.027303457260131836e+00 -5.481523990631103516e+00 5.988062024116516113e-01
-1.698900580406188965e+00 -5.162205696105957031e+00 5.051072239875793457e-01
-1.484809994697570801e+00 -5.131951332092285156e+00 4.457996785640716553e-01
-1.276651859283447266e+00 -5.095147132873535156e+00 3.884959220886230469e-01
-1.877788305282592773e+00 -5.071815490722656250e+00 3.563728332519531250e-01
-1.713130116462707520e+00 -5.199330329895019531e+00 3.089357018470764160e-01
-1.546549320220947266e+00 -5.338360786437988281e+00 2.611302733421325684e-01
-1.942335009574890137e+00 -5.243341922760009766e+00 1.659529805183410645e-01
-1.756533145904541016e+00 -6.984505653381347656e+00 8.798900991678237915e-03
-1.914726376533508301e+00 -5.086464405059814453e+00 1.601644039154052734e+00
-1.757961988449096680e+00 -5.263724803924560547e+00 1.572449803352355957e+00
-1.519223809242248535e+00 -5.182536125183105469e+00 1.473391413688659668e+00
-1.306005358695983887e+00 -5.154425621032714844e+00 1.397945523262023926e+00
-1.914367437362670898e+00 -5.088203907012939453e+00 1.380673885345458984e+00
-1.758779764175415039e+00 -5.260061264038085938e+00 1.348968267440795898e+00
-1.519364356994628906e+00 -5.172980308532714844e+00 1.256623744964599609e+00
-1.308933496475219727e+00 -5.147112846374511719e+00 1.187135577201843262e+00
-1.898214936256408691e+00 -5.047945499420166016e+00 1.158138632774353027e+00
-1.745643138885498047e+00 -5.214719772338867188e+00 1.124811649322509766e+00
-1.526641726493835449e+00 -5.184369087219238281e+00 1.052480936050415039e+00
-1.306849837303161621e+00 -5.120208263397216797e+00 9.774891734123229980e-01
-1.898547291755676270e+00 -5.046155929565429688e+00 9.526059031486511230e-01
-1.749670386314392090e+00 -5.220695495605468750e+00 9.174520373344421387e-01
-1.531557679176330566e+00 -5.197715282440185547e+00 8.504779934883117676e-01
-1.315939307212829590e+00 -5.140840530395507812e+00 7.826632261276245117e-01
-1.911101579666137695e+00 -5.076835155487060547e+00 7.556242346763610840e-01
-1.754621744155883789e+00 -5.229410171508789062e+00 7.144357562065124512e-01
-1.519312143325805664e+00 -5.139609813690185547e+00 6.438218951225280762e-01
-1.300863385200500488e+00 -5.070891380310058594e+00 5.788843631744384766e-01
-1.881294012069702148e+00 -4.992365360260009766e+00 5.466209053993225098e-01
-1.747664809226989746e+00 -5.202653884887695312e+00 5.101045966148376465e-01
-1.540311932563781738e+00 -5.203966617584228516e+00 4.528679549694061279e-01
-1.312360763549804688e+00 -5.104603290557861328e+00 3.898236453533172607e-01
-1.905351281166076660e+00 -5.050861835479736328e+00 3.557153344154357910e-01
-1.740544795989990234e+00 -5.175472259521484375e+00 3.081468939781188965e-01
-1.560826301574707031e+00 -5.266518592834472656e+00 2.580796778202056885e-01
-1.746291279792785645e+00 -6.777716636657714844e+00 2.627604901790618896e-01
-1.990001320838928223e+00 -5.272472858428955078e+00 1.672582924365997314e-01
-1.937314391136169434e+00 -5.052229404449462891e+00 1.594577074050903320e+00
-1.800468802452087402e+00 -5.282891273498535156e+00 1.581446051597595215e+00
-1.563739418983459473e+00 -5.215625286102294922e+00 1.485498547554016113e+00
-1.343203425407409668e+00 -5.167844295501708984e+00 1.403793692588806152e+00
-1.956998467445373535e+00 -5.106228351593017578e+00 1.388796925544738770e+00
-1.796983480453491211e+00 -5.266643524169921875e+00 1.353458642959594727e+00
-1.558641433715820312e+00 -5.188744068145751953e+00 1.262752532958984375e+00
-1.343446850776672363e+00 -5.150316238403320312e+00 1.189753293991088867e+00
-1.937196731567382812e+00 -5.057202339172363281e+00 1.162967681884765625e+00
-1.787424683570861816e+00 -5.232650756835937500e+00 1.131023764610290527e+00
-1.566065907478332520e+00 -5.200281143188476562e+00 1.057642102241516113e+00
-1.347705125808715820e+00 -5.148241519927978516e+00 9.844011068344116211e-01
-1.932293534278869629e+00 -5.041767597198486328e+00 9.539977908134460449e-01
-1.790608048439025879e+00 -5.235994815826416016e+00 9.220540523529052734e-01
-1.568267107009887695e+00 -5.204300403594970703e+00 8.531140089035034180e-01
-1.356752634048461914e+00 -5.168073177337646484e+00 7.880619168281555176e-01
-1.940797924995422363e+00 -5.061314105987548828e+00 7.550723552703857422e-01
-1.797276258468627930e+00 -5.249507904052734375e+00 7.186746001243591309e-01
-1.561449646949768066e+00 -5.165355205535888672e+00 6.482349634170532227e-01
-1.334987998008728027e+00 -5.074348926544189453e+00 5.802032351493835449e-01
-1.923655509948730469e+00 -5.011375904083251953e+00 5.499843955039978027e-01
-1.802800178527832031e+00 -5.259650230407714844e+00 5.167677998542785645e-01
-1.564707875251770020e+00 -5.169618606567382812e+00 4.507059156894683838e-01
-1.342386126518249512e+00 -5.091632843017578125e+00 3.894548118114471436e-01
-1.940959811210632324e+00 -5.051184654235839844e+00 3.565700948238372803e-01
-1.795276284217834473e+00 -5.231744766235351562e+00 3.121473193168640137e-01
-1.617447257041931152e+00 -5.337143421173095703e+00 2.620219886302947998e-01
-1.777124881744384766e+00 -6.726295948028564453e+00 2.611848413944244385e-01
-2.017652273178100586e+00 -5.248034477233886719e+00 1.668726354837417603e-01
-1.826229333877563477e+00 -5.315902233123779297e+00 1.138142272830009460e-01
-1.839485287666320801e+00 -5.290829181671142578e+00 1.587171077728271484e+00
-1.602215290069580078e+00 -5.227147579193115234e+00 1.491552233695983887e+00
-1.377377629280090332e+00 -5.168849945068359375e+00 1.406336307525634766e+00
-1.996045827865600586e+00 -5.113987445831298828e+00 1.394212245941162109e+00
-1.835333943367004395e+00 -5.272953987121582031e+00 1.357948899269104004e+00
-1.595595836639404297e+00 -5.195840358734130859e+00 1.266838431358337402e+00
-1.383090853691101074e+00 -5.172144889831542969e+00 1.196733832359313965e+00
-1.973165512084960938e+00 -5.057972908020019531e+00 1.165907144546508789e+00
-1.825300812721252441e+00 -5.238237857818603516e+00 1.134630918502807617e+00
-1.603431940078735352e+00 -5.208397865295410156e+00 1.061273932456970215e+00
-1.385640144348144531e+00 -5.163618564605712891e+00 9.889484643936157227e-01
-1.971786141395568848e+00 -5.051833152770996094e+00 9.581736326217651367e-01
-1.836997628211975098e+00 -5.265889167785644531e+00 9.292858839035034180e-01
-1.606568813323974609e+00 -5.215350151062011719e+00 8.565251827239990234e-01
-1.389980196952819824e+00 -5.165382862091064453e+00 7.889373302459716797e-01
-1.981544733047485352e+00 -5.074220180511474609e+00 7.587974071502685547e-01
-1.830760836601257324e+00 -5.242126464843750000e+00 7.191883921623229980e-01
-1.608063340187072754e+00 -5.204055786132812500e+00 6.543176770210266113e-01
-1.367651104927062988e+00 -5.071819782257080078e+00 5.808627009391784668e-01
-1.955817222595214844e+00 -5.003183841705322266e+00 5.503920912742614746e-01
-1.858699798583984375e+00 -5.316163539886474609e+00 5.234310030937194824e-01
-1.592275142669677734e+00 -5.146592140197753906e+00 4.495417177677154541e-01
-1.399877786636352539e+00 -5.180537700653076172e+00 3.969046175479888916e-01
-1.988279700279235840e+00 -5.080995082855224609e+00 3.595289289951324463e-01
-1.825364708900451660e+00 -5.214976310729980469e+00 3.118092715740203857e-01
-1.648391485214233398e+00 -5.321393489837646484e+00 2.617403864860534668e-01
-1.813400626182556152e+00 -6.696938514709472656e+00 2.604720294475555420e-01
-2.059654712677001953e+00 -5.260685920715332031e+00 1.676736176013946533e-01
-1.847901940345764160e+00 -5.273459911346435547e+00 1.131461560726165771e-01
-1.990661501884460449e+00 -5.006682872772216797e+00 1.587792873382568359e+00
-1.871271491050720215e+00 -5.277628421783447266e+00 1.586625814437866211e+00
-1.637142062187194824e+00 -5.226424217224121094e+00 1.494184136390686035e+00
-1.415945649147033691e+00 -5.185491561889648438e+00 1.413201332092285156e+00
-2.038125514984130859e+00 -5.128665447235107422e+00 1.401596903800964355e+00
-1.872204184532165527e+00 -5.274413108825683594e+00 1.361257433891296387e+00
-1.632403969764709473e+00 -5.201748847961425781e+00 1.270697116851806641e+00
-1.412737369537353516e+00 -5.156031608581542969e+00 1.194988727569580078e+00
-2.015351772308349609e+00 -5.073938846588134766e+00 1.172415852546691895e+00
-1.863968610763549805e+00 -5.245402812957763672e+00 1.138638734817504883e+00
-1.637716412544250488e+00 -5.205952167510986328e+00 1.062803149223327637e+00
-1.420686244964599609e+00 -5.167344570159912109e+00 9.913130402565002441e-01
-2.018020629882812500e+00 -5.078074455261230469e+00 9.654812812805175781e-01
-1.873241186141967773e+00 -5.265670299530029297e+00 9.312582015991210938e-01
