-2.242404967546463013e-02 -7.583345174789428711e-01 2.251668088138103485e-02
-4.514449462294578552e-02 -6.881967782974243164e-01 2.032442688941955566e-01
-3.336625173687934875e-02 -6.952000856399536133e-01 6.468851864337921143e-02
-2.153740264475345612e-02 -7.161860466003417969e-01 5.978921800851821899e-02
-2.567896805703639984e-02 -7.090691924095153809e-01 5.920712277293205261e-02
-7.582500576972961426e-02 -6.908559799194335938e-01 6.459597498178482056e-02
-5.447623133659362793e-02 -7.359447479248046875e-01 7.856975309550762177e-03
-6.453700363636016846e-02 -7.012597918510437012e-01 3.308714181184768677e-02
-4.170067235827445984e-02 -7.463093400001525879e-01 2.806179970502853394e-02
-7.721430063247680664e-02 -6.979673504829406738e-01 3.299327567219734192e-02
-5.350398644804954529e-02 -7.195051908493041992e-01 2.708639018237590790e-02
-1.246372461318969727e-01 -7.201441526412963867e-01 1.479868311434984207e-02
-1.288770735263824463e-01 -7.183817625045776367e-01 1.477843895554542542e-02
-9.157101064920425415e-02 -7.388225197792053223e-01 2.794925309717655182e-02
-1.175872832536697388e-01 -7.007016539573669434e-01 2.667371556162834167e-02
-6.714021563529968262e-01 -2.127594709396362305e+00 6.621506065130233765e-02
-7.015572190284729004e-01 -2.177828311920166016e+00 1.507680714130401611e-01
-6.868973970413208008e-01 -2.131045818328857422e+00 6.645238399505615234e-02
-7.189599275588989258e-01 -2.185804843902587891e+00 1.516228318214416504e-01
-7.018352150917053223e-01 -2.132487773895263672e+00 6.663038581609725952e-02
-7.212427258491516113e-01 -2.148244380950927734e+00 1.493215411901473999e-01
-7.247741222381591797e-01 -2.157514572143554688e+00 6.755004078149795532e-02
-7.389379143714904785e-01 -2.156994104385375977e+00 1.502420604228973389e-01
-7.347576618194580078e-01 -2.143571376800537109e+00 6.725338101387023926e-02
-7.333962321281433105e-01 -2.098726749420166016e+00 1.464942246675491333e-01
-7.502058148384094238e-01 -2.145627498626708984e+00 6.746104359626770020e-02
-6.649814248085021973e-01 -2.147958993911743164e+00 4.552973806858062744e-02
-7.026308774948120117e-01 -2.223934173583984375e+00 1.316202431917190552e-01
-7.589930891990661621e-01 -2.128744363784790039e+00 6.707537919282913208e-02
-6.871945261955261230e-01 -2.172435522079467773e+00 4.613707214593887329e-02
-7.030788064002990723e-01 -2.178724050521850586e+00 1.291974484920501709e-01
-6.971302628517150879e-01 -2.157713174819946289e+00 4.591438546776771545e-02
-7.167463898658752441e-01 -2.175317049026489258e+00 1.292537897825241089e-01
-7.072245478630065918e-01 -2.143900394439697266e+00 4.571193829178810120e-02
-7.361273169517517090e-01 -2.188858509063720703e+00 1.303243339061737061e-01
-7.232372760772705078e-01 -2.148048400878906250e+00 4.589414224028587341e-02
-7.365816831588745117e-01 -2.146526098251342773e+00 1.280705481767654419e-01
-7.422508001327514648e-01 -2.160589933395385742e+00 4.625853896141052246e-02
-6.591751575469970703e-01 -2.171005725860595703e+00 2.415647171437740326e-02
-7.556759119033813477e-01 -2.158928632736206055e+00 1.290847510099411011e-01
-6.753764748573303223e-01 -2.180273294448852539e+00 1.072398796677589417e-01
-7.525182962417602539e-01 -2.147503137588500977e+00 4.607633873820304871e-02
-6.751512289047241211e-01 -2.175515413284301758e+00 2.425228990614414215e-02
-6.863303184509277344e-01 -2.168469667434692383e+00 1.068644225597381592e-01
-7.636625170707702637e-01 -2.137196540832519531e+00 4.595487564802169800e-02
-6.872783303260803223e-01 -2.167519092559814453e+00 2.420970425009727478e-02
-7.017737030982971191e-01 -2.170870780944824219e+00 1.071929484605789185e-01
-6.971761584281921387e-01 -2.152796745300292969e+00 2.409259416162967682e-02
-7.147675752639770508e-01 -2.165575265884399414e+00 1.071460098028182983e-01
-7.141392230987548828e-01 -2.159871339797973633e+00 2.422034926712512970e-02
-7.328252792358398438e-01 -2.175348281860351562e+00 1.078499928116798401e-01
-7.235417962074279785e-01 -2.144079208374023438e+00 2.409259416162967682e-02
-7.419381141662597656e-01 -2.158530235290527344e+00 1.072398796677589417e-01
-7.396138310432434082e-01 -2.148108720779418945e+00 2.418841049075126648e-02
-6.720602512359619141e-01 -2.207983493804931641e+00 2.819753251969814301e-03
-7.558296322822570801e-01 -2.155822515487670898e+00 1.073337495326995850e-01
-6.736702919006347656e-01 -2.168153047561645508e+00 8.523584157228469849e-02
-7.676903009414672852e-01 -2.185985565185546875e+00 2.466749586164951324e-02
-6.811397671699523926e-01 -2.189495563507080078e+00 2.801427617669105530e-03
-6.946840882301330566e-01 -2.192286252975463867e+00 1.700914353132247925e-01
-6.905894875526428223e-01 -2.175408124923706055e+00 8.568603545427322388e-02
-7.706382274627685547e-01 -2.152050256729125977e+00 2.433745935559272766e-02
-6.857771873474121094e-01 -2.157637357711791992e+00 2.765997312963008881e-03
-7.118076086044311523e-01 -2.199368476867675781e+00 1.709765642881393433e-01
-7.014588713645935059e-01 -2.163525104522705078e+00 8.538590371608734131e-02
-7.042520046234130859e-01 -2.169558286666870117e+00 2.786766737699508667e-03
-7.162153124809265137e-01 -2.167498826980590820e+00 1.688375174999237061e-01
-7.150349020957946777e-01 -2.160129070281982422e+00 8.542342483997344971e-02
-7.112593650817871094e-01 -2.146211624145507812e+00 2.762332092970609665e-03
-7.170720696449279785e-01 -2.126209020614624023e+00 1.659608483314514160e-01
-7.324336767196655273e-01 -2.168008565902709961e+00 8.591112494468688965e-02
-7.228128314018249512e-01 -2.137070417404174805e+00 2.756223315373063087e-03
-7.398608922958374023e-01 -2.146467924118041992e+00 8.523584157228469849e-02
-7.404789328575134277e-01 -2.145829439163208008e+00 2.773327752947807312e-03
-7.410156726837158203e-01 -2.105400800704956055e+00 2.726901788264513016e-03
-4.047065734863281250e+00 -6.832324028015136719e+00 9.701759554445743561e-03
-4.150186538696289062e+00 -6.909374713897705078e+00 9.847145527601242065e-03
-4.189902782440185547e+00 -6.879509449005126953e+00 9.841036982834339142e-03
-4.240967273712158203e+00 -6.868135929107666016e+00 9.861806407570838928e-03
-4.248540401458740234e+00 -6.786888599395751953e+00 9.782393462955951691e-03
-4.320108890533447266e+00 -6.807976722717285156e+00 9.850811213254928589e-03
-4.335834026336669922e+00 -6.740970134735107422e+00 9.792167693376541138e-03
-4.355269432067871094e+00 -6.680730819702148438e+00 9.743298403918743134e-03
-4.354836463928222656e+00 -6.591306209564208984e+00 9.651669301092624664e-03
-4.318977355957031250e+00 -6.450621604919433594e+00 9.484292007982730865e-03
-4.410690307617187500e+00 -6.500958442687988281e+00 9.597912430763244629e-03
-4.447097301483154297e+00 -6.468828201293945312e+00 9.590581990778446198e-03
-4.462128639221191406e+00 -6.406135082244873047e+00 9.538047946989536285e-03
-4.510000705718994141e+00 -6.390891551971435547e+00 9.556373581290245056e-03
-4.604961395263671875e+00 -6.441192626953125000e+00 9.673659689724445343e-03
-4.615655899047851562e+00 -6.373130798339843750e+00 9.613795205950737000e-03
-4.659405708312988281e+00 -6.351140022277832031e+00 9.623569436371326447e-03
-4.644606590270996094e+00 -6.250192642211914062e+00 9.513612836599349976e-03
-4.690687656402587891e+00 -6.231963157653808594e+00 9.529495611786842346e-03
-4.717925548553466797e+00 -6.188749790191650391e+00 9.507505223155021667e-03
-4.722808837890625000e+00 -6.116941452026367188e+00 9.441531263291835785e-03
-4.778116226196289062e+00 -6.110693454742431641e+00 9.476961567997932434e-03
-4.834765434265136719e+00 -6.105563640594482422e+00 9.514835663139820099e-03
-4.771416664123535156e+00 -5.950179100036621094e+00 9.318136610090732574e-03
-4.805314540863037109e+00 -5.917685031890869141e+00 9.313249029219150543e-03
-4.887263298034667969e+00 -5.943702220916748047e+00 9.401214309036731720e-03
-4.917243003845214844e+00 -5.905918121337890625e+00 9.388997219502925873e-03
-4.956611156463623047e+00 -5.879457950592041016e+00 9.395105764269828796e-03
-5.002981185913085938e+00 -5.861103534698486328e+00 9.414653293788433075e-03
-4.862300395965576172e+00 -5.626015663146972656e+00 9.084786288440227509e-03
-5.005384922027587891e+00 -5.720248222351074219e+00 9.286371059715747833e-03
-5.012538433074951172e+00 -5.657990932464599609e+00 9.235058911144733429e-03
-5.087223052978515625e+00 -5.671793937683105469e+00 9.308362379670143127e-03
-5.113861560821533203e+00 -5.631588459014892578e+00 9.293701499700546265e-03
-5.124632358551025391e+00 -5.574338436126708984e+00 9.250941686332225800e-03
-5.029975414276123047e+00 -5.404438972473144531e+00 9.020034223794937134e-03
-5.139847755432128906e+00 -5.454989433288574219e+00 9.156867861747741699e-03
-5.242244720458984375e+00 -5.495708942413330078e+00 9.279040619730949402e-03
-5.237661361694335938e+00 -5.423875331878662109e+00 9.211845695972442627e-03
-5.228200912475585938e+00 -5.348016262054443359e+00 9.137320332229137421e-03
-5.259510517120361328e+00 -5.314414501190185547e+00 9.134876541793346405e-03
-5.351472854614257812e+00 -5.341383457183837891e+00 9.237502701580524445e-03
-5.330739498138427734e+00 -5.255790710449218750e+00 9.145872667431831360e-03
-5.226057529449462891e+00 -5.089722633361816406e+00 8.912522345781326294e-03
-5.274484634399414062e+00 -5.074198722839355469e+00 8.941843174397945404e-03
-5.317118644714355469e+00 -5.052761554718017578e+00 8.961391635239124298e-03
-5.323231697082519531e+00 -4.996771812438964844e+00 8.919851854443550110e-03
-5.339859008789062500e+00 -4.951097011566162109e+00 8.896639570593833923e-03
-5.381937026977539062e+00 -4.929045200347900391e+00 8.916187100112438202e-03
-5.391315460205078125e+00 -4.877145290374755859e+00 8.881978690624237061e-03
-5.440527439117431641e+00 -4.861296653747558594e+00 8.913744240999221802e-03
-5.451508998870849609e+00 -4.811280250549316406e+00 8.883200585842132568e-03
-5.442483901977539062e+00 -4.744227886199951172e+00 8.820892311632633209e-03
-5.432084560394287109e+00 -4.676815986633300781e+00 8.757362142205238342e-03
-5.475914955139160156e+00 -4.656353473663330078e+00 8.781796321272850037e-03
-5.507445812225341797e+00 -4.625238895416259766e+00 8.786683902144432068e-03
-8.991676330566406250e+00 -6.925147533416748047e+00 1.208355948328971863e-01
-5.523406505584716797e+00 -4.581143856048583984e+00 8.767135441303253174e-03
-5.527430534362792969e+00 -4.527523517608642578e+00 8.729262277483940125e-03
-5.539556980133056641e+00 -4.480944633483886719e+00 8.704828098416328430e-03
-9.101555824279785156e+00 -6.746558189392089844e+00 1.206226721405982971e-01
-5.531006336212158203e+00 -4.418160438537597656e+00 8.648628368973731995e-03
-9.121800422668457031e+00 -6.675231456756591797e+00 1.203458681702613831e-01
-5.618467330932617188e+00 -4.431826591491699219e+00 8.742701262235641479e-03
-9.070993423461914062e+00 -6.552967548370361328e+00 1.191428378224372864e-01
-5.621098041534423828e+00 -4.378220081329345703e+00 8.704828098416328430e-03
-9.440756797790527344e+00 -6.732317447662353516e+00 1.234545856714248657e-01
-5.530539512634277344e+00 -4.253421306610107422e+00 8.524011820554733276e-03
-9.508872032165527344e+00 -6.693256855010986328e+00 1.238059177994728088e-01
-5.672012805938720703e+00 -4.307096481323242188e+00 8.701162412762641907e-03
-9.347745895385742188e+00 -6.494433403015136719e+00 1.211869195103645325e-01
-5.629525184631347656e+00 -4.220624446868896484e+00 8.596093393862247467e-03
-9.391542434692382812e+00 -6.439781665802001953e+00 1.212401539087295532e-01
-5.636026382446289062e+00 -4.171724796295166016e+00 8.566772565245628357e-03
-9.730667114257812500e+00 -6.584906578063964844e+00 1.250941157341003418e-01
-5.660709857940673828e+00 -4.136473655700683594e+00 8.565550670027732849e-03
-9.608732223510742188e+00 -6.416787624359130859e+00 1.230180859565734863e-01
-5.644622802734375000e+00 -4.071825981140136719e+00 8.503242395818233490e-03
-9.257999420166015625e+00 -6.100759029388427734e+00 1.180462613701820374e-01
-5.623884201049804688e+00 -4.004631996154785156e+00 8.434825576841831207e-03
-9.743758201599121094e+00 -6.335455417633056641e+00 1.237420290708541870e-01
-5.724435806274414062e+00 -4.023527622222900391e+00 8.548445999622344971e-03
-9.509755134582519531e+00 -6.100614547729492188e+00 1.202926337718963623e-01
-5.655349254608154297e+00 -3.923346757888793945e+00 8.409169502556324005e-03
-9.546163558959960938e+00 -6.041613578796386719e+00 1.202819868922233582e-01
-5.678490638732910156e+00 -3.888007402420043945e+00 8.407947607338428497e-03
-9.987649917602539062e+00 -6.235524177551269531e+00 1.253602802753448486e-01
-5.643411636352539062e+00 -3.813340187072753906e+00 8.321204222738742828e-03
-1.023091983795166016e+01 -6.300490379333496094e+00 1.279260367155075073e-01
-5.659215927124023438e+00 -3.773648023605346680e+00 8.310209028422832489e-03
-1.007623767852783203e+01 -6.120277881622314453e+00 1.255199760198593140e-01
-5.750764846801757812e+00 -3.783925533294677734e+00 8.410390466451644897e-03
-9.111677169799804688e+00 -5.458154678344726562e+00 1.130850836634635925e-01
-5.759615898132324219e+00 -3.739310979843139648e+00 8.389621041715145111e-03
-9.485931396484375000e+00 -5.603541374206542969e+00 1.173010170459747314e-01
-5.774872779846191406e+00 -3.699045896530151367e+00 8.378625847399234772e-03
-1.037295532226562500e+01 -6.041976928710937500e+00 1.278089135885238647e-01
-5.786471366882324219e+00 -3.656597852706909180e+00 8.362743072211742401e-03
-1.032312107086181641e+01 -5.928418636322021484e+00 1.267443001270294189e-01
-5.807950496673583984e+00 -3.620494842529296875e+00 8.361522108316421509e-03
-1.003473186492919922e+01 -5.681208133697509766e+00 1.227732226252555847e-01
-5.756796836853027344e+00 -3.539744377136230469e+00 8.256453089416027069e-03
-9.960255622863769531e+00 -5.558616638183593750e+00 1.214424297213554382e-01
-5.758741855621337891e+00 -3.492427825927734375e+00 8.228353224694728851e-03
-1.023861980438232422e+01 -5.631855964660644531e+00 1.244127526879310608e-01
-5.701107025146484375e+00 -3.409804105758666992e+00 8.115953765809535980e-03
-1.007694721221923828e+01 -5.462656974792480469e+00 1.220386251807212830e-01
-5.733119487762451172e+00 -3.381362915039062500e+00 8.131836540997028351e-03
-9.643702507019042969e+00 -5.151488304138183594e+00 1.164067313075065613e-01
-5.759809970855712891e+00 -3.349640607833862305e+00 8.140387944877147675e-03
-9.319413185119628906e+00 -4.904997825622558594e+00 1.121269166469573975e-01
-5.775050163269042969e+00 -3.311251640319824219e+00 8.133058436214923859e-03
-9.401708602905273438e+00 -4.874879360198974609e+00 1.127550452947616577e-01
-5.806575775146484375e+00 -3.282151222229003906e+00 8.148941211402416229e-03
-1.037360763549804688e+01 -5.298309326171875000e+00 1.240188330411911011e-01
-5.801272392272949219e+00 -3.232345819473266602e+00 8.113509975373744965e-03
-1.053366374969482422e+01 -5.298816680908203125e+00 1.255412697792053223e-01
-5.721072673797607422e+00 -3.141814470291137695e+00 7.974233478307723999e-03
-1.059733867645263672e+01 -5.249619007110595703e+00 1.259138882160186768e-01
-5.797407627105712891e+00 -3.137589454650878906e+00 8.053645491600036621e-03
-1.122521209716796875e+01 -5.475129127502441406e+00 1.329723894596099854e-01
-5.736255168914794922e+00 -3.059136867523193359e+00 7.942467927932739258e-03
-1.097735595703125000e+01 -5.271103858947753906e+00 1.296507418155670166e-01
-5.761999607086181641e+00 -3.027603387832641602e+00 7.952242158353328705e-03
-1.047520065307617188e+01 -4.951115131378173828e+00 1.233587712049484253e-01
-5.796453475952148438e+00 -3.000466108322143555e+00 7.974233478307723999e-03
-1.069033908843994141e+01 -4.972783088684082031e+00 1.255306154489517212e-01
-5.856626033782958984e+00 -2.986192703247070312e+00 8.031654171645641327e-03
-1.115162277221679688e+01 -5.104360580444335938e+00 1.305769681930541992e-01
-5.876626014709472656e+00 -2.951098203659057617e+00 8.034097962081432343e-03
-1.161034774780273438e+01 -5.228404521942138672e+00 1.355700790882110596e-01
-5.861456871032714844e+00 -2.898583412170410156e+00 7.988894358277320862e-03
-1.064749336242675781e+01 -4.716444015502929688e+00 1.239869073033332825e-01
-5.781131267547607422e+00 -2.814846754074096680e+00 7.855725474655628204e-03
-1.256102848052978516e+01 -5.472120761871337891e+00 1.458757072687149048e-01
-5.750501155853271484e+00 -2.756412506103515625e+00 7.790973875671625137e-03
-9.983945846557617188e+00 -4.276740074157714844e+00 1.156401932239532471e-01
-5.919243335723876953e+00 -2.792762041091918945e+00 7.996223866939544678e-03
-1.261801815032958984e+01 -5.313684940338134766e+00 1.457692384719848633e-01
-5.803847312927246094e+00 -2.694902658462524414e+00 7.817851379513740540e-03
-1.142156410217285156e+01 -4.727537155151367188e+00 1.316096633672714233e-01
-5.841193675994873047e+00 -2.668798446655273438e+00 7.845951244235038757e-03
-1.098352527618408203e+01 -4.467485427856445312e+00 1.262439191341400146e-01
-5.837392807006835938e+00 -2.623887538909912109e+00 7.819073274731636047e-03
-1.259204864501953125e+01 -5.031919479370117188e+00 1.443745791912078857e-01
-5.627479076385498047e+00 -2.488139390945434570e+00 7.517306134104728699e-03
-9.172181129455566406e+00 -3.600195169448852539e+00 1.049087122082710266e-01
-5.616044998168945312e+00 -2.441998720169067383e+00 7.481875829398632050e-03
-1.345992183685302734e+01 -5.188101768493652344e+00 1.535836309194564819e-01
-5.789074897766113281e+00 -2.475111007690429688e+00 7.692013867199420929e-03
-1.261052322387695312e+01 -4.772037982940673828e+00 1.435548067092895508e-01
-5.085086822509765625e+00 -2.137312650680541992e+00 6.739064119756221771e-03
-1.386096763610839844e+01 -5.148222446441650391e+00 1.574269533157348633e-01
-5.361513614654541016e+00 -2.214886903762817383e+00 7.087256759405136108e-03
-1.387914276123046875e+01 -5.058282375335693359e+00 1.572779119014739990e-01
-5.976343631744384766e+00 -2.426058053970336914e+00 7.880159653723239899e-03
-1.231771183013916016e+01 -4.403786182403564453e+00 1.392749994993209839e-01
-5.986472606658935547e+00 -2.387490034103393555e+00 7.874051108956336975e-03
-1.450728893280029297e+01 -5.086421489715576172e+00 1.636763364076614380e-01
-6.005665302276611328e+00 -2.352536439895629883e+00 7.880159653723239899e-03
-1.143086147308349609e+01 -3.929198026657104492e+00 1.286925673484802246e-01
-6.038653373718261719e+00 -2.322822332382202148e+00 7.904594764113426208e-03
-1.168597316741943359e+01 -3.936880350112915039e+00 1.312902718782424927e-01
-6.017242908477783203e+00 -2.272301435470581055e+00 7.858168333768844604e-03
-1.278670501708984375e+01 -4.220521450042724609e+00 1.433631777763366699e-01
-6.045137405395507812e+00 -2.240550756454467773e+00 7.876494899392127991e-03
-1.167821979522705078e+01 -3.775338888168334961e+00 1.306727826595306396e-01
-6.022119998931884766e+00 -2.190087080001831055e+00 7.828847505152225494e-03
-1.446486759185791016e+01 -4.578368663787841797e+00 1.615364253520965576e-01
-6.048630714416503906e+00 -2.157798767089843750e+00 7.845951244235038757e-03
-1.336750602722167969e+01 -4.140970706939697266e+00 1.489950865507125854e-01
-6.041934967041015625e+00 -2.113709926605224609e+00 7.820295169949531555e-03
-1.455728340148925781e+01 -4.411828994750976562e+00 1.619516313076019287e-01
-6.041547298431396484e+00 -2.072055578231811523e+00 7.803190499544143677e-03
-1.423318767547607422e+01 -4.218426704406738281e+00 1.580550819635391235e-01
-5.754615783691406250e+00 -1.934266448020935059e+00 7.417124230414628983e-03
-1.362106704711914062e+01 -3.946251153945922852e+00 1.509859412908554077e-01
-5.789171695709228516e+00 -1.906427264213562012e+00 7.446445524692535400e-03
-4.960153579711914062e+00 -1.024095296859741211e+00 1.503188759088516235e-01
-1.331308650970458984e+01 -3.768635511398315430e+00 1.473129689693450928e-01
-6.041546821594238281e+00 -1.948528528213500977e+00 7.755543570965528488e-03
-4.976145267486572266e+00 -9.956021308898925781e-01 1.506155282258987427e-01
-1.349498558044433594e+01 -3.730841398239135742e+00 1.490696072578430176e-01
-6.068646430969238281e+00 -1.916239142417907715e+00 7.775091100484132767e-03
-4.986085891723632812e+00 -9.658106565475463867e-01 1.507342010736465454e-01
-1.371553134918212891e+01 -3.701376438140869141e+00 1.512520909309387207e-01
-6.089843750000000000e+00 -1.881919026374816895e+00 7.787308190017938614e-03
-4.999777793884277344e+00 -9.366708993911743164e-01 1.509715169668197632e-01
-1.445548820495605469e+01 -3.806065559387207031e+00 1.591516584157943726e-01
-6.104148387908935547e+00 -1.845385193824768066e+00 7.790973875671625137e-03
-1.447663307189941406e+01 -3.716799259185791016e+00 1.591303646564483643e-01
-6.144125938415527344e+00 -1.816401243209838867e+00 7.827625609934329987e-03
-6.114806175231933594e+00 -1.767007589340209961e+00 7.776312995702028275e-03
-4.978671073913574219e+00 -1.024351716041564941e+00 1.029227152466773987e-01
-1.494764709472656250e+01 -3.642807006835937500e+00 1.638040840625762939e-01
-6.141893386840820312e+00 -1.734073758125305176e+00 7.797082420438528061e-03
-4.986824035644531250e+00 -9.941748976707458496e-01 1.029632091522216797e-01
-1.431589889526367188e+01 -3.395926713943481445e+00 1.566497683525085449e-01
-6.248820781707763672e+00 -1.722935438156127930e+00 7.919255644083023071e-03
-4.987921714782714844e+00 -9.626103639602661133e-01 1.028619855642318726e-01
-6.159813880920410156e+00 -1.657793045043945312e+00 7.793417200446128845e-03
-4.977026462554931641e+00 -9.288686513900756836e-01 1.025178283452987671e-01
-1.302173233032226562e+01 -2.920621633529663086e+00 1.420856267213821411e-01
-6.179542064666748047e+00 -1.622505545616149902e+00 7.805634755641222000e-03
-1.483323097229003906e+01 -3.231455326080322266e+00 1.616322547197341919e-01
-6.188412666320800781e+00 -1.584309935569763184e+00 7.804412860423326492e-03
-4.883748531341552734e+00 -1.032589554786682129e+00 5.314636602997779846e-02
-6.221303462982177734e+00 -1.552118301391601562e+00 7.833734154701232910e-03
-4.982071876525878906e+00 -1.021483182907104492e+00 5.414712429046630859e-02
-6.181151866912841797e+00 -1.501874446868896484e+00 7.771426346153020859e-03
-5.045209884643554688e+00 -1.004956483840942383e+00 2.417003810405731201e-01
-4.997072696685791016e+00 -9.926479458808898926e-01 5.424293875694274902e-02
-5.992700099945068359e+00 -1.417201042175292969e+00 7.523415144532918930e-03
-5.026761054992675781e+00 -9.692527055740356445e-01 2.405270934104919434e-01
-5.002087593078613281e+00 -9.617789983749389648e-01 5.423229187726974487e-02
-6.148440361022949219e+00 -1.414252638816833496e+00 7.707896176725625992e-03
-4.997080326080322266e+00 -9.290581345558166504e-01 5.411518365144729614e-02
-6.164809226989746094e+00 -1.378245234489440918e+00 7.717669941484928131e-03
-1.418625450134277344e+01 -2.547557830810546875e+00 1.534558832645416260e-01
-6.172173023223876953e+00 -1.340180635452270508e+00 7.716448511928319931e-03
-4.971817970275878906e+00 -1.047641396522521973e+00 6.207611411809921265e-03
-4.961569786071777344e+00 -1.015531420707702637e+00 1.901299506425857544e-01
-1.381305503845214844e+01 -2.305936813354492188e+00 1.491015404462814331e-01
-4.977172851562500000e+00 -1.016914963722229004e+00 6.206389982253313065e-03
-4.994173049926757812e+00 -9.903166294097900391e-01 1.911428719758987427e-01
-4.975470542907714844e+00 -9.848031401634216309e-01 6.196615286171436310e-03
-4.996229648590087891e+00 -9.589008688926696777e-01 1.909928023815155029e-01
-1.358831024169921875e+01 -2.097359180450439453e+00 1.463867425918579102e-01
-4.997134208679199219e+00 -9.572659730911254883e-01 6.216163281351327896e-03
-5.024545669555664062e+00 -9.305925369262695312e-01 6.243041250854730606e-03
-1.413576507568359375e+01 -2.004580974578857422e+00 1.520079821348190308e-01
-6.115928173065185547e+00 -1.093956112861633301e+00 7.590610068291425705e-03
-6.425055027008056641e+00 -1.108608722686767578e+00 7.965681143105030060e-03
-1.431697750091552734e+01 -1.851352095603942871e+00 1.537007391452789307e-01
-6.435681819915771484e+00 -1.069820404052734375e+00 7.970567792654037476e-03
-6.424351215362548828e+00 -1.027469038963317871e+00 7.948577404022216797e-03
-6.272390365600585938e+00 -9.637322425842285156e-01 7.753099780529737473e-03
-6.157489299774169922e+00 -9.074402451515197754e-01 7.604049053043127060e-03
-1.416814422607421875e+01 -1.479600906372070312e+00 1.516672968864440918e-01
-6.552085876464843750e+00 -9.245529770851135254e-01 8.084188215434551239e-03
-1.466657161712646484e+01 -1.440735220909118652e+00 1.569052934646606445e-01
-6.534842014312744141e+00 -8.812589049339294434e-01 8.056089282035827637e-03
-6.510371208190917969e+00 -8.373183608055114746e-01 8.019437082111835480e-03
-6.553104877471923828e+00 -8.019717335700988770e-01 8.065862581133842468e-03
-6.821132183074951172e+00 -7.923235893249511719e-01 8.389621041715145111e-03
-1.393162155151367188e+01 -1.024067401885986328e+00 1.487289220094680786e-01
-6.705590248107910156e+00 -7.372316122055053711e-01 8.241792209446430206e-03
-1.318339443206787109e+01 -8.877740502357482910e-01 1.406803131103515625e-01
-6.632403850555419922e+00 -6.880247592926025391e-01 8.146497420966625214e-03
-6.657401561737060547e+00 -6.493547558784484863e-01 8.172153495252132416e-03
-6.676198482513427734e+00 -6.098580360412597656e-01 8.190480060875415802e-03
-6.591135978698730469e+00 -5.613299012184143066e-01 8.081745356321334839e-03
-6.601434230804443359e+00 -5.214280486106872559e-01 8.090297691524028778e-03
-6.992481708526611328e+00 -5.091631412506103516e-01 8.565550670027732849e-03
-1.443050193786621094e+01 -4.391585588455200195e-01 1.537113934755325317e-01
-6.961549758911132812e+00 -4.639874100685119629e-01 8.524011820554733276e-03
-1.482878494262695312e+01 -3.602226972579956055e-01 1.579273343086242676e-01
-6.960273265838623047e+00 -4.210219085216522217e-01 8.519125171005725861e-03
-1.400289916992187500e+01 -2.542004883289337158e-01 1.491121798753738403e-01
-7.162430763244628906e+00 -3.891571462154388428e-01 8.763470686972141266e-03
-7.313510894775390625e+00 -3.523726165294647217e-01 8.945508860051631927e-03
-1.493989562988281250e+01 -8.784129470586776733e-02 1.590664833784103394e-01
-7.534342288970947266e+00 -3.166881501674652100e-01 9.213067591190338135e-03
-1.492215442657470703e+01 3.825223073363304138e-03 1.588748544454574585e-01
-7.131403923034667969e+00 -2.559272944927215576e-01 8.718267083168029785e-03
-7.536661624908447266e+00 -2.241766005754470825e-01 9.211845695972442627e-03
-7.516901016235351562e+00 -1.774327456951141357e-01 9.186189621686935425e-03
-7.603835105895996094e+00 -1.328084021806716919e-01 9.291258640587329865e-03
-7.644504070281982422e+00 -8.660276979207992554e-02 9.340127930045127869e-03
-7.519893646240234375e+00 -3.904630243778228760e-02 9.187411516904830933e-03
-7.645991325378417969e+00 7.214519660919904709e-03 9.341349825263023376e-03
-7.846797943115234375e+00 5.555227026343345642e-02 9.586917236447334290e-03
-8.272272109985351562e+00 1.093278750777244568e-01 1.010737475007772446e-02
-8.256447792053222656e+00 1.597932577133178711e-01 1.008904818445444107e-02
-8.267308235168457031e+00 2.107566893100738525e-01 1.010370906442403793e-02
-8.389797210693359375e+00 2.654005587100982666e-01 1.025520358234643936e-02
-8.355033874511718750e+00 3.156286478042602539e-01 1.021488569676876068e-02
-8.158128738403320312e+00 3.583314716815948486e-01 9.976648725569248199e-03
-8.791978836059570312e+00 4.402384757995605469e-01 1.075489167124032974e-02
-8.227000236511230469e+00 4.625714719295501709e-01 1.006705779582262039e-02
-8.090267181396484375e+00 5.046994686126708984e-01 9.903344325721263885e-03
-8.765425682067871094e+00 6.008328795433044434e-01 1.073412131518125534e-02
-8.766560554504394531e+00 6.549777388572692871e-01 1.074023079127073288e-02
-8.888962745666503906e+00 7.189951539039611816e-01 1.089539006352424622e-02
-9.018875122070312500e+00 7.852327823638916016e-01 1.106032356619834900e-02
-8.931245803833007812e+00 8.328503370285034180e-01 1.095892023295164108e-02
-9.024480819702148438e+00 8.974324464797973633e-01 1.107987109571695328e-02
-8.991954803466796875e+00 9.499521255493164062e-01 1.104688551276922226e-02
-8.950179100036621094e+00 1.001106023788452148e+00 1.100290287286043167e-02
-9.111701965332031250e+00 1.075820684432983398e+00 1.120937429368495941e-02
-9.329203605651855469e+00 1.159585118293762207e+00 1.148548536002635956e-02
-9.689791679382324219e+00 1.264826178550720215e+00 1.193874794989824295e-02
-9.469822883605957031e+00 1.295257568359375000e+00 1.167729776352643967e-02
-9.813119888305664062e+00 1.403604030609130859e+00 1.211101096123456955e-02
-9.798388481140136719e+00 1.462903857231140137e+00 1.210368145257234573e-02
-9.880134582519531250e+00 1.537141323089599609e+00 1.221608091145753860e-02
-7.858561038970947266e+00 2.165300130844116211e+00 2.419282346963882446e-01
-9.887298583984375000e+00 1.600452184677124023e+00 1.223685033619403839e-02
-9.895042419433593750e+00 1.664074420928955078e+00 1.225884072482585907e-02
-9.948678970336914062e+00 1.735931038856506348e+00 1.233825460076332092e-02
-1.003034019470214844e+01 1.813667893409729004e+00 1.245309691876173019e-02
-1.003671550750732422e+01 1.878490090370178223e+00 1.247508730739355087e-02
-1.004267215728759766e+01 1.943458795547485352e+00 1.249707769602537155e-02
-7.826154232025146484e+00 2.162158489227294922e+00 1.644050776958465576e-01
-1.019235706329345703e+01 2.037385463714599609e+00 1.269866339862346649e-02
-9.727190971374511719e+00 2.006548881530761719e+00 1.213422417640686035e-02
-1.005410385131835938e+01 2.138384103775024414e+00 1.255816500633955002e-02
-1.271223163604736328e+01 3.270746469497680664e+00 1.397540867328643799e-01
-1.000953578948974609e+01 2.193185567855834961e+00 1.251906994730234146e-02
-1.271996307373046875e+01 3.356083631515502930e+00 1.400628238916397095e-01
-9.975404739379882812e+00 2.249941349029541016e+00 1.249341387301683426e-02
-7.839946746826171875e+00 2.120059728622436523e+00 8.646931499242782593e-02
-1.033255290985107422e+01 2.397213935852050781e+00 1.295889262109994888e-02
-7.794990062713623047e+00 2.159315586090087891e+00 8.611799031496047974e-02
-1.030500507354736328e+01 2.457552433013916016e+00 1.294301077723503113e-02
-7.755620002746582031e+00 2.199737071990966797e+00 8.583053201436996460e-02
-1.035674858093261719e+01 2.537154197692871094e+00 1.302730850875377655e-02
-1.032159042358398438e+01 2.595776557922363281e+00 1.300287526100873947e-02
-1.056981086730957031e+01 2.727266311645507812e+00 1.333640702068805695e-02
-1.025705718994140625e+01 2.713802337646484375e+00 1.296255830675363541e-02
-7.810936927795410156e+00 2.117976427078247070e+00 9.887462481856346130e-03
-7.781414031982421875e+00 2.161314010620117188e+00 9.866693057119846344e-03
-7.756463527679443359e+00 2.205736637115478516e+00 9.852032177150249481e-03
-1.039572429656982422e+01 3.025341033935546875e+00 1.322767324745655060e-02
-1.025332736968994141e+01 3.052265882492065430e+00 1.307007018476724625e-02
-1.058263206481933594e+01 3.221113681793212891e+00 1.351477950811386108e-02
-1.066197395324707031e+01 3.316880226135253906e+00 1.364183984696865082e-02
-1.034693813323974609e+01 3.288640737533569336e+00 1.326432451605796814e-02
-1.077930831909179688e+01 3.499030113220214844e+00 1.384586840867996216e-02
-1.076048374176025391e+01 3.566048622131347656e+00 1.384953409433364868e-02
-1.083123493194580078e+01 3.663405418395996094e+00 1.396926399320363998e-02
-1.067242908477783203e+01 3.682822465896606445e+00 1.379333436489105225e-02
-1.080527210235595703e+01 3.803017377853393555e+00 1.399492006748914719e-02
-1.098033237457275391e+01 3.940516710281372070e+00 1.425270456820726395e-02
-1.098318195343017578e+01 4.017779350280761719e+00 1.428813487291336060e-02
-1.107825946807861328e+01 4.129806041717529297e+00 1.444451697170734406e-02
-1.095081233978271484e+01 4.159003257751464844e+00 1.431134808808565140e-02
-1.091482830047607422e+01 4.222149372100830078e+00 1.429790910333395004e-02
-1.087941169738769531e+01 4.285377025604248047e+00 1.428569201380014420e-02
-1.104225540161132812e+01 4.427978515625000000e+00 1.453492417931556702e-02
-1.098432540893554688e+01 4.483179092407226562e+00 1.449460722506046295e-02
-1.118933677673339844e+01 4.647149085998535156e+00 1.480248291045427322e-02
-1.081794548034667969e+01 4.570930480957031250e+00 1.434799935668706894e-02
-1.124079704284667969e+01 4.831098079681396484e+00 1.494786981493234634e-02
-1.169566535949707031e+01 5.111837863922119141e+00 1.559416484087705612e-02
-1.012885093688964844e+01 4.501250743865966797e+00 1.354165840893983841e-02
-1.131764984130859375e+01 5.112938880920410156e+00 1.517266780138015747e-02
-1.140329647064208984e+01 5.236116409301757812e+00 1.533027086406946182e-02
-1.147697830200195312e+01 5.355461597442626953e+00 1.547321397811174393e-02
-1.116469478607177734e+01 5.293404102325439453e+00 1.509569864720106125e-02
-1.151220035552978516e+01 5.544934272766113281e+00 1.561126951128244400e-02
-1.140340518951416016e+01 5.578991889953613281e+00 1.550986524671316147e-02
-1.134209251403808594e+01 5.635507583618164062e+00 1.547321397811174393e-02
-1.163495731353759766e+01 5.870311737060546875e+00 1.592158898711204529e-02
-1.179274272918701172e+01 6.040983200073242188e+00 1.618792675435543060e-02
-1.188321113586425781e+01 6.179666519165039062e+00 1.636385545134544373e-02
-1.173894691467285156e+01 6.196446895599365234e+00 1.621724665164947510e-02
-1.186466026306152344e+01 6.356193542480468750e+00 1.644448935985565186e-02
-1.173582267761230469e+01 6.380156040191650391e+00 1.631987281143665314e-02
-1.168944835662841797e+01 6.448181629180908203e+00 1.631009764969348907e-02
-1.178317546844482422e+01 6.594506263732910156e+00 1.649702340364456177e-02
-1.191815471649169922e+01 6.766413688659667969e+00 1.674381271004676819e-02
-1.176549053192138672e+01 6.775537014007568359e+00 1.658743061125278473e-02
-1.125999736785888672e+01 6.576763629913330078e+00 1.593136228621006012e-02
-1.167371559143066406e+01 6.914820671081542969e+00 1.657643541693687439e-02
-8.314189910888671875e+00 6.817286014556884766e+00 2.177086770534515381e-01
-8.330827713012695312e+00 6.840508460998535156e+00 1.147672012448310852e-01
-8.299353599548339844e+00 6.739292144775390625e+00 1.306151878088712692e-02
-8.260935783386230469e+00 6.792629241943359375e+00 1.306640543043613434e-02
-8.216795921325683594e+00 6.841269969940185547e+00 1.306273974478244781e-02
-2.853893518447875977e+00 5.255944728851318359e+00 1.211022213101387024e-01
-2.796591043472290039e+00 5.226635456085205078e+00 1.200292706489562988e-01
-2.849273920059204102e+00 5.256046772003173828e+00 6.365427374839782715e-02
-2.894878625869750977e+00 5.271415710449218750e+00 7.347485981881618500e-03
-2.861527204513549805e+00 5.287320137023925781e+00 7.345041725784540176e-03
-1.032498121261596680e+00 2.990377426147460938e+00 9.389366954565048218e-02
-1.013489246368408203e+00 2.994762897491455078e+00 9.383433312177658081e-02
-9.900609850883483887e-01 2.985744953155517578e+00 9.335967153310775757e-02
-9.646202325820922852e-01 2.969898223876953125e+00 9.267734736204147339e-02
-1.039477944374084473e+00 3.017312526702880859e+00 6.462024152278900146e-02
-1.019984841346740723e+00 3.020792007446289062e+00 6.455951184034347534e-02
-9.907535910606384277e-01 2.994720935821533203e+00 6.387119740247726440e-02
-9.708186388015747070e-01 2.995988130569458008e+00 6.376997381448745728e-02
-1.039448738098144531e+00 3.085430383682250977e+00 3.466437757015228271e-02
-1.002945780754089355e+00 3.038575172424316406e+00 3.406818211078643799e-02
-1.028402209281921387e+00 2.995132207870483398e+00 1.188874915242195129e-01
-1.012873530387878418e+00 3.009909868240356445e+00 1.192251369357109070e-01
-9.892764687538146973e-01 2.943186044692993164e+00 3.793472424149513245e-03
-9.915698766708374023e-01 3.007526636123657227e+00 1.188874915242195129e-01
-9.999750852584838867e-01 3.036584377288818359e+00 3.905871650204062462e-03
-9.694125652313232422e-01 3.002142906188964844e+00 1.184372976422309875e-01
-1.178868561983108521e-01 6.564612388610839844e-01 7.101087365299463272e-03
-1.047250553965568542e-01 7.072480320930480957e-01 7.612110115587711334e-03
-5.695543438196182251e-02 7.055786848068237305e-01 3.994809836149215698e-02
-3.458840027451515198e-02 6.930333971977233887e-01 3.915927559137344360e-02
-2.647891081869602203e-02 7.137211561203002930e-01 3.355646133422851562e-02
-5.679642315953969955e-03 7.122574448585510254e-01 1.117948293685913086e-01
