-8.019231259822845459e-03 -7.303720116615295410e-01 4.813006147742271423e-02
-4.106837790459394455e-03 -7.667689919471740723e-01 4.327240586280822754e-02
-4.307271540164947510e-02 -6.583731174468994141e-01 1.165745928883552551e-01
-2.184853702783584595e-02 -7.305105328559875488e-01 4.124401509761810303e-02
-5.926926061511039734e-02 -6.974693536758422852e-01 6.505869328975677490e-02
-7.096922397613525391e-02 -6.853657364845275879e-01 6.404070556163787842e-02
-8.865363150835037231e-02 -7.234284877777099609e-01 4.113132506608963013e-02
-8.323437720537185669e-02 -7.123627066612243652e-01 3.369725868105888367e-02
-1.108015179634094238e-01 -6.920711994171142578e-01 3.955368697643280029e-02
-1.244667470455169678e-01 -7.191590070724487305e-01 1.477843895554542542e-02
-1.285239905118942261e-01 -7.164136171340942383e-01 1.473795063793659210e-02
-9.373270988464355469e+00 -6.502621173858642578e+00 1.393749937415122986e-02
-8.482255935668945312e+00 -5.807718276977539062e+00 1.255938690155744553e-02
-1.041987800598144531e+01 -6.948127746582031250e+00 1.530094910413026810e-02
-1.055189990997314453e+01 -6.758930206298828125e+00 1.530950050801038742e-02
-1.060923480987548828e+01 -6.704207897186279297e+00 1.533271372318267822e-02
-1.077831268310546875e+01 -6.718863964080810547e+00 1.551719475537538528e-02
-1.070689201354980469e+01 -6.583463191986083984e+00 1.535592693835496902e-02
-1.073340606689453125e+01 -6.509346485137939453e+00 1.533637940883636475e-02
-1.057575607299804688e+01 -6.325307846069335938e+00 1.505538169294595718e-02
-1.062125778198242188e+01 -6.264360904693603516e+00 1.506515499204397202e-02
-1.065949535369873047e+01 -6.199072360992431641e+00 1.506515499204397202e-02
-1.069559669494628906e+01 -6.132555484771728516e+00 1.506271213293075562e-02
-1.073215389251708984e+01 -6.066320896148681641e+00 1.506149116903543472e-02
-1.075519657135009766e+01 -5.992567539215087891e+00 1.504194177687168121e-02
-1.096619224548339844e+01 -6.022252082824707031e+00 1.528506726026535034e-02
-1.107329463958740234e+01 -5.992928981781005859e+00 1.538280490785837173e-02
-1.103309249877929688e+01 -5.883933067321777344e+00 1.527651492506265640e-02
-1.109731483459472656e+01 -5.831008434295654297e+00 1.531560998409986496e-02
-1.096592712402343750e+01 -5.676383495330810547e+00 1.508592441678047180e-02
-1.104331302642822266e+01 -5.630794525146484375e+00 1.514456793665885925e-02
-1.101152420043945312e+01 -5.529719352722167969e+00 1.505415979772806168e-02
-1.084624958038330078e+01 -5.363642215728759766e+00 1.478293538093566895e-02
-1.106147098541259766e+01 -5.385857105255126953e+00 1.503094658255577087e-02
-1.096716213226318359e+01 -5.256937503814697266e+00 1.485868357121944427e-02
-1.105709266662597656e+01 -5.216854095458984375e+00 1.493687368929386139e-02
-1.110612773895263672e+01 -5.156912803649902344e+00 1.496008690446615219e-02
-2.356717824935913086e+00 -7.814781069755554199e-01 7.369095832109451294e-02
-1.112209796905517578e+01 -5.081604957580566406e+00 1.493931747972965240e-02
-2.364853858947753906e+00 -7.685587406158447266e-01 1.638526022434234619e-01
-2.347208261489868164e+00 -7.623711228370666504e-01 7.324595749378204346e-02
-1.104817867279052734e+01 -4.966117382049560547e+00 1.479881908744573593e-02
-2.367623329162597656e+00 -7.534286379814147949e-01 1.637210994958877563e-01
-2.346126556396484375e+00 -7.461369633674621582e-01 7.306796312332153320e-02
-1.117721748352050781e+01 -4.941906452178955078e+00 1.493076514452695847e-02
-2.368391036987304688e+00 -7.377000451087951660e-01 1.634580940008163452e-01
-2.354478120803833008e+00 -7.329156994819641113e-01 7.318662106990814209e-02
-1.125501728057861328e+01 -4.893966674804687500e+00 1.499429531395435333e-02
-2.355106115341186523e+00 -7.172901630401611328e-01 7.306796312332153320e-02
-1.129678726196289062e+01 -4.829925537109375000e+00 1.501017715781927109e-02
-2.360556125640869141e+00 -7.970530986785888672e-01 5.044913664460182190e-02
-1.115105342864990234e+01 -4.686898708343505859e+00 1.477804873138666153e-02
-2.383654832839965820e+00 -7.895157337188720703e-01 1.417058706283569336e-01
-2.356859683990478516e+00 -7.797277569770812988e-01 5.026693642139434814e-02
-1.118144989013671875e+01 -4.619152545928955078e+00 1.478049252182245255e-02
-2.380856990814208984e+00 -7.724102139472961426e-01 1.412551254034042358e-01
-2.355893135070800781e+00 -7.634025216102600098e-01 5.014547333121299744e-02
-1.134764099121093750e+01 -4.606501579284667969e+00 1.496253069490194321e-02
-2.376987457275390625e+00 -7.550665736198425293e-01 1.407480239868164062e-01
-2.359579801559448242e+00 -7.486302852630615234e-01 5.012522637844085693e-02
-1.129859638214111328e+01 -4.506040096282958984e+00 1.486112643033266068e-02
-2.385389089584350586e+00 -7.416531443595886230e-01 1.409733891487121582e-01
-2.358399868011474609e+00 -7.323590517044067383e-01 5.000375956296920776e-02
-1.135117340087890625e+01 -4.446476459503173828e+00 1.489411387592554092e-02
-2.361892700195312500e+00 -7.175837755203247070e-01 4.998351633548736572e-02
-2.361256122589111328e+00 -8.116485476493835449e-01 2.658383175730705261e-02
-1.136797523498535156e+01 -4.372793674468994141e+00 1.488067395985126495e-02
-2.389801740646362305e+00 -8.064923882484436035e-01 1.185035854578018188e-01
-2.364334344863891602e+00 -7.025083899497985840e-01 4.994302615523338318e-02
-2.376615524291992188e+00 -8.006564974784851074e-01 2.670093998312950134e-02
-1.142172241210937500e+01 -4.313204288482666016e+00 1.491610426455736160e-02
-2.391860008239746094e+00 -7.908728718757629395e-01 1.183627843856811523e-01
-2.374836683273315430e+00 -7.838648557662963867e-01 2.662641555070877075e-02
-1.152392387390136719e+01 -4.271191120147705078e+00 1.501506473869085312e-02
-2.385264158248901367e+00 -7.724887132644653320e-01 1.177996098995208740e-01
-2.370086908340454102e+00 -7.662025094032287598e-01 2.651995420455932617e-02
-1.145781517028808594e+01 -4.166907310485839844e+00 1.489533483982086182e-02
-2.394720077514648438e+00 -7.593480348587036133e-01 1.180342659354209900e-01
-2.374743700027465820e+00 -7.516455054283142090e-01 2.651995420455932617e-02
-1.157546997070312500e+01 -4.129453182220458984e+00 1.501506473869085312e-02
-2.381207942962646484e+00 -7.390145063400268555e-01 1.171425506472587585e-01
-2.374535083770751953e+00 -7.355807423591613770e-01 2.646671980619430542e-02
-1.137877178192138672e+01 -3.980748653411865234e+00 1.472795754671096802e-02
-2.378046989440917969e+00 -7.207069993019104004e-01 2.645607478916645050e-02
-2.393160581588745117e+00 -8.207767605781555176e-01 3.090977668762207031e-03
-2.374400377273559570e+00 -7.990163564682006836e-01 9.405205398797988892e-02
-2.379548072814941406e+00 -7.052495479583740234e-01 2.642413601279258728e-02
-2.370662927627563477e+00 -7.968375086784362793e-01 3.055547364056110382e-03
-2.382105588912963867e+00 -7.853709459304809570e-01 9.416460245847702026e-02
-2.372658014297485352e+00 -7.813380360603332520e-01 3.051882144063711166e-03
-2.362154960632324219e+00 -7.627560496330261230e-01 9.318918734788894653e-02
-2.377407550811767578e+00 -7.667649388313293457e-01 3.051882144063711166e-03
-2.383941173553466797e+00 -7.536698579788208008e-01 9.386447072029113770e-02
-2.379206895828247070e+00 -7.512596845626831055e-01 3.048216924071311951e-03
-2.388520717620849609e+00 -7.390280961990356445e-01 9.386447072029113770e-02
-2.387593269348144531e+00 -7.378280162811279297e-01 3.053103806450963020e-03
-2.392075538635253906e+00 -7.231641411781311035e-01 3.053103806450963020e-03
-1.164190483093261719e+01 -3.441721677780151367e+00 1.483180467039346695e-02
-1.169642734527587891e+01 -3.379939794540405273e+00 1.487456541508436203e-02
-1.180741024017333984e+01 -3.333649635314941406e+00 1.498940866440534592e-02
-1.184210300445556641e+01 -3.265124797821044922e+00 1.500773429870605469e-02
-1.182135772705078125e+01 -3.181486606597900391e+00 1.495642121881246567e-02
-1.155726242065429688e+01 -3.034483909606933594e+00 1.459845434874296188e-02
-1.202807235717773438e+01 -3.079334974288940430e+00 1.516900211572647095e-02
-1.212242126464843750e+01 -3.024355173110961914e+00 1.526429690420627594e-02
-1.218836402893066406e+01 -2.961485624313354492e+00 1.532416138797998428e-02
-1.220727920532226562e+01 -2.886873722076416016e+00 1.532538421452045441e-02
-1.225205039978027344e+01 -2.818193435668945312e+00 1.535959262400865555e-02
-1.225057029724121094e+01 -2.738817930221557617e+00 1.533637940883636475e-02
-1.217528533935546875e+01 -2.643652677536010742e+00 1.522153709083795547e-02
-1.218149185180664062e+01 -2.566834688186645508e+00 1.520931906998157501e-02
-1.236455154418945312e+01 -2.526273012161254883e+00 1.541823614388704300e-02
-1.234156131744384766e+01 -2.442785501480102539e+00 1.537058781832456589e-02
-1.244372844696044922e+01 -2.383757829666137695e+00 1.547932252287864685e-02
-1.245222091674804688e+01 -2.306267023086547852e+00 1.547199115157127380e-02
-1.248484039306640625e+01 -2.233163595199584961e+00 1.549520436674356461e-02
-1.237414264678955078e+01 -2.135092020034790039e+00 1.534126605838537216e-02
-1.262080192565917969e+01 -2.097989320755004883e+00 1.563081704080104828e-02
-1.236781311035156250e+01 -1.978027820587158203e+00 1.530217099934816360e-02
-1.279682254791259766e+01 -1.966189980506896973e+00 1.581774093210697174e-02
-1.269685363769531250e+01 -1.871158123016357422e+00 1.567968539893627167e-02
-1.276651668548583984e+01 -1.801460146903991699e+00 1.575176790356636047e-02
-1.274759960174560547e+01 -1.719082951545715332e+00 1.571511663496494293e-02
-1.302272701263427734e+01 -1.674891948699951172e+00 1.604131795465946198e-02
-1.320249176025390625e+01 -1.615726470947265625e+00 1.625023409724235535e-02
-1.238074779510498047e+01 -1.438112974166870117e+00 1.522764563560485840e-02
-1.292610359191894531e+01 -1.421132564544677734e+00 1.588737964630126953e-02
-1.329564285278320312e+01 -1.379248142242431641e+00 1.633086800575256348e-02
-1.334466171264648438e+01 -1.301621913909912109e+00 1.638096012175083160e-02
-1.289032077789306641e+01 -1.177506327629089355e+00 1.581407524645328522e-02
-1.338453960418701172e+01 -1.139885783195495605e+00 1.641150191426277161e-02
-1.332548618316650391e+01 -1.052541375160217285e+00 1.633086800575256348e-02
-1.251485729217529297e+01 -9.112792611122131348e-01 1.533027086406946182e-02
-1.325159072875976562e+01 -8.832187056541442871e-01 1.622579991817474365e-02
-1.289042949676513672e+01 -7.797327637672424316e-01 1.577742397785186768e-02
-1.307370758056640625e+01 -7.103351950645446777e-01 1.599611341953277588e-02
-1.357823944091796875e+01 -6.542137861251831055e-01 1.660820096731185913e-02
-1.338117504119873047e+01 -5.624458789825439453e-01 1.636263355612754822e-02
-1.331242084503173828e+01 -4.777477085590362549e-01 1.627466827630996704e-02
-1.322314262390136719e+01 -3.933199346065521240e-01 1.616226881742477417e-02
-1.325529861450195312e+01 -3.128847777843475342e-01 1.619892194867134094e-02
-1.347693538665771484e+01 -2.353878468275070190e-01 1.646770164370536804e-02
-1.317714500427246094e+01 -1.492807418107986450e-01 1.609996147453784943e-02
-1.327881145477294922e+01 -6.894891709089279175e-02 1.622335612773895264e-02
-1.325898456573486328e+01 1.251076627522706985e-02 1.619892194867134094e-02
-1.350765132904052734e+01 9.562890976667404175e-02 1.650313101708889008e-02
-1.348381328582763672e+01 1.782045513391494751e-01 1.647503301501274109e-02
-1.340748023986816406e+01 2.594850659370422363e-01 1.638340204954147339e-02
-1.345861816406250000e+01 3.430975973606109619e-01 1.644815318286418915e-02
-1.344426536560058594e+01 4.252922534942626953e-01 1.643349230289459229e-02
-1.361328029632568359e+01 5.142697691917419434e-01 1.664363220334053040e-02
-1.368679428100585938e+01 6.011683940887451172e-01 1.673770509660243988e-02
-1.375575637817382812e+01 6.887884140014648438e-01 1.682689040899276733e-02
-1.380818176269531250e+01 7.763789892196655273e-01 1.689652912318706512e-02
-1.379317665100097656e+01 8.604671955108642578e-01 1.688431203365325928e-02
-1.371780204772949219e+01 9.402973651885986328e-01 1.679879054427146912e-02
-1.369781303405761719e+01 1.023407459259033203e+00 1.678168773651123047e-02
-1.366236972808837891e+01 1.105098247528076172e+00 1.674625650048255920e-02
-1.366927909851074219e+01 1.190122485160827637e+00 1.676336117088794708e-02
-1.336699771881103516e+01 1.246490120887756348e+00 1.640172861516475677e-02
-1.361185169219970703e+01 1.353619813919067383e+00 1.671204715967178345e-02
-1.357942199707031250e+01 1.434593677520751953e+00 1.668272726237773895e-02
-1.351073551177978516e+01 1.511218786239624023e+00 1.660942286252975464e-02
-1.328868484497070312e+01 1.568997979164123535e+00 1.634797267615795135e-02
-1.361918830871582031e+01 1.692814350128173828e+00 1.676702685654163361e-02
-1.361746978759765625e+01 1.777513146400451660e+00 1.677802205085754395e-02
-1.389858531951904297e+01 1.901011943817138672e+00 1.713843271136283875e-02
-1.429056453704833984e+01 3.639963150024414062e+00 3.745222568511962891e+00
-1.389061832427978516e+01 1.986822605133056641e+00 1.714331842958927155e-02
-1.414230060577392578e+01 3.694750547409057617e+00 3.712237834930419922e+00
-1.451074123382568359e+01 3.788302183151245117e+00 3.220574378967285156e+00
-1.474504566192626953e+01 3.852220535278320312e+00 2.692699193954467773e+00
-6.044795989990234375e+00 1.354668617248535156e+00 1.254345327615737915e-01
-1.388113307952880859e+01 2.072459459304809570e+00 1.714698411524295807e-02
-1.373082637786865234e+01 3.677398204803466797e+00 3.610084295272827148e+00
-1.497387790679931641e+01 4.013113975524902344e+00 2.159399271011352539e+00
-6.048060894012451172e+00 1.394428730010986328e+00 1.256774663925170898e-01
-1.387704849243164062e+01 2.158977031707763672e+00 1.715797930955886841e-02
-1.362949180603027344e+01 3.740035057067871094e+00 3.589407444000244141e+00
-5.993667602539062500e+00 1.420674920082092285e+00 1.247259750962257385e-01
-1.397903633117675781e+01 2.262779712677001953e+00 1.730092056095600128e-02
-1.394812488555908203e+01 2.345691680908203125e+00 1.728015206754207611e-02
-1.362906932830810547e+01 2.378117084503173828e+00 1.690263859927654266e-02
-1.403352165222167969e+01 3.563897609710693359e+00 4.102600097656250000e+00
-1.399504470825195312e+01 2.530558824539184570e+00 1.737544871866703033e-02
-1.408494281768798828e+01 3.669098854064941406e+00 4.124136447906494141e+00
-1.430713558197021484e+01 3.732313156127929688e+00 3.596224784851074219e+00
-1.461002826690673828e+01 3.816776275634765625e+00 3.088672876358032227e+00
-1.482861804962158203e+01 3.879411697387695312e+00 2.553974628448486328e+00
-6.015492439270019531e+00 1.352443814277648926e+00 6.564513593912124634e-02
-1.372270870208740234e+01 2.568367481231689453e+00 1.705657504498958588e-02
-5.995389938354492188e+00 1.386624932289123535e+00 6.551738083362579346e-02
-1.361244010925292969e+01 2.634280681610107422e+00 1.693928986787796021e-02
-6.008170604705810547e+00 1.428474187850952148e+00 6.575159728527069092e-02
-1.370290565490722656e+01 2.739121198654174805e+00 1.707245782017707825e-02
-1.400609779357910156e+01 2.889212369918823242e+00 1.747196353971958160e-02
-1.403505611419677734e+01 2.985083580017089844e+00 1.753060705959796906e-02
-6.024085521697998047e+00 1.319935202598571777e+00 7.534410338848829269e-03
-1.412366580963134766e+01 3.673757553100585938e+00 3.981420516967773438e+00
-1.440277099609375000e+01 3.754409313201904297e+00 3.469107866287231445e+00
-1.466730594635009766e+01 3.834303617477416992e+00 2.952337265014648438e+00
-1.490385437011718750e+01 3.898921012878417969e+00 2.417931556701660156e+00
-6.024652481079101562e+00 1.358853578567504883e+00 7.545405533164739609e-03
-6.010356426239013672e+00 1.394438505172729492e+00 7.538075093179941177e-03
-5.998769283294677734e+00 1.430595278739929199e+00 7.534410338848829269e-03
-1.359985065460205078e+01 3.331636190414428711e+00 1.710666716098785400e-02
-1.389045810699462891e+01 3.493310928344726562e+00 1.749884150922298431e-02
-1.357730770111083984e+01 3.503273010253906250e+00 1.713110134005546570e-02
-1.383832740783691406e+01 3.596797466278076172e+00 3.759044647216796875e+00
-1.445280265808105469e+01 3.769976615905761719e+00 3.338682413101196289e+00
-1.469988536834716797e+01 3.848131656646728516e+00 2.810781717300415039e+00
-1.494923400878906250e+01 3.924559831619262695e+00 2.279557704925537109e+00
-1.367929840087890625e+01 3.619255542755126953e+00 1.728748343884944916e-02
-1.374684333801269531e+01 3.663212060928344727e+00 3.740229129791259766e+00
-1.385179328918457031e+01 3.755986213684082031e+00 1.753427088260650635e-02
-1.371477699279785156e+01 3.744944572448730469e+00 3.737686395645141602e+00
-1.426785278320312500e+01 3.962944269180297852e+00 1.809138059616088867e-02
-1.444237327575683594e+01 4.107036113739013672e+00 1.834427937865257263e-02
-1.328102493286132812e+01 3.865015029907226562e+00 1.689897291362285614e-02
-1.393563079833984375e+01 4.148433685302734375e+00 1.776395738124847412e-02
-1.433754348754882812e+01 4.364023685455322266e+00 1.831007003784179688e-02
-1.414816951751708984e+01 4.401416301727294922e+00 1.810237579047679901e-02
-1.428862857818603516e+01 4.541456222534179688e+00 1.831740140914916992e-02
-1.430614852905273438e+01 4.643864154815673828e+00 1.837604306638240814e-02
-1.438844585418701172e+01 4.768362998962402344e+00 1.851898618042469025e-02
-1.389001178741455078e+01 4.697963237762451172e+00 1.791423000395298004e-02
-1.415869235992431641e+01 4.885856151580810547e+00 1.829907484352588654e-02
-1.396148681640625000e+01 4.913877010345458984e+00 1.808282919228076935e-02
-1.414567184448242188e+01 5.076463699340820312e+00 1.836138218641281128e-02
-1.411519622802734375e+01 5.163507938385009766e+00 1.836260594427585602e-02
-1.380401897430419922e+01 5.145927429199218750e+00 1.799852959811687469e-02
-1.388623619079589844e+01 5.273846626281738281e+00 1.814758218824863434e-02
-1.395713996887207031e+01 5.398997306823730469e+00 1.828319393098354340e-02
-1.393584442138671875e+01 5.489299297332763672e+00 1.829907484352588654e-02
-1.364016151428222656e+01 5.469746589660644531e+00 1.795454882085323334e-02
-1.372948074340820312e+01 5.603596210479736328e+00 1.811703667044639587e-02
-1.381859016418457031e+01 5.739129543304443359e+00 1.828074827790260315e-02
-1.378311538696289062e+01 5.823810577392578125e+00 1.828074827790260315e-02
-1.371129131317138672e+01 5.892873287200927734e+00 1.823310181498527527e-02
-1.364280509948730469e+01 5.962876319885253906e+00 1.819034107029438019e-02
-1.382070922851562500e+01 6.141908645629882812e+00 1.847744733095169067e-02
-8.425014495849609375e+00 4.178892135620117188e+00 1.001285240054130554e-01
-1.371076965332031250e+01 6.194071292877197266e+00 1.838093250989913940e-02
-1.367704963684082031e+01 6.280168533325195312e+00 1.838704012334346771e-02
-1.367722320556640625e+01 6.382153511047363281e+00 1.843957416713237762e-02
-1.370196056365966797e+01 6.496372222900390625e+00 1.852631755173206329e-02
-1.361949729919433594e+01 6.559928417205810547e+00 1.846889592707157135e-02
-8.436453819274902344e+00 4.127442836761474609e+00 1.147449016571044922e-02
-8.408283233642578125e+00 4.177795886993408203e+00 1.147082541137933731e-02
-1.367500305175781250e+01 6.899598121643066406e+00 1.871324144303798676e-02
-1.362974071502685547e+01 6.982008934020996094e+00 1.870957762002944946e-02
-3.357018947601318359e+00 4.358784198760986328e+00 5.857598781585693359e-02
-3.316289186477661133e+00 4.360993385314941406e+00 5.833111703395843506e-02
-3.293519735336303711e+00 4.337234020233154297e+00 6.653542630374431610e-03
-7.279493212699890137e-01 2.682768106460571289e+00 8.250182867050170898e-02
-7.076369524002075195e-01 2.672690153121948242e+00 8.205683529376983643e-02
-6.892250776290893555e-01 2.669239521026611328e+00 8.181950449943542480e-02
-6.708823442459106445e-01 2.665663719177246094e+00 8.158218115568161011e-02
-7.384575605392456055e-01 2.663976907730102539e+00 5.597586929798126221e-02
-7.249705195426940918e-01 2.679073572158813477e+00 5.619855597615242004e-02
-7.080079913139343262e-01 2.681538343429565430e+00 5.615806952118873596e-02
-6.873030662536621094e-01 2.669372558593750000e+00 5.581391602754592896e-02
-6.677476167678833008e-01 2.660933017730712891e+00 5.555073544383049011e-02
-7.364694476127624512e-01 2.663915157318115234e+00 2.942639589309692383e-02
-7.198496460914611816e-01 2.667418479919433594e+00 2.941574901342391968e-02
-7.027052640914916992e-01 2.668884277343750000e+00 2.938381023705005646e-02
-6.850727200508117676e-01 2.668303012847900391e+00 2.933057770133018494e-02
-6.660175323486328125e-01 2.661785840988159180e+00 2.921346947550773621e-02
-6.907520294189453125e-01 2.630826950073242188e+00 3.323106095194816589e-03
-9.954111278057098389e-02 7.019370794296264648e-01 7.548232562839984894e-03
-3.592333197593688965e-02 7.350810766220092773e-01 7.835682481527328491e-03
-9.243416599929332733e-03 7.371288537979125977e-01 3.463589772582054138e-02
