-1.178897023200988770e+00 -5.609580039978027344e+00 7.424377202987670898e-01
-9.634937047958374023e-01 -5.584752559661865234e+00 6.807957291603088379e-01
-7.933844923973083496e-01 -5.861496925354003906e+00 6.540612578392028809e-01
-1.385791659355163574e+00 -5.571179389953613281e+00 5.882060527801513672e-01
-1.183762907981872559e+00 -5.622981071472167969e+00 5.340735912322998047e-01
-1.337470650672912598e+00 -5.368916988372802734e+00 3.645917475223541260e-01
-1.117043137550354004e+00 -5.296883583068847656e+00 3.054987192153930664e-01
-9.098688364028930664e-01 -4.307041168212890625e+00 8.913625776767730713e-02
-1.501055002212524414e+00 -6.942654132843017578e+00 1.183549284934997559e+00
-9.950142502784729004e-01 -5.591630458831787109e+00 8.914125561714172363e-01
-7.990526556968688965e-01 -5.664034366607666016e+00 8.436537384986877441e-01
-1.438955187797546387e+00 -5.645246505737304688e+00 8.114993572235107422e-01
-1.203218698501586914e+00 -5.555717468261718750e+00 7.362721562385559082e-01
-1.008056044578552246e+00 -5.636399745941162109e+00 6.878327131271362305e-01
-8.067586421966552734e-01 -5.697091102600097656e+00 6.362562179565429688e-01
-1.443816542625427246e+00 -5.656068325042724609e+00 5.980927348136901855e-01
-1.215498328208923340e+00 -5.602962017059326172e+00 5.328705310821533203e-01
-1.380521297454833984e+00 -5.400246620178222656e+00 3.672876060009002686e-01
-1.152279257774353027e+00 -5.302612781524658203e+00 3.062311708927154541e-01
-9.394688606262207031e-01 -4.316030979156494141e+00 8.943992108106613159e-02
-1.420563936233520508e+00 -5.433578014373779297e+00 1.655069947242736816e+00
-1.483355998992919922e+00 -6.673586845397949219e+00 1.398349404335021973e+00
-1.287302851676940918e+00 -6.985418796539306641e+00 1.114847302436828613e+00
-8.324936628341674805e-01 -5.650216579437255859e+00 8.423405885696411133e-01
-1.467804670333862305e+00 -5.614271163940429688e+00 8.083261847496032715e-01
-1.235126733779907227e+00 -5.538550376892089844e+00 7.349876761436462402e-01
-1.048225879669189453e+00 -5.660372257232666016e+00 6.915301084518432617e-01
-8.361750841140747070e-01 -5.654669761657714844e+00 6.320797204971313477e-01
-1.465896368026733398e+00 -5.598984718322753906e+00 5.929965376853942871e-01
-1.245079040527343750e+00 -5.574018955230712891e+00 5.308345556259155273e-01
-1.414895892143249512e+00 -5.396499633789062500e+00 3.676163256168365479e-01
-1.184793829917907715e+00 -5.295443058013916016e+00 3.062311708927154541e-01
-9.617797732353210449e-01 -4.291648864746093750e+00 8.905527740716934204e-02
-1.457849979400634766e+00 -5.439583778381347656e+00 1.659592628479003906e+00
-1.462082982063293457e+00 -5.459187984466552734e+00 1.435319900512695312e+00
-1.465318322181701660e+00 -5.475091934204101562e+00 1.217137455940246582e+00
-1.480648636817932129e+00 -5.528509616851806641e+00 1.011241197586059570e+00
-1.071327209472656250e+00 -5.619757652282714844e+00 8.979249596595764160e-01
-8.626408576965332031e-01 -5.615667819976806641e+00 8.379632830619812012e-01
-1.271305322647094727e+00 -5.540533542633056641e+00 7.362721562385559082e-01
-1.092463254928588867e+00 -5.703566074371337891e+00 6.976128816604614258e-01
-8.661614656448364258e-01 -5.618980407714843750e+00 6.286725997924804688e-01
-1.533745169639587402e+00 -5.714787960052490234e+00 6.062467098236083984e-01
-1.289070248603820801e+00 -5.608972549438476562e+00 5.349065065383911133e-01
-1.075216293334960938e+00 -5.602936744689941406e+00 4.760685265064239502e-01
-1.444614768028259277e+00 -5.375189304351806641e+00 3.667615652084350586e-01
-1.223758697509765625e+00 -5.316289424896240234e+00 3.078651428222656250e-01
-9.856238961219787598e-01 -4.274950027465820312e+00 8.883258700370788574e-02
-1.487389326095581055e+00 -5.416661262512207031e+00 1.655352592468261719e+00
-1.338267207145690918e+00 -6.843527793884277344e+00 1.902406692504882812e+00
-1.289853096008300781e+00 -4.700501441955566406e+00 1.237905025482177734e+00
-1.340716242790222168e+00 -6.837043285369873047e+00 1.623895645141601562e+00
-1.310651898384094238e+00 -4.779565811157226562e+00 1.064286589622497559e+00
-1.373515963554382324e+00 -6.978503704071044922e+00 1.385084867477416992e+00
-1.276104211807250977e+00 -4.650397777557373047e+00 8.520385622978210449e-01
-1.115909576416015625e+00 -5.664449691772460938e+00 9.061428904533386230e-01
-8.950510621070861816e-01 -5.597569465637207031e+00 8.360664844512939453e-01
-1.273017168045043945e+00 -4.635976791381835938e+00 6.696732044219970703e-01
-1.329643249511718750e+00 -5.635907173156738281e+00 7.500162720680236816e-01
-1.120885252952575684e+00 -5.663640022277832031e+00 6.935576796531677246e-01
-8.992055654525756836e-01 -5.604727268218994141e+00 6.276834011077880859e-01
-1.373343229293823242e+00 -4.994508743286132812e+00 5.307206511497497559e-01
-1.325980663299560547e+00 -5.611617088317871094e+00 5.359244942665100098e-01
-1.109575033187866211e+00 -5.596233844757080078e+00 4.760685265064239502e-01
-1.474655389785766602e+00 -5.355641841888427734e+00 3.660383224487304688e-01
-1.252446889877319336e+00 -5.292163372039794922e+00 3.069072961807250977e-01
-8.708955645561218262e-01 -4.384410858154296875e+00 2.100212126970291138e-01
-1.290417909622192383e+00 -4.683335781097412109e+00 1.441779434680938721e-01
-1.004687666893005371e+00 -4.238664150238037109e+00 8.820501714944839478e-02
-8.576970100402832031e-01 -4.306164741516113281e+00 4.674793779850006104e-02
-1.516183018684387207e+00 -5.391735076904296875e+00 1.650547027587890625e+00
-1.300604343414306641e+00 -6.440850257873535156e+00 1.792652606964111328e+00
-1.338598608970642090e+00 -4.763412952423095703e+00 1.256612539291381836e+00
-1.311326265335083008e+00 -6.476467609405517578e+00 1.540135860443115234e+00
-1.297659277915954590e+00 -4.620826244354248047e+00 1.030693054199218750e+00
-1.315842628479003906e+00 -6.475526809692382812e+00 1.286832928657531738e+00
-1.293691635131835938e+00 -4.603611469268798828e+00 8.449048995971679688e-01
-1.154779672622680664e+00 -5.677825927734375000e+00 9.093990325927734375e-01
-9.269472360610961914e-01 -5.577332973480224609e+00 8.338777422904968262e-01
-1.298757910728454590e+00 -4.618544101715087891e+00 6.682935953140258789e-01
-1.352284073829650879e+00 -5.578488349914550781e+00 7.434653043746948242e-01
-1.153032064437866211e+00 -5.644010066986083984e+00 6.920071244239807129e-01
-9.348863363265991211e-01 -5.606947422027587891e+00 6.285626888275146484e-01
-1.301773309707641602e+00 -4.623074531555175781e+00 4.920912683010101318e-01
-1.364851355552673340e+00 -5.621759891510009766e+00 5.376828312873840332e-01
-1.144691109657287598e+00 -5.593225002288818359e+00 4.764011204242706299e-01
-1.303854823112487793e+00 -4.624279022216796875e+00 3.165931999683380127e-01
-1.287726163864135742e+00 -5.296020984649658203e+00 3.075834214687347412e-01
-8.917626738548278809e-01 -4.349628448486328125e+00 2.086132466793060303e-01
-1.308544397354125977e+00 -4.637811660766601562e+00 1.430209726095199585e-01
-8.851097226142883301e-01 -4.305718421936035156e+00 4.680117219686508179e-02
-1.550564169883728027e+00 -5.386939525604248047e+00 1.651960372924804688e+00
-1.337345600128173828e+00 -6.419526100158691406e+00 1.788967728614807129e+00
-1.547048807144165039e+00 -5.378257751464843750e+00 1.421289205551147461e+00
-1.348451852798461914e+00 -6.455906391143798828e+00 1.537184953689575195e+00
-1.540187716484069824e+00 -5.357924938201904297e+00 1.197191119194030762e+00
-1.355752229690551758e+00 -6.468291759490966797e+00 1.287024021148681641e+00
-1.539148449897766113e+00 -5.350791931152343750e+00 9.837504029273986816e-01
-1.181280493736267090e+00 -5.630991935729980469e+00 9.030417799949645996e-01
-9.609835147857666016e-01 -5.570565700531005859e+00 8.337318897247314453e-01
-1.535557389259338379e+00 -5.334803104400634766e+00 7.732835412025451660e-01
-1.422658920288085938e+00 -5.715400695800781250e+00 7.628611922264099121e-01
-1.182933449745178223e+00 -5.614483833312988281e+00 6.892639398574829102e-01
-9.696112275123596191e-01 -5.603064537048339844e+00 6.287824511528015137e-01
-1.543352723121643066e+00 -5.354853153228759766e+00 5.709808468818664551e-01
-1.391131281852722168e+00 -5.580430507659912109e+00 5.345363616943359375e-01
-1.176931023597717285e+00 -5.576345920562744141e+00 4.755695760250091553e-01
-1.522835493087768555e+00 -5.276743412017822266e+00 3.618959486484527588e-01
-1.324550867080688477e+00 -5.305456161499023438e+00 3.085976243019104004e-01
-9.165751934051513672e-01 -4.335278987884521484e+00 2.081908583641052246e-01
-9.142079949378967285e-01 -4.312922954559326172e+00 4.693957418203353882e-02
-1.580878853797912598e+00 -5.368122577667236328e+00 1.649133563041687012e+00
-1.387525796890258789e+00 -5.463645458221435547e+00 1.597257852554321289e+00
-1.372456431388854980e+00 -6.391391754150390625e+00 1.783440589904785156e+00
-1.578104615211486816e+00 -5.362155437469482422e+00 1.419566035270690918e+00
-1.571103215217590332e+00 -5.341807842254638672e+00 1.195721387863159180e+00
-1.425002098083496094e+00 -5.594840526580810547e+00 1.180921912193298340e+00
-1.433342218399047852e+00 -6.635426998138427734e+00 1.322004795074462891e+00
-1.566112756729125977e+00 -5.321409225463867188e+00 9.800965785980224609e-01
-1.195977210998535156e+00 -5.531906127929687500e+00 8.883115053176879883e-01
-1.002634644508361816e+00 -5.606440067291259766e+00 8.400060534477233887e-01
-1.566583514213562012e+00 -5.319580078125000000e+00 7.724557518959045410e-01
-1.439783573150634766e+00 -5.636421203613281250e+00 7.534843683242797852e-01
-1.212937355041503906e+00 -5.586744308471679688e+00 6.867592930793762207e-01
-1.006956100463867188e+00 -5.613641262054443359e+00 6.306509375572204590e-01
-1.571397304534912109e+00 -5.329061031341552734e+00 5.692480802536010742e-01
-1.445334434509277344e+00 -5.649925708770751953e+00 5.420324206352233887e-01
-1.211124777793884277e+00 -5.569019317626953125e+00 4.755695760250091553e-01
-1.226572513580322266e+00 -4.154314994812011719e+00 2.854270339012145996e-01
-1.365256190299987793e+00 -5.329145908355712891e+00 3.104569911956787109e-01
-9.399694204330444336e-01 -4.314933300018310547e+00 2.074868679046630859e-01
-1.221487879753112793e+00 -4.134436607360839844e+00 1.279505193233489990e-01
-9.447079300880432129e-01 -4.325793266296386719e+00 4.714184999465942383e-02
-1.615170359611511230e+00 -5.362913608551025391e+00 1.650547027587890625e+00
-1.414718031883239746e+00 -5.430821895599365234e+00 1.590169787406921387e+00
-1.509979367256164551e+00 -6.827463626861572266e+00 1.907670736312866211e+00
-1.610417723655700684e+00 -5.350515365600585938e+00 1.419073820114135742e+00
-1.596528172492980957e+00 -5.307723999023437500e+00 1.190262436866760254e+00
-1.591923236846923828e+00 -5.289068222045898438e+00 9.759207963943481445e-01
-1.235694169998168945e+00 -5.550499439239501953e+00 8.924979567527770996e-01
-1.051787018775939941e+00 -5.679948329925537109e+00 8.519706726074218750e-01
-1.597766160964965820e+00 -5.305125713348388672e+00 7.717659473419189453e-01
-1.466800928115844727e+00 -5.598700523376464844e+00 7.496309280395507812e-01
-1.245894432067871094e+00 -5.573382854461669922e+00 6.860436797142028809e-01
-1.057534217834472656e+00 -5.694330215454101562e+00 6.404327154159545898e-01
-1.593439459800720215e+00 -5.284079074859619141e+00 5.654768943786621094e-01
-1.472899317741394043e+00 -5.613984107971191406e+00 5.394411683082580566e-01
-1.248103499412536621e+00 -5.574124813079833984e+00 4.766506254673004150e-01
-1.574207186698913574e+00 -5.213717460632324219e+00 3.588714003562927246e-01
-1.401735186576843262e+00 -5.335152626037597656e+00 3.113021552562713623e-01
-9.638045430183410645e-01 -4.297388553619384766e+00 2.069236934185028076e-01
-1.238160610198974609e+00 -4.098158359527587891e+00 1.270605176687240601e-01
-9.681620001792907715e-01 -4.306257247924804688e+00 4.699280112981796265e-02
-1.645223736763000488e+00 -5.343734741210937500e+00 1.647720336914062500e+00
-1.449007272720336914e+00 -5.425757408142089844e+00 1.591260313987731934e+00
-1.643787622451782227e+00 -5.342385768890380859e+00 1.419566035270690918e+00
-1.473336100578308105e+00 -5.509140491485595703e+00 1.387017369270324707e+00
-1.631364583969116211e+00 -5.305304050445556641e+00 1.191942095756530762e+00
-1.443116545677185059e+00 -5.388606071472167969e+00 1.141043424606323242e+00
-1.626083970069885254e+00 -5.284848213195800781e+00 9.769647121429443359e-01
-1.273478269577026367e+00 -5.559183597564697266e+00 8.951339125633239746e-01
-1.083082795143127441e+00 -5.654926776885986328e+00 8.491983413696289062e-01
-1.629996299743652344e+00 -5.294275760650634766e+00 7.716279625892639160e-01
-1.274282574653625488e+00 -5.540475845336914062e+00 6.829426288604736328e-01
-1.098640918731689453e+00 -5.719945430755615234e+00 6.440596580505371094e-01
-1.617333531379699707e+00 -5.246633529663085938e+00 5.625211000442504883e-01
-1.489734172821044922e+00 -5.539455413818359375e+00 5.331481695175170898e-01
-1.285413980484008789e+00 -5.579957485198974609e+00 4.778147935867309570e-01
-1.018375992774963379e+00 -5.287109375000000000e+00 3.982323110103607178e-01
-1.635596036911010742e+00 -5.299305438995361328e+00 3.654465377330780029e-01
-1.427954077720642090e+00 -5.302350044250488281e+00 3.098935782909393311e-01
-9.899299740791320801e-01 -4.290420055389404297e+00 2.068767398595809937e-01
-1.268041968345642090e+00 -4.702019691467285156e+00 9.861065447330474854e-02
-9.878069162368774414e-01 -4.271008968353271484e+00 4.667341336607933044e-02
-1.669057369232177734e+00 -5.305174350738525391e+00 1.638957262039184570e+00
-1.364695668220520020e+00 -4.987097740173339844e+00 1.465039014816284180e+00
-1.675955533981323242e+00 -5.330349922180175781e+00 1.419073820114135742e+00
-1.264443397521972656e+00 -4.614411830902099609e+00 1.163686037063598633e+00
-1.364353179931640625e+00 -6.951557159423828125e+00 1.583501815795898438e+00
-1.666817545890808105e+00 -5.304522037506103516e+00 1.194041728973388672e+00
-1.375824689865112305e+00 -5.014014720916748047e+00 1.063490986824035645e+00
-1.355513453483581543e+00 -6.874767303466796875e+00 1.296164512634277344e+00
-1.663501858711242676e+00 -5.290740966796875000e+00 9.799226522445678711e-01
-1.279037952423095703e+00 -4.654920101165771484e+00 8.043730258941650391e-01
-1.114303469657897949e+00 -5.630705833435058594e+00 8.465719223022460938e-01
-1.663045167922973633e+00 -5.286064147949218750e+00 7.719038724899291992e-01
-1.272041678428649902e+00 -4.623140335083007812e+00 6.210529804229736328e-01
-1.332929611206054688e+00 -5.636903762817382812e+00 6.958237886428833008e-01
-1.130621790885925293e+00 -5.697497844696044922e+00 6.423011422157287598e-01
-1.650691390037536621e+00 -5.240406513214111328e+00 5.629287958145141602e-01
-1.479526758193969727e+00 -5.369900703430175781e+00 5.176932811737060547e-01
-1.327895522117614746e+00 -5.606874465942382812e+00 4.808084070682525635e-01
-1.064032673835754395e+00 -5.347272396087646484e+00 4.032480418682098389e-01
-1.669581890106201172e+00 -5.293928146362304688e+00 3.657752871513366699e-01
-1.439218521118164062e+00 -5.216492176055908203e+00 3.053860068321228027e-01
-1.036524772644042969e+00 -4.369795322418212891e+00 2.110067903995513916e-01
-8.716978430747985840e-01 -4.368745326995849609e+00 1.672453284263610840e-01
-1.294473052024841309e+00 -4.685477733612060547e+00 9.842845797538757324e-02
-1.006361961364746094e+00 -4.232764244079589844e+00 4.632208496332168579e-02
-8.540397286415100098e-01 -4.272474765777587891e+00 5.323078949004411697e-03
-1.849196672439575195e+00 -5.754181385040283203e+00 1.781143426895141602e+00
-1.312447190284729004e+00 -4.683099746704101562e+00 1.378074526786804199e+00
-1.293070793151855469e+00 -6.409668445587158203e+00 1.719081401824951172e+00
-1.688180088996887207e+00 -5.256292343139648438e+00 1.402089238166809082e+00
-1.287219882011413574e+00 -4.586920261383056641e+00 1.158723235130310059e+00
-1.316077232360839844e+00 -6.494468212127685547e+00 1.481192708015441895e+00
-1.700230479240417480e+00 -5.296987533569335938e+00 1.194671630859375000e+00
-1.304524064064025879e+00 -4.642353057861328125e+00 9.863393306732177734e-01
-1.308820724487304688e+00 -6.429828166961669922e+00 1.213767290115356445e+00
-1.698041796684265137e+00 -5.286997318267822266e+00 9.811405539512634277e-01
-1.289407849311828613e+00 -4.582417011260986328e+00 7.931966185569763184e-01
-1.140317559242248535e+00 -5.582083702087402344e+00 8.402978181838989258e-01
-1.701509118080139160e+00 -5.294619083404541016e+00 7.746631503105163574e-01
-1.295543670654296875e+00 -4.598066806793212891e+00 6.187409758567810059e-01
-1.367257595062255859e+00 -5.627654552459716797e+00 6.957045793533325195e-01
-1.159376859664916992e+00 -5.660267829895019531e+00 6.388940215110778809e-01
-1.682510137557983398e+00 -5.229232311248779297e+00 5.628268718719482422e-01
-1.303722500801086426e+00 -4.620914936065673828e+00 4.462489783763885498e-01
-1.359682083129882812e+00 -5.587970256805419922e+00 4.798937141895294189e-01
-1.099029779434204102e+00 -5.351387977600097656e+00 4.040593802928924561e-01
-1.705093026161193848e+00 -5.293082237243652344e+00 3.664328157901763916e-01
-1.358280658721923828e+00 -4.807868480682373047e+00 2.819467782974243164e-01
-1.307389020919799805e+00 -5.364905834197998047e+00 2.594407200813293457e-01
-8.942551016807556152e-01 -4.342760562896728516e+00 1.664574891328811646e-01
-1.515774130821228027e+00 -4.702571392059326172e+00 1.466402560472488403e-01
-1.228217363357543945e+00 -4.341693878173828125e+00 9.136313945055007935e-02
-8.869060277938842773e-01 -4.299473285675048828e+00 5.363395903259515762e-03
-1.939797759056091309e+00 -5.911335945129394531e+00 1.833438634872436523e+00
-1.494508385658264160e+00 -5.209503650665283203e+00 1.535646677017211914e+00
-1.331587195396423340e+00 -6.397826671600341797e+00 1.718064427375793457e+00
-1.523774504661560059e+00 -4.646284580230712891e+00 1.241843342781066895e+00
-1.532372951507568359e+00 -5.334464550018310547e+00 1.349913716316223145e+00
-1.355502247810363770e+00 -6.484359741210937500e+00 1.480756402015686035e+00
-1.545422434806823730e+00 -4.715072631835937500e+00 1.065546393394470215e+00
-1.539079666137695312e+00 -5.350772857666015625e+00 1.138839125633239746e+00
-1.357542872428894043e+00 -6.465943813323974609e+00 1.222134351730346680e+00
-1.562284350395202637e+00 -4.763708591461181641e+00 8.857929110527038574e-01
-1.539996147155761719e+00 -5.346932888031005859e+00 9.271492362022399902e-01
-1.174751043319702148e+00 -5.575949668884277344e+00 8.404437303543090820e-01
-1.559486985206604004e+00 -4.752377510070800781e+00 6.967139840126037598e-01
-1.544400334358215332e+00 -5.355195045471191406e+00 7.218858599662780762e-01
-1.185869097709655762e+00 -5.614148139953613281e+00 6.344977021217346191e-01
-1.530750274658203125e+00 -4.659314632415771484e+00 5.024875998497009277e-01
-1.537301063537597656e+00 -5.323597908020019531e+00 5.150094628334045410e-01
-1.388146519660949707e+00 -5.556318283081054688e+00 4.778979420661926270e-01
-1.134117364883422852e+00 -5.355276107788085938e+00 4.048707485198974609e-01
-1.612203955650329590e+00 -4.901473522186279297e+00 3.400007486343383789e-01
-1.493972778320312500e+00 -5.166787147521972656e+00 3.035266399383544922e-01
-1.334221482276916504e+00 -5.332556724548339844e+00 2.582674324512481689e-01
-9.167340397834777832e-01 -4.317641735076904297e+00 1.657071858644485474e-01
-1.527413368225097656e+00 -4.640961647033691406e+00 1.450086086988449097e-01
-1.203673481941223145e+00 -4.157370567321777344e+00 8.763816207647323608e-02
-9.193033576011657715e-01 -4.322315692901611328e+00 5.398825742304325104e-03
-1.436207890510559082e+00 -4.892818450927734375e+00 1.444865465164184570e+00
-1.342010259628295898e+00 -6.255258083343505859e+00 1.681958913803100586e+00
-1.556254744529724121e+00 -4.648796081542968750e+00 1.245043396949768066e+00
-1.566993713378906250e+00 -5.331487655639648438e+00 1.351567983627319336e+00
-1.778133630752563477e+00 -5.314666748046875000e+00 1.203490018844604492e+00
-1.570776104927062988e+00 -5.337469100952148438e+00 1.138037562370300293e+00
-1.759979963302612305e+00 -5.257357120513916016e+00 9.795745611190795898e-01
-1.566083788871765137e+00 -5.314674377441406250e+00 9.232045412063598633e-01
-1.202016115188598633e+00 -5.536733150482177734e+00 8.356286883354187012e-01
-1.766039490699768066e+00 -5.272401332855224609e+00 7.745252251625061035e-01
-1.569652676582336426e+00 -5.319936275482177734e+00 7.184177041053771973e-01
-1.452465176582336426e+00 -5.673933982849121094e+00 7.035763859748840332e-01
-1.216701030731201172e+00 -5.590255260467529297e+00 6.326292157173156738e-01
-1.559310436248779297e+00 -4.649834632873535156e+00 5.024875998497009277e-01
-1.251153945922851562e+00 -4.235019207000732422e+00 4.104343354701995850e-01
-1.424440503120422363e+00 -5.556384086608886719e+00 4.786463379859924316e-01
-1.165679812431335449e+00 -5.342370510101318359e+00 4.044281840324401855e-01
-1.760391116142272949e+00 -5.243381023406982422e+00 3.644602596759796143e-01
-1.243571162223815918e+00 -4.203950881958007812e+00 2.474077492952346802e-01
-1.367164731025695801e+00 -5.325237274169921875e+00 2.583143413066864014e-01
-9.406468272209167480e-01 -4.300220966339111328e+00 1.652569919824600220e-01
-1.547903656959533691e+00 -4.607814311981201172e+00 1.442669630050659180e-01
-1.228308200836181641e+00 -4.147031307220458984e+00 8.757743239402770996e-02
-9.483756422996520996e-01 -4.328315734863281250e+00 5.413486622273921967e-03
-2.036080837249755859e+00 -5.956975936889648438e+00 1.855204582214355469e+00
-1.390679478645324707e+00 -4.632346630096435547e+00 1.370441317558288574e+00
-1.406650662422180176e+00 -5.407832145690917969e+00 1.524452090263366699e+00
-1.599957346916198730e+00 -5.322702884674072266e+00 1.351804256439208984e+00
-1.820503115653991699e+00 -5.332339763641357422e+00 1.209998726844787598e+00
-1.592767119407653809e+00 -5.292080879211425781e+00 1.130422592163085938e+00
-1.434667587280273438e+00 -5.488013267517089844e+00 1.104665398597717285e+00
-1.814488649368286133e+00 -5.311690807342529297e+00 9.917540550231933594e-01
-1.592972397804260254e+00 -5.286076068878173828e+00 9.199174046516418457e-01
-1.231865763664245605e+00 -5.510909557342529297e+00 8.328564167022705078e-01
-1.813733100891113281e+00 -5.306451320648193359e+00 7.811474204063415527e-01
-1.601406216621398926e+00 -5.307356357574462891e+00 7.180323600769042969e-01
-1.252283334732055664e+00 -5.588503837585449219e+00 6.332886815071105957e-01
-1.804565906524658203e+00 -5.273615360260009766e+00 5.710827708244323730e-01
-1.618352174758911133e+00 -5.356756210327148438e+00 5.200994014739990234e-01
-1.468896031379699707e+00 -5.587054729461669922e+00 4.820557832717895508e-01
-1.199312329292297363e+00 -5.339009761810302734e+00 4.047232270240783691e-01
-1.816461324691772461e+00 -5.302335262298583984e+00 3.693258762359619141e-01
-1.593399405479431152e+00 -5.267520427703857422e+00 3.105696737766265869e-01
-1.395236134529113770e+00 -5.299360752105712891e+00 2.574695646762847900e-01
-9.624047279357910156e-01 -4.273895740509033203e+00 1.644691675901412964e-01
-2.326786518096923828e+00 -6.788133144378662109e+00 2.129739820957183838e-01
-9.740357398986816406e-01 -4.318512916564941406e+00 5.408599507063627243e-03
-2.068172693252563477e+00 -5.931690216064453125e+00 1.851247191429138184e+00
-1.417383074760437012e+00 -4.618207454681396484e+00 1.368805527687072754e+00
-1.430359721183776855e+00 -5.363677024841308594e+00 1.514450550079345703e+00
-1.635726332664489746e+00 -5.323002338409423828e+00 1.354403972625732422e+00
-1.470152378082275391e+00 -5.501323223114013672e+00 1.327218055725097656e+00
-1.858654022216796875e+00 -5.336764812469482422e+00 1.213568091392517090e+00
-1.626937389373779297e+00 -5.287827014923095703e+00 1.131624937057495117e+00
-1.448242306709289551e+00 -5.404206275939941406e+00 1.089564323425292969e+00
-1.847694396972656250e+00 -5.302317142486572266e+00 9.921020269393920898e-01
-1.626248359680175781e+00 -5.279030799865722656e+00 9.204105138778686523e-01
-1.266765594482421875e+00 -5.508068084716796875e+00 8.335859775543212891e-01
-1.855062842369079590e+00 -5.320473670959472656e+00 7.848724126815795898e-01
-1.636864423751831055e+00 -5.306907176971435547e+00 7.193168401718139648e-01
-1.269580841064453125e+00 -5.507106304168701172e+00 6.249357461929321289e-01
-1.844430685043334961e+00 -5.284045696258544922e+00 5.734270215034484863e-01
-1.627391695976257324e+00 -5.269663810729980469e+00 5.126032829284667969e-01
-1.515077710151672363e+00 -5.622198104858398438e+00 4.858809411525726318e-01
-1.238560914993286133e+00 -5.359728336334228516e+00 4.068622887134552002e-01
-1.861470222473144531e+00 -5.326884746551513672e+00 3.718244135379791260e-01
-1.648990273475646973e+00 -5.332998752593994141e+00 3.150208592414855957e-01
-1.416795730590820312e+00 -5.250195026397705078e+00 2.554984092712402344e-01
-9.874832034111022949e-01 -4.263042449951171875e+00 1.642815768718719482e-01
-2.356517076492309570e+00 -6.739760875701904297e+00 2.119059860706329346e-01
-1.280597448348999023e+00 -4.735628604888916016e+00 5.223078653216362000e-02
-9.971252679824829102e-01 -4.297843456268310547e+00 5.390273872762918472e-03
-1.443101644515991211e+00 -4.601161003112792969e+00 1.366351962089538574e+00
-1.265906691551208496e+00 -4.632636547088623047e+00 1.310207605361938477e+00
-1.668938994407653809e+00 -5.314719676971435547e+00 1.354876637458801270e+00
-1.309175610542297363e+00 -4.781134128570556641e+00 1.155385613441467285e+00
-1.888746976852416992e+00 -5.317889690399169922e+00 1.211888432502746582e+00
-1.663172245025634766e+00 -5.289894580841064453e+00 1.134230136871337891e+00
-1.321282148361206055e+00 -4.812156200408935547e+00 9.718149304389953613e-01
-1.889756679534912109e+00 -5.317789077758789062e+00 9.971477985382080078e-01
-1.663051962852478027e+00 -5.283065795898437500e+00 9.228758811950683594e-01
-1.278583288192749023e+00 -4.653464317321777344e+00 7.574448585510253906e-01
-1.318977832794189453e+00 -5.578174114227294922e+00 8.454046845436096191e-01
-1.892651081085205078e+00 -5.322989463806152344e+00 7.869418859481811523e-01
-1.670886754989624023e+00 -5.301492691040039062e+00 7.199591398239135742e-01
-1.297786593437194824e+00 -4.707272052764892578e+00 5.865721106529235840e-01
-1.319622516632080078e+00 -5.567880153656005859e+00 6.327391862869262695e-01
-1.873815774917602539e+00 -5.264194011688232422e+00 5.725097060203552246e-01
-1.656998395919799805e+00 -5.251033306121826172e+00 5.117704272270202637e-01
-1.512418627738952637e+00 -5.478311538696289062e+00 4.742390811443328857e-01
-1.272115707397460938e+00 -5.354938507080078125e+00 4.070835411548614502e-01
-1.904838681221008301e+00 -5.345440864562988281e+00 3.739284873008728027e-01
-1.680478930473327637e+00 -5.318972587585449219e+00 3.147955238819122314e-01
-1.294876098632812500e+00 -4.683950424194335938e+00 2.283247262239456177e-01
-1.123571991920471191e+00 -4.718658924102783203e+00 1.821015626192092896e-01
-2.316926240921020508e+00 -6.498271942138671875e+00 2.047564238309860229e-01
-1.301889300346374512e+00 -4.699736118316650391e+00 5.192204564809799194e-02
-1.026029348373413086e+00 -4.302344322204589844e+00 5.403712857514619827e-03
-1.471306681632995605e+00 -4.592219829559326172e+00 1.366351962089538574e+00
-1.294048190116882324e+00 -4.623852729797363281e+00 1.309944510459899902e+00
-1.698847055435180664e+00 -5.296051979064941406e+00 1.352749705314636230e+00
-1.283264994621276855e+00 -4.576089382171630859e+00 1.107717394828796387e+00
-1.917679786682128906e+00 -5.296087741851806641e+00 1.209578752517700195e+00
-1.699793100357055664e+00 -5.292648792266845703e+00 1.137035608291625977e+00
-1.279578447341918945e+00 -4.550720691680908203e+00 9.205863475799560547e-01
-1.925704598426818848e+00 -5.315351963043212891e+00 9.988877177238464355e-01
-1.698154449462890625e+00 -5.281213283538818359e+00 9.243550896644592285e-01
-1.291057825088500977e+00 -4.588472843170166016e+00 7.481415867805480957e-01
-1.930339574813842773e+00 -5.325242996215820312e+00 7.890113592147827148e-01
-1.700953245162963867e+00 -5.283588409423828125e+00 7.189314961433410645e-01
-1.301018953323364258e+00 -4.608446598052978516e+00 5.752414464950561523e-01
-1.368576049804687500e+00 -5.620518684387207031e+00 6.396633386611938477e-01
-1.907438397407531738e+00 -5.256338119506835938e+00 5.729174017906188965e-01
-1.692547082901000977e+00 -5.251192092895507812e+00 5.127884149551391602e-01
-1.305008888244628906e+00 -4.616415977478027344e+00 4.003133177757263184e-01
-1.307786464691162109e+00 -5.358658313751220703e+00 4.079686701297760010e-01
-1.942712306976318359e+00 -5.347720146179199219e+00 3.749147355556488037e-01
-1.714310288429260254e+00 -5.312361240386962891e+00 3.150208592414855957e-01
-1.308084130287170410e+00 -4.621132373809814453e+00 2.256495952606201172e-01
-1.387563586235046387e+00 -5.672648429870605469e+00 2.192421853542327881e-01
-2.497436523437500000e+00 -6.870977401733398438e+00 2.169789075851440430e-01
-1.536575913429260254e+00 -4.755911350250244141e+00 1.012019366025924683e-01
-1.189909815788269043e+00 -4.195268630981445312e+00 4.642854630947113037e-02
-1.490481257438659668e+00 -4.555673122406005859e+00 1.358173489570617676e+00
-1.537081956863403320e+00 -5.365190505981445312e+00 1.522609710693359375e+00
-1.528054237365722656e+00 -4.665004730224609375e+00 1.193936228752136230e+00
-1.535694479942321777e+00 -5.349766254425048828e+00 1.297255158424377441e+00
-1.949801325798034668e+00 -5.283304214477539062e+00 1.209368824958801270e+00
-1.540511727333068848e+00 -4.697492599487304688e+00 1.011188149452209473e+00
-1.530095577239990234e+00 -5.316264152526855469e+00 1.077330708503723145e+00
-1.967492580413818359e+00 -5.328378200531005859e+00 1.003585457801818848e+00
-1.567136645317077637e+00 -4.773052692413330078e+00 8.370804786682128906e-01
-1.536546230316162109e+00 -5.335173130035400391e+00 8.714104890823364258e-01
-1.388767957687377930e+00 -5.567327499389648438e+00 8.462801575660705566e-01
-1.972932219505310059e+00 -5.340240955352783203e+00 7.930122613906860352e-01
-1.557436347007751465e+00 -4.737927436828613281e+00 6.459721922874450684e-01
-1.535979509353637695e+00 -5.315757751464843750e+00 6.646942496299743652e-01
-1.409063935279846191e+00 -5.636122226715087891e+00 6.424110531806945801e-01
-1.943450689315795898e+00 -5.254798412322998047e+00 5.740385651588439941e-01
-1.533306002616882324e+00 -4.659037113189697266e+00 4.558735787868499756e-01
-1.241080760955810547e+00 -4.289549827575683594e+00 3.726223707199096680e-01
-1.345004916191101074e+00 -5.367945671081542969e+00 4.092963635921478271e-01
-1.977221131324768066e+00 -5.340378284454345703e+00 3.752435147762298584e-01
-1.530975222587585449e+00 -4.646492481231689453e+00 2.760869860649108887e-01
-1.222174286842346191e+00 -4.218686580657958984e+00 2.063605040311813354e-01
-1.370989918708801270e+00 -5.459525585174560547e+00 2.113263607025146484e-01
-2.451355934143066406e+00 -6.617445945739746094e+00 2.094436883926391602e-01
-1.553513526916503906e+00 -4.709364414215087891e+00 1.004124060273170471e-01
-1.217022895812988281e+00 -4.192690372467041016e+00 4.648178070783615112e-02
-1.524806618690490723e+00 -4.565606117248535156e+00 1.363898515701293945e+00
-1.567259192466735840e+00 -5.346399784088134766e+00 1.519977688789367676e+00
-1.553260207176208496e+00 -4.645404815673828125e+00 1.191336631774902344e+00
-1.564923286437988281e+00 -5.328094959259033203e+00 1.294304251670837402e+00
-1.771145105361938477e+00 -5.290901184082031250e+00 1.141243815422058105e+00
-1.565459489822387695e+00 -5.316191673278808594e+00 1.079242229461669922e+00
-2.004311084747314453e+00 -5.327265739440917969e+00 1.005673408508300781e+00
-1.765029311180114746e+00 -5.266523838043212891e+00 9.255055785179138184e-01
-1.565902590751647949e+00 -5.314273357391357422e+00 8.695498108863830566e-01
-1.438358068466186523e+00 -5.619080543518066406e+00 8.554725050926208496e-01
-2.013338804244995117e+00 -5.348427772521972656e+00 7.960474491119384766e-01
-1.778597116470336914e+00 -5.300865650177001953e+00 7.241979241371154785e-01
-1.567441582679748535e+00 -5.302424430847167969e+00 6.642171740531921387e-01
-1.440162301063537598e+00 -5.613891601562500000e+00 6.408723592758178711e-01
-2.010735988616943359e+00 -5.335864067077636719e+00 5.842310190200805664e-01
-1.657935380935668945e+00 -4.935536384582519531e+00 4.839145243167877197e-01
-1.252953052520751953e+00 -4.233119964599609375e+00 3.683814108371734619e-01
-1.376426815986633301e+00 -5.353796958923339844e+00 4.088537991046905518e-01
-2.013121366500854492e+00 -5.336548328399658203e+00 3.758352696895599365e-01
-1.793693542480468750e+00 -5.333508968353271484e+00 3.175563812255859375e-01
-1.243779063224792480e+00 -4.196742534637451172e+00 2.056565284729003906e-01
-1.395237922668457031e+00 -5.415205955505371094e+00 2.099382728338241577e-01
-2.531445503234863281e+00 -6.707018852233886719e+00 2.127663195133209229e-01
-1.234186887741088867e+00 -4.156386852264404297e+00 4.616239294409751892e-02
-1.598095178604125977e+00 -5.330214023590087891e+00 1.518135309219360352e+00
-1.595345020294189453e+00 -5.310930728912353516e+00 1.292488336563110352e+00
-1.422023892402648926e+00 -5.451553821563720703e+00 1.259341001510620117e+00
-1.812760353088378906e+00 -5.306820869445800781e+00 1.147055387496948242e+00
-1.594087004661560059e+00 -5.293327808380126953e+00 1.076566100120544434e+00
-1.461009979248046875e+00 -5.581066608428955078e+00 1.067162156105041504e+00
-2.045418977737426758e+00 -5.336935997009277344e+00 1.009849190711975098e+00
-1.814227581024169922e+00 -5.305061817169189453e+00 9.342166781425476074e-01
-1.593350172042846680e+00 -5.287538528442382812e+00 8.667588233947753906e-01
-1.478084206581115723e+00 -5.630243301391601562e+00 8.585366606712341309e-01
-2.050728082656860352e+00 -5.347995758056640625e+00 7.978410124778747559e-01
-1.816871166229248047e+00 -5.306740760803222656e+00 7.265099883079528809e-01
-1.599085330963134766e+00 -5.289855957031250000e+00 6.638593673706054688e-01
-1.469270706176757812e+00 -5.584763526916503906e+00 6.385642886161804199e-01
-2.015988111495971680e+00 -5.251914024353027344e+00 5.763828158378601074e-01
-1.808934330940246582e+00 -5.277546405792236328e+00 5.185261368751525879e-01
-1.593865871429443359e+00 -5.265953063964843750e+00 4.591046869754791260e-01
-1.416624069213867188e+00 -5.373215675354003906e+00 4.109928309917449951e-01
-2.045470237731933594e+00 -5.323163986206054688e+00 3.757694959640502930e-01
-1.835783362388610840e+00 -5.349789619445800781e+00 3.191903829574584961e-01
-1.486788392066955566e+00 -4.906004428863525391e+00 2.408556193113327026e-01
-1.434309720993041992e+00 -5.428764343261718750e+00 2.108011394739151001e-01
-1.830772638320922852e+00 -4.761949539184570312e+00 1.514165103435516357e-01
-1.638121604919433594e+00 -5.344290256500244141e+00 1.524978518486022949e+00
-1.629617571830749512e+00 -5.306628227233886719e+00 1.293850302696228027e+00
-1.854756236076354980e+00 -5.304884433746337891e+00 5.223204493522644043e-01
-1.894576072692871094e+00 -4.839049339294433594e+00 1.542348116636276245e-01
-1.322394132614135742e+00 -4.876889228820800781e+00 6.173403002321720123e-03
-1.665691971778869629e+00 -5.317566871643066406e+00 1.520241022109985352e+00
-1.317354321479797363e+00 -4.824429512023925781e+00 1.314801216125488281e+00
-1.664772152900695801e+00 -5.304891586303710938e+00 1.295893192291259766e+00
-1.342332720756530762e+00 -4.899077415466308594e+00 1.135435700416564941e+00
-1.884635686874389648e+00 -5.303562164306640625e+00 1.151263594627380371e+00
-1.658629536628723145e+00 -5.272430896759033203e+00 1.076374888420104980e+00
-1.341179966926574707e+00 -4.878163337707519531e+00 9.358359575271606445e-01
-2.122758388519287109e+00 -5.341633319854736328e+00 1.015590906143188477e+00
-1.892416715621948242e+00 -5.319572448730468750e+00 9.407910108566284180e-01
-1.666125178337097168e+00 -5.293030261993408203e+00 8.709452748298645020e-01
-1.308852434158325195e+00 -4.747611999511718750e+00 7.263418436050415039e-01
-2.127911567687988281e+00 -5.351878643035888672e+00 8.022557497024536133e-01
-1.352694034576416016e+00 -4.896630287170410156e+00 5.617387294769287109e-01
-1.883258938789367676e+00 -5.282149791717529297e+00 5.212099552154541016e-01
-1.920072674751281738e+00 -4.819343090057373047e+00 3.418417870998382568e-01
-1.302100419998168945e+00 -4.694327354431152344e+00 1.828893870115280151e-01
-1.888701081275939941e+00 -4.738195896148681641e+00 1.513868421316146851e-01
-1.561941146850585938e+00 -4.926006317138671875e+00 5.502011999487876892e-02
-1.317234754562377930e+00 -4.742461681365966797e+00 6.013356614857912064e-03
-2.107711315155029297e+00 -5.207770824432373047e+00 1.655635237693786621e+00
-1.690055727958679199e+00 -5.281518459320068359e+00 1.512871384620666504e+00
-1.285198330879211426e+00 -4.595514297485351562e+00 1.254540443420410156e+00
-1.697291016578674316e+00 -5.294577121734619141e+00 1.295893192291259766e+00
-1.296959757804870605e+00 -4.622015476226806641e+00 1.073046684265136719e+00
-2.134403228759765625e+00 -5.279019832611083984e+00 1.222806334495544434e+00
-1.920479178428649902e+00 -5.301109313964843750e+00 1.153267502784729004e+00
-1.675634503364562988e+00 -5.214495182037353516e+00 1.066626191139221191e+00
-1.304464340209960938e+00 -4.633212089538574219e+00 8.903628587722778320e-01
-2.162879705429077148e+00 -5.346765041351318359e+00 1.019070744514465332e+00
-1.931747436523437500e+00 -5.326406955718994141e+00 9.440782070159912109e-01
-1.697664141654968262e+00 -5.279886245727539062e+00 8.704801797866821289e-01
-1.312693834304809570e+00 -4.649995326995849609e+00 7.126262784004211426e-01
-2.174086809158325195e+00 -5.371772766113281250e+00 8.072224855422973633e-01
-1.932519078254699707e+00 -5.322736740112304688e+00 7.334462404251098633e-01
-1.707458615303039551e+00 -5.294488430023193359e+00 6.682723164558410645e-01
-1.323466181755065918e+00 -4.678783416748046875e+00 5.376689434051513672e-01
-2.120908498764038086e+00 -5.235122680664062500e+00 5.787271261215209961e-01
-1.914273619651794434e+00 -5.266751289367675781e+00 5.208397507667541504e-01
-1.711346268653869629e+00 -5.300209045410156250e+00 4.647592902183532715e-01
-1.363541245460510254e+00 -4.810839653015136719e+00 3.698345720767974854e-01
-2.118355989456176758e+00 -5.223582267761230469e+00 3.714299201965332031e-01
-1.952720522880554199e+00 -5.366694927215576172e+00 3.222892880439758301e-01
-1.535053133964538574e+00 -4.748542308807373047e+00 2.344728410243988037e-01
-1.312588691711425781e+00 -4.621843814849853516e+00 1.803758442401885986e-01
-1.921121001243591309e+00 -4.734854221343994141e+00 1.516538560390472412e-01
-1.309382677078247070e+00 -4.604438304901123047e+00 5.848422646522521973e-03
-1.514168977737426758e+00 -4.633718490600585938e+00 1.329947710037231445e+00
-1.538300633430480957e+00 -5.373207569122314453e+00 1.469393849372863770e+00
-1.526139616966247559e+00 -4.662081718444824219e+00 1.143355131149291992e+00
-1.543528795242309570e+00 -5.373742103576660156e+00 1.249742627143859863e+00
-1.959757089614868164e+00 -5.307607173919677734e+00 1.157275319099426270e+00
-1.521537542343139648e+00 -4.637072086334228516e+00 9.504059553146362305e-01
-1.545528411865234375e+00 -5.363061428070068359e+00 1.032420635223388672e+00
-2.200519561767578125e+00 -5.345231056213378906e+00 1.021332740783691406e+00
-1.966103196144104004e+00 -5.319079399108886719e+00 9.448999762535095215e-01
-1.542973875999450684e+00 -4.699632644653320312e+00 7.763616442680358887e-01
-1.537548065185546875e+00 -5.321403980255126953e+00 8.169522285461425781e-01
-2.212287425994873047e+00 -5.371152877807617188e+00 8.091539740562438965e-01
-1.967207431793212891e+00 -5.316359519958496094e+00 7.342169284820556641e-01
-1.566014766693115234e+00 -4.755803585052490234e+00 6.014809012413024902e-01
-1.543694972991943359e+00 -5.332207679748535156e+00 6.138349771499633789e-01
-2.203042507171630859e+00 -5.343410015106201172e+00 5.921811461448669434e-01
-1.971802234649658203e+00 -5.323067188262939453e+00 5.275954604148864746e-01
-1.550700068473815918e+00 -4.703767299652099609e+00 4.132856726646423340e-01
-1.292460203170776367e+00 -4.455660820007324219e+00 3.431333303451538086e-01
-2.213176727294921875e+00 -5.362677574157714844e+00 3.822788894176483154e-01
-1.987348914146423340e+00 -5.359292984008789062e+00 3.225710093975067139e-01
-1.527530074119567871e+00 -4.628051757812500000e+00 2.289817780256271362e-01
-1.220998644828796387e+00 -4.201079845428466797e+00 1.642440706491470337e-01
-1.948992729187011719e+00 -4.720205307006835938e+00 1.515648514032363892e-01
-1.555724859237670898e+00 -4.705196857452392578e+00 5.276310071349143982e-02
-1.223604679107666016e+00 -4.204569816589355469e+00 5.349956452846527100e-03
-2.289727926254272461e+00 -5.463723659515380859e+00 1.745808839797973633e+00
-1.538298368453979492e+00 -4.611527442932128906e+00 1.326262831687927246e+00
-1.566347002983093262e+00 -5.346961021423339844e+00 1.464817047119140625e+00
-1.553482294082641602e+00 -4.648935317993164062e+00 1.142447233200073242e+00
-1.571794509887695312e+00 -5.348252773284912109e+00 1.246034264564514160e+00
-2.228475332260131836e+00 -5.322774887084960938e+00 1.239183187484741211e+00
-2.001946687698364258e+00 -5.321157455444335938e+00 1.162886500358581543e+00
-1.613244295120239258e+00 -4.816589355468750000e+00 9.892097711563110352e-01
-1.569785952568054199e+00 -5.324238777160644531e+00 1.026782035827636719e+00
-2.244689464569091797e+00 -5.358876705169677734e+00 1.026552438735961914e+00
-2.011219263076782227e+00 -5.340147495269775391e+00 9.508169293403625488e-01
-1.774571418762207031e+00 -5.295187473297119141e+00 8.765273094177246094e-01
-1.572414040565490723e+00 -5.319459438323974609e+00 8.181194663047790527e-01
-2.252093076705932617e+00 -5.373919963836669922e+00 8.116372823715209961e-01
-2.009237289428710938e+00 -5.329244136810302734e+00 7.376851439476013184e-01
-1.782739877700805664e+00 -5.304193973541259766e+00 6.722082495689392090e-01
-1.552956819534301758e+00 -5.243534564971923828e+00 6.047126650810241699e-01
-2.212313652038574219e+00 -5.273833274841308594e+00 5.859637260437011719e-01
-2.006536483764648438e+00 -5.316457748413085938e+00 5.281507372856140137e-01
-1.742570877075195312e+00 -5.178692340850830078e+00 4.559447467327117920e-01
-1.260198116302490234e+00 -4.246871471405029297e+00 3.276436328887939453e-01
-2.256083965301513672e+00 -5.372917175292968750e+00 3.839884400367736816e-01
-2.022665739059448242e+00 -5.353535652160644531e+00 3.229654431343078613e-01
-1.766689419746398926e+00 -5.244312286376953125e+00 2.600039243698120117e-01
-1.238209605216979980e+00 -4.164772987365722656e+00 1.631185859441757202e-01
-1.243388891220092773e+00 -4.176855564117431641e+00 5.324300378561019897e-03
-2.329980611801147461e+00 -5.465454101562500000e+00 1.750897049903869629e+00
-1.598015546798706055e+00 -5.333543777465820312e+00 1.463800072669982910e+00
-1.600648403167724609e+00 -5.325423240661621094e+00 1.242980241775512695e+00
-2.043323993682861328e+00 -5.331644058227539062e+00 1.167896270751953125e+00
-1.808155775070190430e+00 -5.290510654449462891e+00 1.088799715042114258e+00
-1.594760775566101074e+00 -5.289087295532226562e+00 1.021870970726013184e+00
-2.287951231002807617e+00 -5.369462966918945312e+00 1.031250119209289551e+00
-2.048541069030761719e+00 -5.339678287506103516e+00 9.529535770416259766e-01
-1.815020084381103516e+00 -5.307568073272705078e+00 8.804036974906921387e-01
-1.595291495323181152e+00 -5.277513980865478516e+00 8.131585121154785156e-01
-2.291239023208618164e+00 -5.374577522277832031e+00 8.138446807861328125e-01
-2.049365520477294922e+00 -5.336256504058837891e+00 7.403825521469116211e-01
-1.819117307662963867e+00 -5.304425239562988281e+00 6.736395359039306641e-01
-1.600082278251647949e+00 -5.283373355865478516e+00 6.104279160499572754e-01
-2.278990268707275391e+00 -5.340677261352539062e+00 5.949330925941467285e-01
-2.044479131698608398e+00 -5.317986488342285156e+00 5.295389294624328613e-01
-1.814440727233886719e+00 -5.284776687622070312e+00 4.662561118602752686e-01
-1.615174651145935059e+00 -5.323158740997314453e+00 4.114353954792022705e-01
-2.292928934097290039e+00 -5.368149757385253906e+00 3.846459686756134033e-01
-2.056910514831542969e+00 -5.344750881195068359e+00 3.231907784938812256e-01
-1.836824417114257812e+00 -5.343897342681884766e+00 2.654949426651000977e-01
-1.769760489463806152e+00 -5.821657180786132812e+00 2.284335494041442871e-01
-1.928604841232299805e+00 -4.513022422790527344e+00 1.456612646579742432e-01
-1.842743039131164551e+00 -4.783268451690673828e+00 1.037932336330413818e-01
-1.466710329055786133e+00 -4.818723201751708984e+00 6.153855007141828537e-03
-2.364617109298706055e+00 -5.453695297241210938e+00 1.751745223999023438e+00
-1.632694363594055176e+00 -5.330111026763916016e+00 1.465579986572265625e+00
-1.635300993919372559e+00 -5.322031974792480469e+00 1.244507312774658203e+00
-2.076712369918823242e+00 -5.320831775665283203e+00 1.168297052383422852e+00
-1.847046375274658203e+00 -5.297853469848632812e+00 1.092622756958007812e+00
-1.634424924850463867e+00 -5.302694797515869141e+00 1.026418209075927734e+00
-2.331427097320556641e+00 -5.379719257354736328e+00 1.035948038101196289e+00
-2.085932731628417969e+00 -5.338952541351318359e+00 9.550902843475341797e-01
-1.851782679557800293e+00 -5.308457851409912109e+00 8.824194669723510742e-01
-1.629980087280273438e+00 -5.275187492370605469e+00 8.143258094787597656e-01
-2.333629608154296875e+00 -5.382226467132568359e+00 8.171558380126953125e-01
-2.084598064422607422e+00 -5.330046653747558594e+00 7.412816882133483887e-01
-1.856220126152038574e+00 -5.306283950805664062e+00 6.753093004226684570e-01
-1.635703444480895996e+00 -5.283900260925292969e+00 6.116368770599365234e-01
-2.306964635848999023e+00 -5.315642356872558594e+00 5.937100052833557129e-01
-2.065092325210571289e+00 -5.274744510650634766e+00 5.264849662780761719e-01
-1.848150849342346191e+00 -5.277305603027343750e+00 4.665887057781219482e-01
-1.639239668846130371e+00 -5.285524845123291016e+00 4.092963635921478271e-01
-2.230007886886596680e+00 -5.133413314819335938e+00 3.687998652458190918e-01
-1.876546859741210938e+00 -4.788229465484619141e+00 2.902293801307678223e-01
-1.862639069557189941e+00 -5.312730789184570312e+00 2.645093798637390137e-01
-1.803669095039367676e+00 -5.804962635040283203e+00 2.282084524631500244e-01
-1.950283527374267578e+00 -4.487352848052978516e+00 1.452162712812423706e-01
-1.866945981979370117e+00 -4.758841514587402344e+00 1.035098135471343994e-01
-1.499517440795898438e+00 -4.820136547088623047e+00 6.167294457554817200e-03
-1.664790630340576172e+00 -5.318146705627441406e+00 1.465071320533752441e+00
-2.075469255447387695e+00 -5.228118896484375000e+00 1.368111133575439453e+00
-1.667633175849914551e+00 -5.310966491699218750e+00 1.244289159774780273e+00
-2.107512235641479492e+00 -5.303436756134033203e+00 1.167295098304748535e+00
-1.885766267776489258e+00 -5.303992748260498047e+00 1.096254706382751465e+00
-1.666340231895446777e+00 -5.290690422058105469e+00 1.026054501533508301e+00
-2.372334957122802734e+00 -5.383335113525390625e+00 1.039427876472473145e+00
-2.127767562866210938e+00 -5.348966598510742188e+00 9.591992497444152832e-01
-1.885644197463989258e+00 -5.300718307495117188e+00 8.830395936965942383e-01
-1.665891647338867188e+00 -5.276407718658447266e+00 8.160767555236816406e-01
-2.385389804840087891e+00 -5.410400867462158203e+00 8.236401081085205078e-01
-2.130104064941406250e+00 -5.349402904510498047e+00 7.457774281501770020e-01
-1.887743234634399414e+00 -5.291989326477050781e+00 6.749514937400817871e-01
-1.669892549514770508e+00 -5.279449939727783203e+00 6.122962832450866699e-01
-2.342750310897827148e+00 -5.308667659759521484e+00 5.945253968238830566e-01
-2.101105690002441406e+00 -5.271223545074462891e+00 5.274103879928588867e-01
-1.890551328659057617e+00 -5.294021129608154297e+00 4.690833985805511475e-01
-1.672543883323669434e+00 -5.278219223022460938e+00 4.095176458358764648e-01
-1.998184323310852051e+00 -4.523605823516845703e+00 3.258641660213470459e-01
-1.887761354446411133e+00 -4.731186389923095703e+00 2.874685227870941162e-01
-1.916723489761352539e+00 -5.361400127410888672e+00 2.675130367279052734e-01
