-9.384003281593322754e-01 -6.414131164550781250e+00 9.029688835144042969e-01
-6.992052793502807617e-01 -6.391161918640136719e+00 8.327376842498779297e-01
-4.716424643993377686e-01 -6.479151248931884766e+00 7.803865671157836914e-01
-2.457513213157653809e-01 -6.755329608917236328e+00 7.474828958511352539e-01
-9.701807498931884766e-01 -6.615233898162841797e+00 6.850342750549316406e-01
-1.056767702102661133e-01 -7.179446816444396973e-01 2.153769321739673615e-02
-9.786018133163452148e-01 -6.413907527923583984e+00 1.912022590637207031e+00
-8.437115550041198730e-01 -5.536296367645263672e+00 1.422273755073547363e+00
-8.386417031288146973e-01 -5.509484767913818359e+00 1.196771264076232910e+00
-8.364480733871459961e-01 -5.488634586334228516e+00 9.809665679931640625e-01
-2.752777040004730225e-01 -6.554255962371826172e+00 9.675317406654357910e-01
-8.417966961860656738e-01 -5.517265796661376953e+00 7.774224281311035156e-01
-7.396604418754577637e-01 -6.397588253021240234e+00 8.341506719589233398e-01
-5.152186751365661621e-01 -6.524634838104248047e+00 7.862308621406555176e-01
-2.768083810806274414e-01 -6.509405612945556641e+00 7.204455733299255371e-01
-8.375067114830017090e-01 -5.476326942443847656e+00 5.676172971725463867e-01
-9.947623610496520996e-01 -6.261892318725585938e+00 1.868490457534790039e+00
-9.880954623222351074e-01 -6.226938724517822266e+00 1.601227164268493652e+00
-9.930413365364074707e-01 -6.265171527862548828e+00 1.362219691276550293e+00
-9.823074936866760254e-01 -6.190463066101074219e+00 1.107458710670471191e+00
-3.124912679195404053e-01 -6.490189552307128906e+00 9.583393335342407227e-01
-9.022062420845031738e-01 -5.679264068603515625e+00 8.010141253471374512e-01
-7.948536276817321777e-01 -6.523859500885009766e+00 8.512344360351562500e-01
-5.567594766616821289e-01 -6.539157390594482422e+00 7.883777022361755371e-01
-3.160676658153533936e-01 -6.493686199188232422e+00 7.189068794250488281e-01
-8.371502757072448730e-01 -5.257900238037109375e+00 5.454996824264526367e-01
-1.038480281829833984e+00 -6.287848472595214844e+00 1.878101468086242676e+00
-1.028335571289062500e+00 -6.233190536499023438e+00 1.604427218437194824e+00
-1.032418847084045410e+00 -6.264748573303222656e+00 1.363479375839233398e+00
-1.027486205101013184e+00 -6.228042125701904297e+00 1.115288376808166504e+00
-3.516111075878143311e-01 -6.475308418273925781e+00 9.564424753189086914e-01
-1.037905931472778320e+00 -6.284370899200439453e+00 8.872410655021667480e-01
-8.344904184341430664e-01 -6.515908718109130859e+00 8.508490920066833496e-01
-5.928091406822204590e-01 -6.491125106811523438e+00 7.830105423927307129e-01
-3.550356030464172363e-01 -6.475745201110839844e+00 7.171483039855957031e-01
-1.034438848495483398e+00 -6.249807357788085938e+00 6.490550041198730469e-01
-6.893492490053176880e-02 -7.447742223739624023e-01 7.963438518345355988e-03
-1.075421094894409180e+00 -6.271903514862060547e+00 1.875274658203125000e+00
-1.045453786849975586e+00 -6.103527545928955078e+00 1.572673439979553223e+00
-1.067376375198364258e+00 -6.238058090209960938e+00 1.359070301055908203e+00
-1.066180229187011719e+00 -6.224532127380371094e+00 1.115810275077819824e+00
-3.916347324848175049e-01 -6.477966308593750000e+00 9.571720361709594727e-01
-1.069081664085388184e+00 -6.234931468963623047e+00 8.811706900596618652e-01
-8.778878450393676758e-01 -6.536220073699951172e+00 8.541887402534484863e-01
-6.257849335670471191e-01 -6.417204856872558594e+00 7.745423316955566406e-01
-3.937348723411560059e-01 -6.456579208374023438e+00 7.152799367904663086e-01
-1.072767376899719238e+00 -6.243342876434326172e+00 6.490550041198730469e-01
-4.402025789022445679e-02 -7.156889438629150391e-01 5.303371697664260864e-02
-1.112541317939758301e+00 -6.257631778717041016e+00 1.873013257980346680e+00
-1.058986186981201172e+00 -5.962441921234130859e+00 1.537965774536132812e+00
-1.102386951446533203e+00 -6.213100910186767578e+00 1.355081081390380859e+00
-1.102803349494934082e+00 -6.209146976470947266e+00 1.114244341850280762e+00
-4.311123788356781006e-01 -6.471492767333984375e+00 9.565883874893188477e-01
-1.102637410163879395e+00 -6.201925754547119141e+00 8.774456977844238281e-01
-9.157682061195373535e-01 -6.514997959136962891e+00 8.521335721015930176e-01
-6.696550846099853516e-01 -6.456696987152099609e+00 7.797902226448059082e-01
-4.346094429492950439e-01 -6.472884178161621094e+00 7.173681855201721191e-01
-1.108089566230773926e+00 -6.219993114471435547e+00 6.473222374916076660e-01
-1.143621206283569336e+00 -6.211066246032714844e+00 1.861140847206115723e+00
-9.145124554634094238e-01 -6.289647102355957031e+00 1.800902128219604492e+00
-1.034180641174316406e+00 -5.622198581695556641e+00 1.451812148094177246e+00
-8.194360733032226562e-01 -5.621966838836669922e+00 1.381818056106567383e+00
-1.142786383628845215e+00 -6.218720436096191406e+00 1.357810497283935547e+00
-8.578007817268371582e-01 -5.870820045471191406e+00 1.213586091995239258e+00
-1.138565182685852051e+00 -6.189672946929931641e+00 1.111982464790344238e+00
-9.427684545516967773e-01 -6.436635494232177734e+00 1.083947658538818359e+00
-4.710280597209930420e-01 -6.471685886383056641e+00 9.570261836051940918e-01
-1.139056801795959473e+00 -6.186276912689208984e+00 8.762040734291076660e-01
-7.029680609703063965e-01 -6.395225524902343750e+00 7.728725671768188477e-01
-4.762802124023437500e-01 -6.496860504150390625e+00 7.203356623649597168e-01
-1.144068121910095215e+00 -6.201337814331054688e+00 6.460991501808166504e-01
-9.529435038566589355e-01 -6.282966136932373047e+00 1.800629496574401855e+00
-1.054163098335266113e+00 -5.539576053619384766e+00 1.432119965553283691e+00
-8.355149030685424805e-01 -5.495793342590332031e+00 1.352040648460388184e+00
-1.144583225250244141e+00 -6.020450592041015625e+00 1.316028475761413574e+00
-8.383133411407470703e-01 -5.501276969909667969e+00 1.138237953186035156e+00
-1.155536532402038574e+00 -6.072288036346435547e+00 1.092147469520568848e+00
-8.380733728408813477e-01 -5.486840724945068359e+00 9.248481988906860352e-01
-1.164576888084411621e+00 -6.113984107971191406e+00 8.669605255126953125e-01
-8.425639867782592773e-01 -5.503369808197021484e+00 7.211151719093322754e-01
-7.455167174339294434e-01 -6.419392585754394531e+00 7.763313651084899902e-01
-5.205453038215637207e-01 -6.549301147460937500e+00 7.264904975891113281e-01
-1.117015719413757324e+00 -5.853173255920410156e+00 6.105275154113769531e-01
-1.027583479881286621e-01 -6.680679321289062500e-01 3.814508020877838135e-02
-9.932783842086791992e-01 -6.288404464721679688e+00 1.803900837898254395e+00
-1.082335591316223145e+00 -5.503521919250488281e+00 1.424489140510559082e+00
-9.910726547241210938e-01 -6.260259628295898438e+00 1.541576862335205078e+00
-1.176036119461059570e+00 -5.985492706298828125e+00 1.309939622879028320e+00
-9.931882619857788086e-01 -6.259474754333496094e+00 1.296348810195922852e+00
-1.153438925743103027e+00 -5.865071773529052734e+00 1.056131005287170410e+00
-9.939545989036560059e-01 -6.250206947326660156e+00 1.054527401924133301e+00
-1.163811564445495605e+00 -5.912364959716796875e+00 8.393678665161132812e-01
-8.913012146949768066e-01 -5.592113971710205078e+00 7.334462404251098633e-01
-7.967087030410766602e-01 -6.511277198791503906e+00 7.880198955535888672e-01
-5.656413435935974121e-01 -6.603422164916992188e+00 7.328651547431945801e-01
-1.084004044532775879e+00 -5.496803283691406250e+00 5.740385651588439941e-01
-6.148525327444076538e-02 -7.133995294570922852e-01 5.295995622873306274e-02
-1.231590032577514648e+00 -6.233723163604736328e+00 4.187052249908447266e-01
-1.345436453819274902e+00 -6.620423793792724609e+00 1.990889310836791992e+00
-1.031064987182617188e+00 -6.277444839477539062e+00 1.802537798881530762e+00
-7.931646704673767090e-01 -6.280748844146728516e+00 1.727115869522094727e+00
-1.030413150787353516e+00 -6.259813308715820312e+00 1.542994737625122070e+00
-1.234122157096862793e+00 -6.083565235137939453e+00 1.333035230636596680e+00
-1.032852649688720703e+00 -6.260995864868164062e+00 1.297951936721801758e+00
-1.268567681312561035e+00 -6.247766494750976562e+00 1.126423835754394531e+00
-1.036630511283874512e+00 -6.270266532897949219e+00 1.058965086936950684e+00
-5.957385301589965820e-01 -6.523986816406250000e+00 9.662184715270996094e-01
-1.270288228988647461e+00 -6.250645637512207031e+00 8.884828090667724609e-01
-1.037933111190795898e+00 -6.264556407928466797e+00 8.224617242813110352e-01
-8.327206373214721680e-01 -6.475739002227783203e+00 7.843225002288818359e-01
-6.017851233482360840e-01 -6.552318096160888672e+00 7.275896072387695312e-01
-1.254249930381774902e+00 -6.160707473754882812e+00 6.441625952720642090e-01
-1.274003744125366211e+00 -6.246580600738525391e+00 4.200859963893890381e-01
-1.343328475952148438e+00 -6.408321857452392578e+00 1.929548501968383789e+00
-1.069239735603332520e+00 -6.269103050231933594e+00 1.801992535591125488e+00
-1.065856695175170898e+00 -6.236132621765136719e+00 1.538740873336791992e+00
-1.069926857948303223e+00 -6.246815204620361328e+00 1.296348810195922852e+00
-8.602343201637268066e-01 -6.430834770202636719e+00 1.263512372970581055e+00
-1.307484865188598633e+00 -6.242756366729736328e+00 1.126945734024047852e+00
-1.070746183395385742e+00 -6.238511085510253906e+00 1.054691791534423828e+00
-6.337416172027587891e-01 -6.499531745910644531e+00 9.631543755531311035e-01
-1.313291072845458984e+00 -6.265028953552246094e+00 8.916559219360351562e-01
-1.070300459861755371e+00 -6.222884178161621094e+00 8.178375363349914551e-01
-6.358686089515686035e-01 -6.486182689666748047e+00 7.206653952598571777e-01
-1.296729683876037598e+00 -6.175287246704101562e+00 6.465068459510803223e-01
-1.317237615585327148e+00 -6.262080669403076172e+00 4.216640293598175049e-01
-1.393156766891479492e+00 -6.448713302612304688e+00 1.944247722625732422e+00
-1.107853651046752930e+00 -6.263371944427490234e+00 1.802265286445617676e+00
-1.105118274688720703e+00 -6.235215663909912109e+00 1.540158867835998535e+00
-1.105324029922485352e+00 -6.223733901977539062e+00 1.292942166328430176e+00
-1.348466157913208008e+00 -6.247129917144775391e+00 1.129207611083984375e+00
-1.107449531555175781e+00 -6.223083496093750000e+00 1.053212642669677734e+00
-6.701404452323913574e-01 -6.462063789367675781e+00 9.581934213638305664e-01
-1.355472564697265625e+00 -6.274279117584228516e+00 8.941392898559570312e-01
-1.106374144554138184e+00 -6.204484462738037109e+00 8.162962198257446289e-01
-9.307117462158203125e-01 -6.596771717071533203e+00 8.003047704696655273e-01
-6.731820702552795410e-01 -6.458433151245117188e+00 7.180276513099670410e-01
-1.338804244995117188e+00 -6.186660289764404297e+00 6.485453248023986816e-01
-1.358384251594543457e+00 -6.266557693481445312e+00 4.225187897682189941e-01
-1.269350945949554443e-01 -7.075568437576293945e-01 1.455575041472911835e-02
-1.419576048851013184e+00 -6.381055355072021484e+00 1.926439166069030762e+00
-1.145223855972290039e+00 -6.250778198242187500e+00 1.800629496574401855e+00
-9.104384779930114746e-01 -6.277497291564941406e+00 1.730537414550781250e+00
-1.146864771842956543e+00 -6.247431755065917969e+00 1.544885396957397461e+00
-8.406082987785339355e-01 -5.774728298187255859e+00 1.360131740570068359e+00
-1.141541957855224609e+00 -6.206235885620117188e+00 1.290737867355346680e+00
-1.391046047210693359e+00 -6.257964134216308594e+00 1.132687449455261230e+00
-1.139534235000610352e+00 -6.183188438415527344e+00 1.047624349594116211e+00
-7.082651853561401367e-01 -6.444063186645507812e+00 9.561507105827331543e-01
-1.396956443786621094e+00 -6.279378890991210938e+00 8.960707783699035645e-01
-1.144423365592956543e+00 -6.197578907012939453e+00 8.162962198257446289e-01
-9.666844010353088379e-01 -6.560486793518066406e+00 7.966073751449584961e-01
-7.108336687088012695e-01 -6.436398029327392578e+00 7.160492539405822754e-01
-1.384528875350952148e+00 -6.213284015655517578e+00 6.522145867347717285e-01
-1.148304104804992676e+00 -6.206462383270263672e+00 5.866388082504272461e-01
-1.401809096336364746e+00 -6.280504226684570312e+00 4.240310788154602051e-01
-1.465552091598510742e+00 -6.402145385742187500e+00 1.935484647750854492e+00
-1.193053483963012695e+00 -6.293733596801757812e+00 1.815078139305114746e+00
-9.486507177352905273e-01 -6.269885063171386719e+00 1.730011105537414551e+00
-1.147828340530395508e+00 -6.043627738952636719e+00 1.496201634407043457e+00
-8.289493918418884277e-01 -5.459420204162597656e+00 1.287040591239929199e+00
-1.158906340599060059e+00 -6.090357780456542969e+00 1.268093228340148926e+00
-8.332446217536926270e-01 -5.462013244628906250e+00 1.075992584228515625e+00
-1.432931184768676758e+00 -6.264670372009277344e+00 1.135471463203430176e+00
-1.155284881591796875e+00 -6.059806346893310547e+00 1.027901291847229004e+00
-8.386956453323364258e-01 -5.491316318511962891e+00 8.718756437301635742e-01
-7.464224696159362793e-01 -6.427803516387939453e+00 9.543997645378112793e-01
-1.439437866210937500e+00 -6.288067817687988281e+00 8.985540866851806641e-01
-1.162148475646972656e+00 -6.084262847900390625e+00 8.022952079772949219e-01
-8.472666144371032715e-01 -5.515182971954345703e+00 6.702999472618103027e-01
-7.467430830001831055e-01 -6.401310443878173828e+00 7.126421332359313965e-01
-1.422404408454895020e+00 -6.203702449798583984e+00 6.521127223968505859e-01
-1.088483572006225586e+00 -5.687826156616210938e+00 5.382381081581115723e-01
-1.440989136695861816e+00 -6.274702072143554688e+00 4.242283105850219727e-01
-1.313968062400817871e+00 -6.706450939178466797e+00 1.936392307281494141e+00
-9.845511317253112793e-01 -6.247745513916015625e+00 1.725536584854125977e+00
-1.076713085174560547e+00 -5.485360622406005859e+00 1.359603166580200195e+00
-9.883746504783630371e-01 -6.250722408294677734e+00 1.474989295005798340e+00
-1.180752873420715332e+00 -6.004305839538574219e+00 1.251660943031311035e+00
-9.936212301254272461e-01 -6.255589485168457031e+00 1.233501553535461426e+00
-1.475852727890014648e+00 -6.274931907653808594e+00 1.138951301574707031e+00
-1.174141168594360352e+00 -5.959695339202880859e+00 1.012122869491577148e+00
-9.826812148094177246e-01 -6.179751873016357422e+00 9.821199178695678711e-01
-1.481170654296875000e+00 -6.292614459991455078e+00 9.004855751991271973e-01
-1.165660500526428223e+00 -5.905778884887695312e+00 7.796880602836608887e-01
-9.956957697868347168e-01 -6.226556777954101562e+00 7.574866414070129395e-01
-7.943711280822753906e-01 -6.464678287506103516e+00 7.202258110046386719e-01
-1.464551687240600586e+00 -6.212286472320556641e+00 6.539473533630371094e-01
-1.098639607429504395e+00 -5.556010246276855469e+00 5.263924002647399902e-01
-1.481068015098571777e+00 -6.272540092468261719e+00 4.246885776519775391e-01
-1.248302936553955078e+00 -6.301323890686035156e+00 3.625191152095794678e-01
-1.143789067864418030e-01 -7.120767831802368164e-01 3.388498723506927490e-02
-1.548967003822326660e+00 -6.404190540313720703e+00 1.941703677177429199e+00
-1.362724542617797852e+00 -6.735982894897460938e+00 1.947296857833862305e+00
-1.026612520217895508e+00 -6.264435768127441406e+00 1.731853485107421875e+00
-1.029079914093017578e+00 -6.258955001831054688e+00 1.478394269943237305e+00
-1.266696333885192871e+00 -6.238899230957031250e+00 1.302160263061523438e+00
-1.031506299972534180e+00 -6.246469974517822266e+00 1.232928156852722168e+00
-1.518259882926940918e+00 -6.282030105590820312e+00 1.141909122467041016e+00
-1.267112374305725098e+00 -6.229795455932617188e+00 1.059293866157531738e+00
-1.034115672111511230e+00 -6.255479335784912109e+00 9.951445460319519043e-01
-1.523013234138488770e+00 -6.296885013580322266e+00 9.024170637130737305e-01
-1.272958755493164062e+00 -6.247373580932617188e+00 8.258014321327209473e-01
-1.038440585136413574e+00 -6.247753620147705078e+00 7.608262300491333008e-01
-8.372045159339904785e-01 -6.484326362609863281e+00 7.229734659194946289e-01
-1.507560253143310547e+00 -6.223486423492431641e+00 6.560877561569213867e-01
-1.249007940292358398e+00 -6.118909835815429688e+00 5.804383158683776855e-01
-1.518821954727172852e+00 -6.260425567626953125e+00 4.244913458824157715e-01
-1.287943601608276367e+00 -6.298436164855957031e+00 3.628008365631103516e-01
-1.197327747941017151e-01 -7.172731757164001465e-01 3.416657820343971252e-02
-1.390473604202270508e+00 -5.727024555206298828e+00 1.749121844768524170e-01
-1.208946332335472107e-01 -7.219057083129882812e-01 7.793097291141748428e-03
-1.588695645332336426e+00 -6.396427154541015625e+00 1.942268967628479004e+00
-1.062926888465881348e+00 -6.245654582977294922e+00 1.728431820869445801e+00
-1.065989613533020020e+00 -6.243882656097412109e+00 1.476351261138916016e+00
-1.306961894035339355e+00 -6.240599155426025391e+00 1.304164171218872070e+00
-1.068819403648376465e+00 -6.234218597412109375e+00 1.231781244277954102e+00
-1.562707185745239258e+00 -6.296489715576171875e+00 1.146258831024169922e+00
-1.307136654853820801e+00 -6.230591773986816406e+00 1.060773134231567383e+00
-1.071643590927124023e+00 -6.244147777557373047e+00 9.943692684173583984e-01
-1.565202713012695312e+00 -6.301839828491210938e+00 9.044864773750305176e-01
-1.312491774559020996e+00 -6.245268344879150391e+00 8.265721201896667480e-01
-1.076418995857238770e+00 -6.239307880401611328e+00 7.605876922607421875e-01
-8.792422413825988770e-01 -6.495811462402343750e+00 7.248418927192687988e-01
-1.559886097908020020e+00 -6.271076202392578125e+00 6.621012687683105469e-01
-1.295554757118225098e+00 -6.154002666473388672e+00 5.845103263854980469e-01
-1.452765703201293945e+00 -5.831738471984863281e+00 3.960209488868713379e-01
-1.322651505470275879e+00 -6.271853446960449219e+00 3.617302775382995605e-01
-1.420510292053222656e+00 -5.698017597198486328e+00 1.742891967296600342e-01
-1.627439618110656738e+00 -6.384699821472167969e+00 1.941703677177429199e+00
-1.102906346321105957e+00 -6.248515605926513672e+00 1.731063842773437500e+00
-1.103092789649963379e+00 -6.230511665344238281e+00 1.474762320518493652e+00
-1.342156648635864258e+00 -6.186806201934814453e+00 5.883971452713012695e-01
-1.492722630500793457e+00 -5.839149475097656250e+00 3.971387445926666260e-01
-1.459161877632141113e+00 -5.703719615936279297e+00 1.747341901063919067e-01
-1.308078914880752563e-01 -7.262724041938781738e-01 7.856975309550762177e-03
-1.671922445297241211e+00 -6.395010471343994141e+00 1.947922468185424805e+00
-1.433622837066650391e+00 -6.471164703369140625e+00 1.878052473068237305e+00
-1.139837622642517090e+00 -6.234038829803466797e+00 1.728958249092102051e+00
-1.142004370689392090e+00 -6.227457523345947266e+00 1.475670337677001953e+00
-1.140088438987731934e+00 -6.192638397216796875e+00 1.226237773895263672e+00
-1.648569226264953613e+00 -6.310185909271240234e+00 1.152348518371582031e+00
-1.381829380989074707e+00 -6.186228275299072266e+00 5.891374945640563965e-01
-1.492863416671752930e+00 -5.689824581146240234e+00 1.745858490467071533e-01
-1.488914251327514648e+00 -6.530724048614501953e+00 1.897953391075134277e+00
-1.172328710556030273e+00 -6.196593761444091797e+00 1.720535874366760254e+00
-9.463703632354736328e-01 -6.262664794921875000e+00 1.665177464485168457e+00
-1.155867457389831543e+00 -6.092118263244628906e+00 1.445253491401672363e+00
-8.359637260437011719e-01 -5.499553203582763672e+00 1.243416547775268555e+00
-1.664755225181579590e+00 -6.220278739929199219e+00 1.382795691490173340e+00
-1.165209293365478516e+00 -6.118030071258544922e+00 1.212857127189636230e+00
-8.449100255966186523e-01 -5.525946140289306641e+00 1.034057736396789551e+00
-1.695663690567016602e+00 -6.331341743469238281e+00 1.158090353012084961e+00
-1.434375405311584473e+00 -6.261242389678955078e+00 1.070305824279785156e+00
-1.161791563034057617e+00 -6.094297409057617188e+00 9.737469553947448730e-01
-8.450666069984436035e-01 -5.501261711120605469e+00 8.208917975425720215e-01
-1.692984342575073242e+00 -6.316925525665283203e+00 9.109707474708557129e-01
-1.439644575119018555e+00 -6.274180412292480469e+00 8.337652683258056641e-01
-1.168668508529663086e+00 -6.101421356201171875e+00 7.462752461433410645e-01
-8.357246518135070801e-01 -5.421529769897460938e+00 6.065810918807983398e-01
-1.676083326339721680e+00 -6.245144844055175781e+00 6.625090241432189941e-01
-1.422437667846679688e+00 -6.189278125762939453e+00 5.902480483055114746e-01
-1.103012204170227051e+00 -5.747780799865722656e+00 4.883756041526794434e-01
-1.703858137130737305e+00 -6.339794158935546875e+00 4.325787723064422607e-01
-1.448174238204956055e+00 -6.291201591491699219e+00 3.643221259117126465e-01
-1.207594156265258789e+00 -6.280909538269042969e+00 3.005063235759735107e-01
-1.100526824593544006e-01 -7.090041637420654297e-01 2.693632803857326508e-02
-1.484134674072265625e+00 -5.518393993377685547e+00 1.696019321680068970e-01
-1.335578799247741699e+00 -5.792810916900634766e+00 1.203734204173088074e-01
-1.136060953140258789e-01 -7.302149534225463867e-01 9.028586209751665592e-04
-1.512267231941223145e+00 -6.450273990631103516e+00 1.877234578132629395e+00
-1.329380035400390625e+00 -6.798081398010253906e+00 1.889773249626159668e+00
-9.846292138099670410e-01 -6.255784988403320312e+00 1.664923191070556641e+00
-1.078157782554626465e+00 -5.498114585876464844e+00 1.305880904197692871e+00
-9.914495348930358887e-01 -6.263524532318115234e+00 1.417494773864746094e+00
-1.175051927566528320e+00 -5.970155239105224609e+00 1.184949040412902832e+00
-1.002930283546447754e+00 -6.300444602966308594e+00 1.180117249488830566e+00
-1.731353163719177246e+00 -6.309422969818115234e+00 1.156002521514892578e+00
-1.478194594383239746e+00 -6.275366783142089844e+00 1.074250578880310059e+00
-1.184651494026184082e+00 -6.013389110565185547e+00 9.619627594947814941e-01
-1.010954618453979492e+00 -6.322420120239257812e+00 9.443318843841552734e-01
-1.739055871963500977e+00 -6.333161354064941406e+00 9.148337841033935547e-01
-1.482669472694396973e+00 -6.284533500671386719e+00 8.363342881202697754e-01
-1.192012906074523926e+00 -6.023036003112792969e+00 7.375684976577758789e-01
-1.722019910812377930e+00 -6.262559413909912109e+00 6.654648184776306152e-01
-1.465654015541076660e+00 -6.202721595764160156e+00 5.923765897750854492e-01
-1.112094521522521973e+00 -5.608941078186035156e+00 4.771495461463928223e-01
-1.744050741195678711e+00 -6.334030151367187500e+00 4.329075217247009277e-01
-1.485139489173889160e+00 -6.275396347045898438e+00 3.639277219772338867e-01
-1.491946220397949219e+00 -5.414746284484863281e+00 1.666946411132812500e-01
-1.360490441322326660e+00 -5.739756107330322266e+00 1.194421723484992981e-01
-1.541901111602783203e+00 -6.399718284606933594e+00 1.865239500999450684e+00
-1.373167753219604492e+00 -6.800199031829833984e+00 1.892668485641479492e+00
-1.028151035308837891e+00 -6.281121730804443359e+00 1.673313856124877930e+00
-1.804813861846923828e+00 -6.422443389892578125e+00 1.694273233413696289e+00
-1.032557487487792969e+00 -6.273694038391113281e+00 1.421203255653381348e+00
-1.265022754669189453e+00 -6.225431919097900391e+00 1.237133383750915527e+00
-1.032901167869567871e+00 -6.241785526275634766e+00 1.170295119285583496e+00
-1.772432208061218262e+00 -6.307212829589843750e+00 1.157568335533142090e+00
-1.519688248634338379e+00 -6.278641700744628906e+00 1.076387166976928711e+00
-1.265040040016174316e+00 -6.219954013824462891e+00 9.962299466133117676e-01
-1.039673209190368652e+00 -6.255591392517089844e+00 9.352855086326599121e-01
-1.789143443107604980e+00 -6.362416267395019531e+00 9.206281900405883789e-01
-1.523772716522216797e+00 -6.285919666290283203e+00 8.377472162246704102e-01
-1.279623150825500488e+00 -6.263664245605468750e+00 7.679824233055114746e-01
-1.039016842842102051e+00 -6.231466770172119141e+00 6.985739469528198242e-01
-1.765806436538696289e+00 -6.271026134490966797e+00 6.675032973289489746e-01
-1.511202812194824219e+00 -6.224574565887451172e+00 5.953379869461059570e-01
-1.259979486465454102e+00 -6.156550407409667969e+00 5.243821740150451660e-01
-1.522111773490905762e+00 -5.398354053497314453e+00 3.695888817310333252e-01
-1.523380756378173828e+00 -6.265195369720458984e+00 3.638713657855987549e-01
-1.290598273277282715e+00 -6.294973850250244141e+00 3.019142746925354004e-01
-1.534642219543457031e+00 -5.439159870147705078e+00 1.677329540252685547e-01
-1.380543828010559082e+00 -5.669130802154541016e+00 1.181465387344360352e-01
-1.583913087844848633e+00 -6.401343822479248047e+00 1.868510842323303223e+00
-1.064726948738098145e+00 -6.263253211975097656e+00 1.670262694358825684e+00
-1.846866488456726074e+00 -6.420562744140625000e+00 1.696734666824340820e+00
-1.068238019943237305e+00 -6.250886440277099609e+00 1.417494773864746094e+00
-1.308030128479003906e+00 -6.240609645843505859e+00 1.241721034049987793e+00
-1.069349169731140137e+00 -6.224669933319091797e+00 1.168294310569763184e+00
-1.823076963424682617e+00 -6.337859153747558594e+00 1.165224075317382812e+00
-1.558898568153381348e+00 -6.272070884704589844e+00 1.076880335807800293e+00
-1.311902880668640137e+00 -6.253649711608886719e+00 1.002897381782531738e+00
-1.073832631111145020e+00 -6.224721908569335938e+00 9.316377043724060059e-01
-1.830066561698913574e+00 -6.357981204986572266e+00 9.215939044952392578e-01
-1.564709305763244629e+00 -6.286075115203857422e+00 8.390317559242248535e-01
-1.320488572120666504e+00 -6.267353057861328125e+00 7.694137096405029297e-01
-1.066216468811035156e+00 -6.161314010620117188e+00 6.914299130439758301e-01
-1.815546989440917969e+00 -6.299264430999755859e+00 6.716821789741516113e-01
-1.553943634033203125e+00 -6.233541488647460938e+00 5.970963239669799805e-01
-1.303699731826782227e+00 -6.176980495452880859e+00 5.267937183380126953e-01
-1.555760145187377930e+00 -5.390830039978027344e+00 3.697203695774078369e-01
-1.429267048835754395e+00 -5.724894046783447266e+00 3.329946994781494141e-01
-1.328579425811767578e+00 -6.284004688262939453e+00 3.017734885215759277e-01
-1.567987442016601562e+00 -5.429640769958496094e+00 1.677329540252685547e-01
-1.414817810058593750e+00 -5.658612728118896484e+00 1.181060448288917542e-01
-1.625292658805847168e+00 -6.399897575378417969e+00 1.870964407920837402e+00
-1.453880190849304199e+00 -6.770573616027832031e+00 1.889246821403503418e+00
-1.102633714675903320e+00 -6.253745555877685547e+00 1.669499993324279785e+00
-1.888416886329650879e+00 -6.416548252105712891e+00 1.698704004287719727e+00
-1.104529142379760742e+00 -6.232683181762695312e+00 1.414877176284790039e+00
-1.349820375442504883e+00 -6.248776435852050781e+00 1.244970679283142090e+00
-1.104074358940124512e+00 -6.198629379272460938e+00 1.164656400680541992e+00
-1.867213487625122070e+00 -6.344502925872802734e+00 1.168529868125915527e+00
-1.602229833602905273e+00 -6.281503677368164062e+00 1.080167531967163086e+00
-1.355468750000000000e+00 -6.269622325897216797e+00 1.006773710250854492e+00
-1.108175158500671387e+00 -6.196591377258300781e+00 9.284276962280273438e-01
-1.872401595115661621e+00 -6.358033657073974609e+00 9.232494831085205078e-01
-1.608650207519531250e+00 -6.297494888305664062e+00 8.418576121330261230e-01
-1.358708858489990234e+00 -6.258162498474121094e+00 7.692944407463073730e-01
-1.108564257621765137e+00 -6.180092334747314453e+00 6.942875385284423828e-01
-1.855008602142333984e+00 -6.290868759155273438e+00 6.719879508018493652e-01
-1.600799798965454102e+00 -6.257652282714843750e+00 6.003353595733642578e-01
-1.345388174057006836e+00 -6.186392307281494141e+00 5.282905101776123047e-01
-1.857236027717590332e+00 -6.290328025817871094e+00 4.321842789649963379e-01
-1.448014020919799805e+00 -5.652183055877685547e+00 3.292759954929351807e-01
-1.368387937545776367e+00 -6.281590461730957031e+00 3.020550906658172607e-01
-1.598724722862243652e+00 -5.411290645599365234e+00 1.674659550189971924e-01
-1.458456397056579590e+00 -5.684689044952392578e+00 1.188348457217216492e-01
-1.665258646011352539e+00 -6.392597675323486328e+00 1.871782302856445312e+00
-1.142201542854309082e+00 -6.253521919250488281e+00 1.671279788017272949e+00
-1.939484953880310059e+00 -6.443820953369140625e+00 1.709042429924011230e+00
-1.610459923744201660e+00 -6.173401355743408203e+00 1.551738977432250977e+00
-1.142222762107849121e+00 -6.222908973693847656e+00 1.414222717285156250e+00
-1.390054941177368164e+00 -6.248999595642089844e+00 1.246690988540649414e+00
-1.136201500892639160e+00 -6.159827232360839844e+00 1.158653974533081055e+00
-1.911216020584106445e+00 -6.349899291992187500e+00 1.171661734580993652e+00
-1.649230599403381348e+00 -6.303999900817871094e+00 1.085755705833435059e+00
-1.397133111953735352e+00 -6.275651931762695312e+00 1.009099602699279785e+00
-1.142933487892150879e+00 -6.172165393829345703e+00 9.258013367652893066e-01
-1.918804645538330078e+00 -6.371082305908203125e+00 9.268365502357482910e-01
-1.654046654701232910e+00 -6.313407897949218750e+00 8.453257679939270020e-01
-1.399248719215393066e+00 -6.259397506713867188e+00 7.704871892929077148e-01
-1.144648790359497070e+00 -6.163401603698730469e+00 6.931884288787841797e-01
-1.907646894454956055e+00 -6.326036930084228516e+00 6.769822835922241211e-01
-1.640429258346557617e+00 -6.252527236938476562e+00 6.007980704307556152e-01
-1.384628295898437500e+00 -6.183855533599853516e+00 5.287894606590270996e-01
-1.909353613853454590e+00 -6.323709964752197266e+00 4.352745711803436279e-01
-1.660516977310180664e+00 -6.320104122161865234e+00 3.687733113765716553e-01
-1.399910211563110352e+00 -6.241885662078857422e+00 3.005532622337341309e-01
-1.616286754608154297e+00 -5.349709033966064453e+00 1.658639758825302124e-01
-1.463036298751831055e+00 -5.560573101043701172e+00 1.164257600903511047e-01
-1.711898922920227051e+00 -6.410145759582519531e+00 1.879960775375366211e+00
-1.173366785049438477e+00 -6.208383083343505859e+00 1.661109209060668945e+00
-1.974996447563171387e+00 -6.418829917907714844e+00 1.705596208572387695e+00
-1.162176966667175293e+00 -6.119904994964599609e+00 1.392408370971679688e+00
-1.682875752449035645e+00 -6.283867835998535156e+00 1.330616235733032227e+00
-1.432095050811767578e+00 -6.256618976593017578e+00 1.249940633773803711e+00
-1.107813239097595215e+00 -5.805984020233154297e+00 1.093354582786560059e+00
-1.953907132148742676e+00 -6.350288391113281250e+00 1.173923611640930176e+00
-1.691712737083435059e+00 -6.308052539825439453e+00 1.088221073150634766e+00
-1.437819361686706543e+00 -6.276590347290039062e+00 1.010650038719177246e+00
-1.153985738754272461e+00 -6.025120258331298828e+00 9.047902226448059082e-01
-1.965438127517700195e+00 -6.383800506591796875e+00 9.304236173629760742e-01
-1.697898268699645996e+00 -6.322295665740966797e+00 8.478947281837463379e-01
-1.438964486122131348e+00 -6.256499290466308594e+00 7.712027430534362793e-01
-1.116451740264892578e+00 -5.812675476074218750e+00 6.545009016990661621e-01
-1.938807487487792969e+00 -6.289495944976806641e+00 6.743322014808654785e-01
-1.678246021270751953e+00 -6.240421295166015625e+00 6.006129980087280273e-01
-1.436862945556640625e+00 -6.237393856048583984e+00 5.341114401817321777e-01
-1.061947941780090332e+00 -5.513321876525878906e+00 4.152709543704986572e-01
-1.982255458831787109e+00 -6.422476291656494141e+00 4.429017603397369385e-01
-1.706275224685668945e+00 -6.335826396942138672e+00 3.702946305274963379e-01
-1.438857078552246094e+00 -6.236098766326904297e+00 3.006940484046936035e-01
-1.644067406654357910e+00 -5.323455333709716797e+00 1.653596609830856323e-01
-1.487495779991149902e+00 -5.515775203704833984e+00 1.156767159700393677e-01
-1.330970525741577148e+00 -5.754755496978759766e+00 6.288773566484451294e-02
-1.750944733619689941e+00 -6.398593425750732422e+00 1.879688143730163574e+00
-1.351441025733947754e+00 -6.917706012725830078e+00 1.853078842163085938e+00
-1.072461724281311035e+00 -5.464332103729248047e+00 1.244725465774536133e+00
-1.473831176757812500e+00 -6.262045383453369141e+00 1.252807855606079102e+00
-1.140373706817626953e+00 -5.783641338348388672e+00 1.090444326400756836e+00
-1.997265458106994629e+00 -6.352271080017089844e+00 1.176533460617065430e+00
-1.735613346099853516e+00 -6.316576480865478516e+00 1.091508269309997559e+00
-1.479249119758605957e+00 -6.280150890350341797e+00 1.012665748596191406e+00
-1.203801035881042480e+00 -6.082948207855224609e+00 9.145662188529968262e-01
-2.009921550750732422e+00 -6.388626098632812500e+00 9.329068660736083984e-01
-1.740868568420410156e+00 -6.327057361602783203e+00 8.499498963356018066e-01
-1.484637737274169922e+00 -6.278471469879150391e+00 7.750194072723388672e-01
-1.181503653526306152e+00 -5.953905105590820312e+00 6.712068915367126465e-01
-1.979155898094177246e+00 -6.283174514770507812e+00 6.749437451362609863e-01
-1.718885183334350586e+00 -6.238645553588867188e+00 6.014459133148193359e-01
-1.488198399543762207e+00 -6.283733844757080078e+00 5.388513803482055664e-01
-1.220708370208740234e+00 -6.134642124176025391e+00 4.626251161098480225e-01
-2.006619453430175781e+00 -6.362610816955566406e+00 4.396141767501831055e-01
-1.702898263931274414e+00 -6.172207355499267578e+00 3.613358736038208008e-01
-1.478938341140747070e+00 -6.234928131103515625e+00 3.010694980621337891e-01
-2.009995222091674805e+00 -6.369438648223876953e+00 1.982298493385314941e-01
-1.516253232955932617e+00 -5.488234043121337891e+00 1.152920648455619812e-01
-1.361167550086975098e+00 -5.725078582763671875e+00 6.265351921319961548e-02
-1.582596540451049805e+00 -6.579025268554687500e+00 1.846082091331481934e+00
-2.029818296432495117e+00 -6.323802471160888672e+00 1.426257371902465820e+00
-1.514533877372741699e+00 -6.262424945831298828e+00 1.254719376564025879e+00
-1.273123741149902344e+00 -6.254460334777832031e+00 1.180662870407104492e+00
-2.038914918899536133e+00 -6.348334789276123047e+00 1.178099393844604492e+00
-1.777544617652893066e+00 -6.317202568054199219e+00 1.093480587005615234e+00
-1.529142856597900391e+00 -6.318005084991455078e+00 1.020263552665710449e+00
-1.271199584007263184e+00 -6.222777843475341797e+00 9.367445707321166992e-01
-2.051810979843139648e+00 -6.384660243988037109e+00 9.341486096382141113e-01
-1.789071321487426758e+00 -6.349665641784667969e+00 8.544456362724304199e-01
-1.524071455001831055e+00 -6.273102760314941406e+00 7.754964828491210938e-01
-1.277448654174804688e+00 -6.236713409423828125e+00 7.039594054222106934e-01
-2.076781749725341797e+00 -6.454627037048339844e+00 6.947171092033386230e-01
-1.762810349464416504e+00 -6.248106002807617188e+00 6.033893823623657227e-01
-1.524606227874755859e+00 -6.265769481658935547e+00 5.381029248237609863e-01
-1.279994487762451172e+00 -6.232540607452392578e+00 4.705912172794342041e-01
-2.040420770645141602e+00 -6.334032535552978516e+00 4.384963810443878174e-01
-1.518701195716857910e+00 -5.375704288482666016e+00 3.152462542057037354e-01
-1.404591679573059082e+00 -5.763779640197753906e+00 2.787298262119293213e-01
-2.055479288101196289e+00 -6.376964569091796875e+00 1.988528519868850708e-01
-1.550172090530395508e+00 -5.479788780212402344e+00 1.153123080730438232e-01
-1.389627218246459961e+00 -5.689420223236083984e+00 6.235542520880699158e-02
-2.086244106292724609e+00 -6.365115642547607422e+00 1.438435077667236328e+00
-1.556006431579589844e+00 -6.265398025512695312e+00 1.257204294204711914e+00
-1.311880588531494141e+00 -6.248456001281738281e+00 1.181026697158813477e+00
-2.083659648895263672e+00 -6.353483200073242188e+00 1.181405305862426758e+00
-1.822551727294921875e+00 -6.327977657318115234e+00 1.097260713577270508e+00
-1.565259575843811035e+00 -6.297957420349121094e+00 1.018557906150817871e+00
-1.315476417541503906e+00 -6.243902206420898438e+00 9.411218762397766113e-01
-2.099594354629516602e+00 -6.398300170898437500e+00 9.380115270614624023e-01
-1.832120418548583984e+00 -6.352861881256103516e+00 8.563724160194396973e-01
-1.568301439285278320e+00 -6.286753654479980469e+00 7.783589959144592285e-01
-1.320211529731750488e+00 -6.250152587890625000e+00 7.063773870468139648e-01
-2.193971872329711914e+00 -6.678035736083984375e+00 7.201982736587524414e-01
-1.803600907325744629e+00 -6.245781421661376953e+00 6.042222380638122559e-01
-1.567854404449462891e+00 -6.275632858276367188e+00 5.397660732269287109e-01
-1.320898532867431641e+00 -6.237252235412597656e+00 4.715501070022583008e-01
-2.064281940460205078e+00 -6.275895595550537109e+00 4.353403151035308838e-01
-1.551102638244628906e+00 -5.364366054534912109e+00 3.151335716247558594e-01
-1.422959566116333008e+00 -5.687221050262451172e+00 2.754445672035217285e-01
-2.090819120407104492e+00 -6.352838993072509766e+00 1.984968483448028564e-01
-1.576536893844604492e+00 -5.445204734802246094e+00 1.147859543561935425e-01
-1.422808170318603516e+00 -5.673996925354003906e+00 6.228090077638626099e-02
-1.588516950607299805e+00 -6.264537811279296875e+00 1.763174176216125488e+00
-2.062287569046020508e+00 -6.163974761962890625e+00 1.395813226699829102e+00
-1.353938698768615723e+00 -6.257587909698486328e+00 1.184300780296325684e+00
-2.116665124893188477e+00 -6.322835922241210938e+00 1.178099393844604492e+00
-1.868036627769470215e+00 -6.339384078979492188e+00 1.101205348968505859e+00
-1.609000921249389648e+00 -6.308336734771728516e+00 1.021814107894897461e+00
-1.356492042541503906e+00 -6.248281002044677734e+00 9.430187344551086426e-01
-2.142903566360473633e+00 -6.397505760192871094e+00 9.398050904273986816e-01
-1.874153614044189453e+00 -6.351963520050048828e+00 8.577853441238403320e-01
-1.615710616111755371e+00 -6.311638355255126953e+00 7.826527357101440430e-01
-1.360862016677856445e+00 -6.252617359161376953e+00 7.075863480567932129e-01
-2.230478286743164062e+00 -6.651244163513183594e+00 7.187713384628295898e-01
-1.854021191596984863e+00 -6.275658130645751953e+00 6.082016825675964355e-01
-1.606578826904296875e+00 -6.266860008239746094e+00 5.398492217063903809e-01
-1.360207796096801758e+00 -6.233901977539062500e+00 4.719189405441284180e-01
-2.132922172546386719e+00 -6.352976322174072266e+00 4.415867328643798828e-01
-1.877676367759704590e+00 -6.347573280334472656e+00 3.735625743865966797e-01
-1.461803078651428223e+00 -5.693862915039062500e+00 2.761954963207244873e-01
-2.142810344696044922e+00 -6.378738880157470703e+00 1.997131705284118652e-01
-1.607362985610961914e+00 -5.426801204681396484e+00 1.146037578582763672e-01
-1.458592891693115234e+00 -5.669033527374267578e+00 6.232348456978797913e-02
-1.911557316780090332e+00 -6.359326839447021484e+00 1.615075230598449707e+00
-1.656725525856018066e+00 -6.355577468872070312e+00 1.530829310417175293e+00
-2.147770404815673828e+00 -6.290920734405517578e+00 1.427517175674438477e+00
-1.397655010223388672e+00 -6.273157119750976562e+00 1.188848018646240234e+00
-2.176749706268310547e+00 -6.372165203094482422e+00 1.189756870269775391e+00
-1.910030007362365723e+00 -6.338191509246826172e+00 1.103013396263122559e+00
-1.653428554534912109e+00 -6.320327758789062500e+00 1.025380373001098633e+00
-1.398474216461181641e+00 -6.256253719329833984e+00 9.454992413520812988e-01
-2.188204050064086914e+00 -6.402043342590332031e+00 9.424263834953308105e-01
-1.915098547935485840e+00 -6.346990585327148438e+00 8.586844801902770996e-01
-1.658189415931701660e+00 -6.316010475158691406e+00 7.844417691230773926e-01
-1.403113722801208496e+00 -6.261607646942138672e+00 7.095647454261779785e-01
-2.305709123611450195e+00 -6.738142490386962891e+00 7.296772003173828125e-01
-1.907755017280578613e+00 -6.314681529998779297e+00 6.131064891815185547e-01
-1.640440464019775391e+00 -6.239536285400390625e+00 5.383524298667907715e-01
-1.408049941062927246e+00 -6.268251895904541016e+00 4.751643836498260498e-01
-2.188355684280395508e+00 -6.387911796569824219e+00 4.449400305747985840e-01
-1.939137101173400879e+00 -6.410472869873046875e+00 3.779574334621429443e-01
-1.520110487937927246e+00 -5.773656368255615234e+00 2.805132269859313965e-01
-2.194873571395874023e+00 -6.403292655944824219e+00 2.008998095989227295e-01
-1.643818974494934082e+00 -5.427362442016601562e+00 1.148264482617378235e-01
-1.469625830650329590e+00 -5.570059299468994141e+00 6.133337691426277161e-02
-1.976799845695495605e+00 -6.432928562164306641e+00 1.636817574501037598e+00
-2.244533777236938477e+00 -6.444744110107421875e+00 1.465519905090332031e+00
-1.695713877677917480e+00 -6.327661991119384766e+00 1.275746107101440430e+00
-1.438756823539733887e+00 -6.275964736938476562e+00 1.191030740737915039e+00
-2.176274299621582031e+00 -6.245240688323974609e+00 1.168529868125915527e+00
-1.962533354759216309e+00 -6.370658874511718750e+00 1.110738277435302734e+00
-1.696016430854797363e+00 -6.324376106262207031e+00 1.027706146240234375e+00
-1.439496159553527832e+00 -6.259123802185058594e+00 9.472501277923583984e-01
-2.233314514160156250e+00 -6.405330657958984375e+00 9.449097514152526855e-01
-1.958099007606506348e+00 -6.348387241363525391e+00 8.604827523231506348e-01
-1.698460578918457031e+00 -6.311469554901123047e+00 7.851573824882507324e-01
-1.441731095314025879e+00 -6.253849029541015625e+00 7.096745967864990234e-01
-2.367008447647094727e+00 -6.781160354614257812e+00 7.358946204185485840e-01
-1.953516483306884766e+00 -6.325689792633056641e+00 6.153275370597839355e-01
-1.683361887931823730e+00 -6.246672630310058594e+00 5.398492217063903809e-01
-1.446933746337890625e+00 -6.261437416076660156e+00 4.753119051456451416e-01
-2.242322683334350586e+00 -6.416753292083740234e+00 4.478988647460937500e-01
-1.979024410247802734e+00 -6.400362014770507812e+00 3.780701458454132080e-01
-1.685372710227966309e+00 -6.245456218719482422e+00 3.039323687553405762e-01
-2.252596855163574219e+00 -6.442543506622314453e+00 2.025611251592636108e-01
-1.669697761535644531e+00 -5.393297195434570312e+00 1.143203377723693848e-01
-1.492551326751708984e+00 -5.519430637359619141e+00 6.087559089064598083e-02
-1.347655892372131348e+00 -5.808712482452392578e+00 7.285177242010831833e-03
-1.739668130874633789e+00 -6.366385936737060547e+00 1.800548553466796875e+00
-2.020601034164428711e+00 -6.434583663940429688e+00 1.640362501144409180e+00
-1.480622291564941406e+00 -6.281374931335449219e+00 1.193759202957153320e+00
-2.264014720916748047e+00 -6.370954036712646484e+00 1.194628596305847168e+00
-2.001585960388183594e+00 -6.358497142791748047e+00 1.110738277435302734e+00
-1.738716244697570801e+00 -6.328139781951904297e+00 1.030031919479370117e+00
-1.480150938034057617e+00 -6.259801387786865234e+00 9.487092494964599609e-01
-2.282197237014770508e+00 -6.418569087982177734e+00 9.489106535911560059e-01
-2.003573417663574219e+00 -6.357061862945556641e+00 8.633086681365966797e-01
-1.744279980659484863e+00 -6.326772689819335938e+00 7.883777022361755371e-01
-1.487182736396789551e+00 -6.274866580963134766e+00 7.130817770957946777e-01
-2.425252199172973633e+00 -6.813368797302246094e+00 7.409908175468444824e-01
-2.096267938613891602e+00 -6.643079280853271484e+00 6.474404335021972656e-01
-1.725637078285217285e+00 -6.250635623931884766e+00 5.410965681076049805e-01
-1.487861514091491699e+00 -6.263114452362060547e+00 4.761232733726501465e-01
-2.281652927398681641e+00 -6.402873992919921875e+00 4.478988647460937500e-01
-2.011341094970703125e+00 -6.366201400756835938e+00 3.767742216587066650e-01
-1.504877567291259766e+00 -5.443587779998779297e+00 2.653541564941406250e-01
-2.275972127914428711e+00 -6.383408069610595703e+00 2.011371403932571411e-01
-2.019670486450195312e+00 -6.384806632995605469e+00 1.355972439050674438e-01
-1.523186445236206055e+00 -5.498604774475097656e+00 6.074783205986022949e-02
-1.379792571067810059e+00 -5.785743713378906250e+00 7.266851607710123062e-03
-1.783638834953308105e+00 -6.373242855072021484e+00 1.805549263954162598e+00
-2.042830944061279297e+00 -6.368400573730468750e+00 1.626655459403991699e+00
-2.019740104675292969e+00 -6.288867950439453125e+00 1.351056337356567383e+00
-1.521682500839233398e+00 -6.282684326171875000e+00 1.195760011672973633e+00
-2.304740667343139648e+00 -6.361571788787841797e+00 1.195498585700988770e+00
-2.046904087066650391e+00 -6.365815639495849609e+00 1.114189743995666504e+00
-1.781793475151062012e+00 -6.332567691802978516e+00 1.032512903213500977e+00
-1.526239514350891113e+00 -6.282325267791748047e+00 9.535242915153503418e-01
-2.328288555145263672e+00 -6.423068046569824219e+00 9.516698718070983887e-01
-2.051355123519897461e+00 -6.372025012969970703e+00 8.670337200164794922e-01
-1.793587803840637207e+00 -6.353215694427490234e+00 7.930292487144470215e-01
-1.530594706535339355e+00 -6.285903453826904297e+00 7.153898477554321289e-01
-2.459207534790039062e+00 -6.776851177215576172e+00 7.386465668678283691e-01
-2.194721221923828125e+00 -6.809206485748291016e+00 6.649313569068908691e-01
-1.761246919631958008e+00 -6.230340003967285156e+00 5.402650237083435059e-01
-1.524135112762451172e+00 -6.245147705078125000e+00 4.754594266414642334e-01
-2.321919679641723633e+00 -6.391567230224609375e+00 4.480961263179779053e-01
-2.042393207550048828e+00 -6.329036235809326172e+00 3.753092586994171143e-01
-1.536073923110961914e+00 -5.426562786102294922e+00 2.649787068367004395e-01
-1.396823525428771973e+00 -5.710505008697509766e+00 2.207053005695343018e-01
-2.314755678176879883e+00 -6.368383407592773438e+00 2.011074721813201904e-01
-2.059731006622314453e+00 -6.375147819519042969e+00 1.356579661369323730e-01
-1.559625029563903809e+00 -5.498774528503417969e+00 6.085429340600967407e-02
-1.390283584594726562e+00 -5.675184249877929688e+00 7.138569839298725128e-03
-1.832010388374328613e+00 -6.394639015197753906e+00 1.814761400222778320e+00
-2.084239721298217773e+00 -6.355486392974853516e+00 1.368089914321899414e+00
-1.565424799919128418e+00 -6.294222354888916016e+00 1.199761629104614258e+00
-2.348165750503540039e+00 -6.359319686889648438e+00 1.197760462760925293e+00
-2.096079826354980469e+00 -6.384063243865966797e+00 1.119613647460937500e+00
-1.827997803688049316e+00 -6.347147464752197266e+00 1.036699414253234863e+00
-1.569307804107666016e+00 -6.291080474853515625e+00 9.562965631484985352e-01
-2.380012512207031250e+00 -6.442107677459716797e+00 9.566366076469421387e-01
-2.097227811813354492e+00 -6.380044460296630859e+00 8.698595762252807617e-01
-1.831709861755371094e+00 -6.339229583740234375e+00 7.926714420318603516e-01
-1.571305155754089355e+00 -6.285071849822998047e+00 7.163789868354797363e-01
-2.527658939361572266e+00 -6.834410190582275391e+00 7.465966939926147461e-01
-2.194439172744750977e+00 -6.667928218841552734e+00 6.524378657341003418e-01
-1.806089639663696289e+00 -6.242390632629394531e+00 5.422607660293579102e-01
-1.441474914550781250e+00 -5.752960205078125000e+00 4.386530220508575439e-01
-2.362825870513916016e+00 -6.381878376007080078e+00 4.484248459339141846e-01
-2.099310874938964844e+00 -6.371384143829345703e+00 3.785772323608398438e-01
-1.567396163940429688e+00 -5.410319328308105469e+00 2.646501958370208740e-01
-1.427698612213134766e+00 -5.685349941253662109e+00 2.200675308704376221e-01
-2.378787517547607422e+00 -6.421546936035156250e+00 2.032434493303298950e-01
-2.105073690414428711e+00 -6.381378650665283203e+00 1.360628604888916016e-01
-1.592499256134033203e+00 -5.486220836639404297e+00 6.082235649228096008e-02
-1.427518486976623535e+00 -5.676244258880615234e+00 7.150786928832530975e-03
-1.597706794738769531e+00 -6.305686950683593750e+00 1.710182189941406250e+00
-2.074370145797729492e+00 -6.196718692779541016e+00 1.336628079414367676e+00
-1.606204748153686523e+00 -6.293074131011962891e+00 1.201398730278015137e+00
-2.445051431655883789e+00 -6.498711109161376953e+00 1.226817131042480469e+00
-2.143675327301025391e+00 -6.396334171295166016e+00 1.124051332473754883e+00
-1.871097207069396973e+00 -6.350025653839111328e+00 1.039025187492370605e+00
-1.613031506538391113e+00 -6.301458835601806641e+00 9.593607187271118164e-01
-2.427172183990478516e+00 -6.447775363922119141e+00 9.596717357635498047e-01
-2.141067504882812500e+00 -6.381158828735351562e+00 8.717862963676452637e-01
-1.876201391220092773e+00 -6.346913814544677734e+00 7.950568795204162598e-01
-1.616014599800109863e+00 -6.299381256103515625e+00 7.191267013549804688e-01
-2.588489294052124023e+00 -6.869040012359619141e+00 7.521005868911743164e-01
-2.196629762649536133e+00 -6.539185047149658203e+00 6.411474347114562988e-01
-1.866419196128845215e+00 -6.305724620819091797e+00 5.487469434738159180e-01
-1.503317356109619141e+00 -5.847354412078857422e+00 4.465453624725341797e-01
