-3.779279813170433044e-02 -6.979649662971496582e-01 6.496614962816238403e-02
-3.457154333591461182e-02 -7.126821279525756836e-01 5.953974649310112000e-02
-1.000141501426696777e-01 -7.096715569496154785e-01 2.127069793641567230e-02
-5.727519840002059937e-02 -7.189266085624694824e-01 3.388498723506927490e-02
-6.040381267666816711e-02 -7.036330103874206543e-01 3.318100422620773315e-02
-1.146367937326431274e-01 -7.175809144973754883e-01 2.156736142933368683e-02
-1.112082973122596741e-01 -7.213281989097595215e-01 1.477843895554542542e-02
-6.327901035547256470e-02 -7.297455668449401855e-01 2.749906294047832489e-02
-1.256330013275146484e-01 -7.017078995704650879e-01 4.022981971502304077e-02
-9.914892911911010742e-02 -6.992263793945312500e-01 3.318100422620773315e-02
-1.244726479053497314e-01 -7.184934020042419434e-01 3.426044061779975891e-02
-1.265539824962615967e-01 -7.026538252830505371e-01 7.601463701575994492e-03
-5.065780162811279297e+00 -6.905060768127441406e+00 1.046289689838886261e-02
-5.542218208312988281e+00 -6.825172424316406250e+00 1.074145268648862839e-02
-5.930097103118896484e+00 -6.861529827117919922e+00 1.107987109571695328e-02
-6.129235267639160156e+00 -6.918482303619384766e+00 1.129245199263095856e-02
-5.943216800689697266e+00 -6.626149654388427734e+00 1.087462063878774643e-02
-6.164599418640136719e+00 -6.788702964782714844e+00 1.120326574891805649e-02
-6.361799240112304688e+00 -6.920071125030517578e+00 1.148426439613103867e-02
-6.096878051757812500e+00 -6.550768375396728516e+00 1.093326415866613388e-02
-6.043693065643310547e+00 -6.414252758026123047e+00 1.076710876077413559e-02
-6.495689868927001953e+00 -6.809758186340332031e+00 1.149770338088274002e-02
-6.059432506561279297e+00 -6.274862766265869141e+00 1.065715309232473373e-02
-6.651468276977539062e+00 -6.803900718688964844e+00 1.162476278841495514e-02
-6.636113166809082031e+00 -6.705387592315673828e+00 1.152580231428146362e-02
-6.551856040954589844e+00 -6.539503574371337891e+00 1.130955573171377182e-02
-6.592570781707763672e+00 -6.499881267547607422e+00 1.131077855825424194e-02
-6.822888374328613281e+00 -6.644895553588867188e+00 1.163575798273086548e-02
-6.957217693328857422e+00 -6.693034172058105469e+00 1.179458387196063995e-02
-6.639330387115478516e+00 -6.309235572814941406e+00 1.118982676416635513e-02
-6.788013935089111328e+00 -6.371722221374511719e+00 1.137430872768163681e-02
-6.752919673919677734e+00 -6.261281490325927734e+00 1.125091407448053360e-02
-6.723365306854248047e+00 -6.157591819763183594e+00 1.113851461559534073e-02
-3.430429458618164062e+00 -2.485356092453002930e+00 1.257255524396896362e-01
-6.021661758422851562e+00 -5.447375774383544922e+00 9.920449927449226379e-03
-3.422849655151367188e+00 -2.447979211807250977e+00 1.248948872089385986e-01
-7.119067192077636719e+00 -6.361129760742187500e+00 1.166385877877473831e-02
-3.410858631134033203e+00 -2.407907485961914062e+00 1.239159032702445984e-01
-6.888800144195556641e+00 -6.079774856567382812e+00 1.122525800019502640e-02
-7.180007934570312500e+00 -6.258832454681396484e+00 1.163698080927133560e-02
-6.961374282836914062e+00 -5.993475914001464844e+00 1.122281420975923538e-02
-3.399899005889892578e+00 -2.491597652435302734e+00 8.535054326057434082e-02
-7.010968685150146484e+00 -5.961660861968994141e+00 1.124358270317316055e-02
-3.423223733901977539e+00 -2.476549863815307617e+00 8.555299043655395508e-02
-7.000704765319824219e+00 -5.879300594329833984e+00 1.116905733942985535e-02
-3.438354969024658203e+00 -2.455498695373535156e+00 8.555299043655395508e-02
-7.401487827301025391e+00 -6.138834953308105469e+00 1.174815744161605835e-02
-3.449270963668823242e+00 -2.431474924087524414e+00 8.545176684856414795e-02
-7.445978164672851562e+00 -6.099007606506347656e+00 1.175915263593196869e-02
-7.400847911834716797e+00 -5.986541271209716797e+00 1.162964943796396255e-02
-7.538232803344726562e+00 -6.021530151367187500e+00 1.178725343197584152e-02
-3.421481847763061523e+00 -2.503802299499511719e+00 4.514034464955329895e-02
-7.114161014556884766e+00 -5.611624717712402344e+00 1.107009779661893845e-02
-3.443220615386962891e+00 -2.490158557891845703e+00 1.996492147445678711e-01
-3.427053689956665039e+00 -2.475734710693359375e+00 4.501258954405784607e-02
-7.133469581604003906e+00 -5.556191921234130859e+00 1.104688551276922226e-02
-3.453557252883911133e+00 -2.465502023696899414e+00 1.993676126003265381e-01
-3.445436716079711914e+00 -2.456982374191284180e+00 4.505517706274986267e-02
-7.149988174438476562e+00 -5.498905181884765625e+00 1.102000661194324493e-02
-3.457176685333251953e+00 -2.433492898941040039e+00 4.501258954405784607e-02
-7.943367004394531250e+00 -6.031870841979980469e+00 1.218553818762302399e-02
-7.941823005676269531e+00 -5.954224109649658203e+00 1.212689466774463654e-02
-3.427269935607910156e+00 -2.536827564239501953e+00 5.209458060562610626e-03
-3.436311483383178711e+00 -2.511030197143554688e+00 5.199683830142021179e-03
-3.454840421676635742e+00 -2.494030475616455078e+00 1.599672734737396240e-01
-3.456520318984985352e+00 -2.493408203125000000e+00 5.207014270126819611e-03
-3.419622182846069336e+00 -2.436829805374145508e+00 1.576412916183471680e-01
-3.472568988800048828e+00 -2.472732543945312500e+00 5.208235699683427811e-03
-3.449224233627319336e+00 -2.424352169036865234e+00 5.150814540684223175e-03
-8.494115829467773438e+00 -5.892714977264404297e+00 1.263024657964706421e-02
-8.388192176818847656e+00 -5.743313312530517578e+00 1.242010947316884995e-02
-7.971701622009277344e+00 -5.386601924896240234e+00 1.175426598638296127e-02
-8.120250701904296875e+00 -5.414701938629150391e+00 1.192408706992864609e-02
-8.195090293884277344e+00 -5.392258644104003906e+00 1.198517344892024994e-02
-8.275831222534179688e+00 -5.372911453247070312e+00 1.205481216311454773e-02
-8.209279060363769531e+00 -5.258384227752685547e+00 1.191064808517694473e-02
-8.246460914611816406e+00 -5.211119174957275391e+00 1.191797759383916855e-02
-7.473789691925048828e+00 -4.658926963806152344e+00 1.075977738946676254e-02
-7.599346637725830078e+00 -4.672692775726318359e+00 1.089905574917793274e-02
-8.470095634460449219e+00 -5.136746883392333984e+00 1.210245955735445023e-02
-8.320372581481933594e+00 -4.976374149322509766e+00 1.184467505663633347e-02
-8.345582008361816406e+00 -4.922179222106933594e+00 1.183734368532896042e-02
-8.381677627563476562e+00 -4.874398231506347656e+00 1.184589602053165436e-02
-8.417501449584960938e+00 -4.826359272003173828e+00 1.185444835573434830e-02
-8.330303192138671875e+00 -4.708681106567382812e+00 1.169073674827814102e-02
-8.497933387756347656e+00 -4.734868526458740234e+00 1.188499201089143753e-02
-8.518938064575195312e+00 -4.678304672241210938e+00 1.187399681657552719e-02
-8.558915138244628906e+00 -4.632133007049560547e+00 1.188987866044044495e-02
-8.450409889221191406e+00 -4.506591796875000000e+00 1.170051097869873047e-02
-8.581475257873535156e+00 -4.509077548980712891e+00 1.184345223009586334e-02
-8.602764129638671875e+00 -4.453119754791259766e+00 1.183490082621574402e-02
-8.628145217895507812e+00 -4.399342060089111328e+00 1.183245703577995300e-02
-8.635315895080566406e+00 -4.336444854736328125e+00 1.180557906627655029e-02
-8.722716331481933594e+00 -4.313521385192871094e+00 1.188865769654512405e-02
-8.555714607238769531e+00 -4.165798187255859375e+00 1.162598561495542526e-02
-8.692030906677246094e+00 -4.166388988494873047e+00 1.177625823765993118e-02
-8.751797676086425781e+00 -4.129191398620605469e+00 1.182268280535936356e-02
-8.589221954345703125e+00 -3.988236904144287109e+00 1.156978495419025421e-02
-8.785438537597656250e+00 -4.014002323150634766e+00 1.180069241672754288e-02
-8.518033027648925781e+00 -3.828826189041137695e+00 1.140973903238773346e-02
-8.879764556884765625e+00 -3.926108360290527344e+00 1.186177879571914673e-02
-8.692765235900878906e+00 -3.779834508895874023e+00 1.158078014850616455e-02
-8.688209533691406250e+00 -3.714631795883178711e+00 1.154412887990474701e-02
-8.699775695800781250e+00 -3.656602382659912109e+00 1.152946799993515015e-02
-8.777503013610839844e+00 -3.626061439514160156e+00 1.160277239978313446e-02
-8.810706138610839844e+00 -3.576649188995361328e+00 1.161743327975273132e-02
-8.836201667785644531e+00 -3.524002075195312500e+00 1.162231992930173874e-02
-9.197512626647949219e+00 -3.602845668792724609e+00 1.206825114786624908e-02
-9.049580574035644531e+00 -3.481002330780029297e+00 1.184589602053165436e-02
-9.084801673889160156e+00 -3.430708885192871094e+00 1.186422258615493774e-02
-8.907833099365234375e+00 -3.301571369171142578e+00 1.160643622279167175e-02
-9.104602813720703125e+00 -3.311105489730834961e+00 1.183612272143363953e-02
-9.090841293334960938e+00 -3.243082284927368164e+00 1.179214008152484894e-02
-9.312564849853515625e+00 -3.257906913757324219e+00 1.205359026789665222e-02
-9.045767784118652344e+00 -3.102406263351440430e+00 1.168340630829334259e-02
-9.112976074218750000e+00 -3.063092947006225586e+00 1.174571458250284195e-02
-9.046114921569824219e+00 -2.978968381881713867e+00 1.163575798273086548e-02
-8.855795860290527344e+00 -2.856184005737304688e+00 1.136819925159215927e-02
-9.126809120178222656e+00 -2.881886243820190430e+00 1.169317960739135742e-02
-9.279034614562988281e+00 -2.867461442947387695e+00 1.186544448137283325e-02
-9.306025505065917969e+00 -2.813365936279296875e+00 1.187766063958406448e-02
-9.067069053649902344e+00 -2.680517196655273438e+00 1.155146025121212006e-02
-9.328321456909179688e+00 -2.695623397827148438e+00 1.186299975961446762e-02
-9.183968544006347656e+00 -2.592959165573120117e+00 1.165897119790315628e-02
-9.247907638549804688e+00 -2.549848794937133789e+00 1.172005850821733475e-02
-9.286554336547851562e+00 -2.499294042587280273e+00 1.174937933683395386e-02
-9.304616928100585938e+00 -2.443027496337890625e+00 1.175304502248764038e-02
-9.022992134094238281e+00 -2.309997320175170898e+00 1.137919537723064423e-02
-9.159249305725097656e+00 -2.285089969635009766e+00 1.153313368558883667e-02
-9.089529037475585938e+00 -2.208541631698608398e+00 1.142806373536586761e-02
-9.279050827026367188e+00 -2.194383144378662109e+00 1.164919789880514145e-02
-9.233867645263671875e+00 -2.123956680297851562e+00 1.157589349895715714e-02
-9.244773864746093750e+00 -2.066822528839111328e+00 1.157345063984394073e-02
-9.257282257080078125e+00 -2.010058641433715820e+00 1.157345063984394073e-02
-9.009157180786132812e+00 -1.898373246192932129e+00 1.124847028404474258e-02
-9.248919486999511719e+00 -1.889700293540954590e+00 1.153313368558883667e-02
-9.461439132690429688e+00 -1.872718214988708496e+00 1.178358774632215500e-02
-9.592572212219238281e+00 -1.837581872940063477e+00 1.193263847380876541e-02
-9.285085678100585938e+00 -1.719684123992919922e+00 1.153679937124252319e-02
-9.513994216918945312e+00 -1.701768279075622559e+00 1.180802285671234131e-02
-9.707548141479492188e+00 -1.674985408782958984e+00 1.203526463359594345e-02
-9.610118865966796875e+00 -1.597515463829040527e+00 1.190209574997425079e-02
-9.586166381835937500e+00 -1.533149242401123047e+00 1.186055690050125122e-02
-9.757491111755371094e+00 -1.499206542968750000e+00 1.206092070788145065e-02
-9.811025619506835938e+00 -1.445868372917175293e+00 1.211589947342872620e-02
-9.872192382812500000e+00 -1.393047213554382324e+00 1.218065060675144196e-02
-9.752711296081542969e+00 -1.315206050872802734e+00 1.202304754406213760e-02
-9.805230140686035156e+00 -1.261080145835876465e+00 1.207802537828683853e-02
-9.866383552551269531e+00 -1.207452178001403809e+00 1.214399840682744980e-02
-9.868639945983886719e+00 -1.146313548088073730e+00 1.213788986206054688e-02
-9.744277954101562500e+00 -1.071313619613647461e+00 1.197662111371755600e-02
-9.756635665893554688e+00 -1.012122750282287598e+00 1.198395155370235443e-02
-9.804465293884277344e+00 -9.563154578208923340e-01 1.203526463359594345e-02
-7.678471088409423828e+00 1.327714473009109497e-01 2.279257774353027344e-01
-1.012085342407226562e+01 -9.245207309722900391e-01 1.241644378751516342e-02
-7.616555213928222656e+00 1.784549504518508911e-01 2.261161208152770996e-01
-1.006057357788085938e+01 -8.568023443222045898e-01 1.233580987900495529e-02
-1.003075027465820312e+01 -7.922997474670410156e-01 1.229304913431406021e-02
-1.001747131347656250e+01 -7.294301390647888184e-01 1.227105874568223953e-02
-9.960893630981445312e+00 -6.638936996459960938e-01 1.219653338193893433e-02
-7.604907989501953125e+00 9.005368500947952271e-02 1.539994329214096069e-01
-1.074036121368408203e+01 -6.496766805648803711e-01 1.314581651240587234e-02
-7.634201526641845703e+00 1.372539997100830078e-01 1.546067744493484497e-01
-1.022191619873046875e+01 -5.553885102272033691e-01 1.250685192644596100e-02
-7.606228828430175781e+00 1.834431439638137817e-01 1.540601551532745361e-01
-9.936467170715332031e+00 -4.787493944168090820e-01 1.215377263724803925e-02
-1.017500782012939453e+01 -4.276822507381439209e-01 1.244209986180067062e-02
-1.016844654083251953e+01 -3.649187684059143066e-01 1.243110466748476028e-02
-1.068926429748535156e+01 -3.179501891136169434e-01 1.306518260389566422e-02
-7.626969337463378906e+00 9.555713087320327759e-02 8.121003210544586182e-02
-1.015716361999511719e+01 -2.397548407316207886e-01 1.241277996450662613e-02
-7.636237621307373047e+00 1.425401568412780762e-01 8.131650090217590332e-02
-1.032241821289062500e+01 -1.802911162376403809e-01 1.261314284056425095e-02
-7.645215034484863281e+00 1.896405071020126343e-01 8.142296224832534790e-02
-1.019833850860595703e+01 -1.155345514416694641e-01 1.246042642742395401e-02
-1.056484985351562500e+01 -5.485694110393524170e-02 1.290757954120635986e-02
-1.083798694610595703e+01 1.022638753056526184e-02 1.324111223220825195e-02
-1.024073600769042969e+01 7.250041514635086060e-02 1.251173857599496841e-02
-7.602330684661865234e+00 1.004737988114356995e-01 9.288814850151538849e-03
-7.620567321777343750e+00 1.474865823984146118e-01 9.312028065323829651e-03
-7.652508258819580078e+00 1.950837224721908569e-01 9.352345019578933716e-03
-1.062567710876464844e+01 3.361298143863677979e-01 1.298821438103914261e-02
-1.077031040191650391e+01 4.068706929683685303e-01 1.316780876368284225e-02
-1.059177970886230469e+01 4.652253389358520508e-01 1.295278314501047134e-02
-1.039596843719482422e+01 5.205546021461486816e-01 1.271698996424674988e-02
-1.059525775909423828e+01 5.957291126251220703e-01 1.296500116586685181e-02
-1.066226577758789062e+01 6.651498675346374512e-01 1.305174455046653748e-02
-1.059014320373535156e+01 7.259095907211303711e-01 1.296866685152053833e-02
-1.125462341308593750e+01 8.408689498901367188e-01 1.378844678401947021e-02
-1.125722694396972656e+01 9.105551838874816895e-01 1.379822101444005966e-02
-1.103923034667968750e+01 9.611360430717468262e-01 1.353799272328615189e-02
-1.102416419982910156e+01 1.028017759323120117e+00 1.352699752897024155e-02
-1.100769710540771484e+01 1.094651818275451660e+00 1.351477950811386108e-02
-1.006796550750732422e+01 1.063627004623413086e+00 1.236879732459783554e-02
-1.089902496337890625e+01 1.219090700149536133e+00 1.339871622622013092e-02
-1.195495033264160156e+01 1.411523580551147461e+00 1.470718812197446823e-02
-1.154050445556640625e+01 2.290380239486694336e+00 2.382365316152572632e-01
-1.215942192077636719e+01 1.511370778083801270e+00 1.496986020356416702e-02
-1.148607540130615234e+01 2.352921962738037109e+00 2.374065071344375610e-01
-1.171064662933349609e+01 1.528612136840820312e+00 1.442863419651985168e-02
-1.191604518890380859e+01 1.629845380783081055e+00 1.469374913722276688e-02
-1.308679962158203125e+01 1.871849656105041504e+00 1.615127362310886383e-02
-1.248164653778076172e+01 1.863515496253967285e+00 1.541823614388704300e-02
-1.287312698364257812e+01 2.002787828445434570e+00 1.591670140624046326e-02
-1.148670101165771484e+01 2.287908077239990234e+00 1.247002035379409790e-01
-1.114295291900634766e+01 1.803704380989074707e+00 1.379089057445526123e-02
-1.157137203216552734e+01 2.378681898117065430e+00 1.257754713296890259e-01
-1.187720680236816406e+01 1.997420072555541992e+00 1.471451856195926666e-02
-1.351972103118896484e+01 2.359037160873413086e+00 1.676702685654163361e-02
-1.284666728973388672e+01 2.322911262512207031e+00 1.594968698918819427e-02
-1.308871841430664062e+01 2.449708700180053711e+00 1.626856066286563873e-02
-1.152516651153564453e+01 2.230351209640502930e+00 1.434189081192016602e-02
-1.146909809112548828e+01 2.292597532272338867e+00 1.428935583680868149e-02
-1.144600105285644531e+01 2.361109256744384766e+00 1.427836064249277115e-02
-1.459475708007812500e+01 3.197851657867431641e+00 1.825387217104434967e-02
-1.476020336151123047e+01 3.329147338867187500e+00 1.848600059747695923e-02
-1.459567642211914062e+01 3.480798244476318359e+00 1.833206228911876678e-02
-1.464603328704833984e+01 3.875033378601074219e+00 1.850921288132667542e-02
-4.800136089324951172e+00 3.328809738159179688e+00 1.733695417642593384e-01
-4.779620647430419922e+00 3.358200073242187500e+00 1.733695417642593384e-01
-4.840035438537597656e+00 3.361407041549682617e+00 1.193207055330276489e-01
-4.695851802825927734e+00 3.304166078567504883e+00 1.162638068199157715e-01
-8.533602714538574219e+00 6.083168029785156250e+00 2.122021913528442383e-01
-4.784188747406005859e+00 3.371240854263305664e+00 6.231283769011497498e-02
-8.434651374816894531e+00 6.021377086639404297e+00 1.103383302688598633e-01
-8.379720687866210938e+00 6.060126781463623047e+00 1.101041212677955627e-01
-4.804238319396972656e+00 3.302748918533325195e+00 7.122687529772520065e-03
-4.775676727294921875e+00 3.326449155807495117e+00 7.110469974577426910e-03
-4.751908302307128906e+00 3.353383541107177734e+00 7.105583325028419495e-03
-4.725548267364501953e+00 3.378406524658203125e+00 7.097030989825725555e-03
-8.427046775817871094e+00 6.103176593780517578e+00 1.271210331469774246e-02
-1.026126980781555176e+00 1.637929081916809082e+00 1.273605525493621826e-01
-9.501577615737915039e-01 1.517253637313842773e+00 5.313224717974662781e-02
-1.012385725975036621e+00 1.638252615928649902e+00 1.269002854824066162e-01
-1.036961913108825684e+00 1.678677201271057129e+00 5.856116861104965210e-02
-1.005430579185485840e+00 1.649545907974243164e+00 1.272948086261749268e-01
-9.439491033554077148e-01 1.549285650253295898e+00 5.384423583745956421e-02
-9.911774396896362305e-01 1.648842453956604004e+00 1.267687827348709106e-01
-9.591371417045593262e-01 1.596173644065856934e+00 5.526821315288543701e-02
-9.703559875488281250e-01 1.636867880821228027e+00 1.253880113363265991e-01
-1.027467250823974609e+00 1.641938805580139160e+00 1.093079075217247009e-01
-1.015799880027770996e+00 1.645663499832153320e+00 1.091388687491416931e-01
-9.767438173294067383e-01 1.583626627922058105e+00 3.767489641904830933e-02
-1.010355949401855469e+00 1.659540653228759766e+00 1.096459701657295227e-01
-9.763615727424621582e-01 1.604964852333068848e+00 3.803929686546325684e-02
-1.004265785217285156e+00 1.672556519508361816e+00 1.100967302918434143e-01
-1.012273907661437988e+00 1.687227964401245117e+00 3.984105214476585388e-02
-9.822843670845031738e-01 1.658927798271179199e+00 1.088008135557174683e-01
-1.046812653541564941e+00 1.652120828628540039e+00 9.189307689666748047e-02
-9.705725908279418945e-01 1.533571243286132812e+00 1.932304911315441132e-02
-1.030302405357360840e+00 1.648348331451416016e+00 9.132989495992660522e-02
-1.033164143562316895e+00 1.654853940010070801e+00 2.077094651758670807e-02
-1.029605269432067871e+00 1.669944047927856445e+00 9.217467159032821655e-02
-1.027709722518920898e+00 1.668825149536132812e+00 2.086676284670829773e-02
-1.009477972984313965e+00 1.660014033317565918e+00 9.128295630216598511e-02
-1.006549477577209473e+00 1.657152175903320312e+00 2.064319141209125519e-02
-9.982458353042602539e-01 1.664463639259338379e+00 9.118909388780593872e-02
-9.038687348365783691e-01 1.508890867233276367e+00 1.872685551643371582e-02
-9.875056147575378418e-01 1.669697642326354980e+00 9.114216268062591553e-02
-9.586229920387268066e-01 1.643798589706420898e+00 8.940567821264266968e-02
-1.020148277282714844e+00 1.633331656455993652e+00 1.424313038587570190e-01
-1.014814972877502441e+00 1.647202014923095703e+00 1.430951356887817383e-01
-1.024385690689086914e+00 1.664687871932983398e+00 7.338085770606994629e-02
-9.742415547370910645e-01 1.584439516067504883e+00 2.272418234497308731e-03
-1.001581549644470215e+00 1.648284316062927246e+00 1.426525861024856567e-01
-8.504204750061035156e-01 1.402277231216430664e+00 2.003637608140707016e-03
-9.899111390113830566e-01 1.651832580566406250e+00 1.424313038587570190e-01
-9.095548987388610840e-01 1.520752906799316406e+00 2.164905890822410583e-03
-9.736684560775756836e-01 1.647572755813598633e+00 1.415461748838424683e-01
-8.956344723701477051e-01 1.518553137779235840e+00 2.153910463675856590e-03
-8.193930238485336304e-02 6.970566511154174805e-01 1.421159505844116211e-02
-1.053109243512153625e-01 7.112046480178833008e-01 7.654695305973291397e-03
-1.016470566391944885e-01 7.167876362800598145e-01 7.707926910370588303e-03
-1.774324290454387665e-02 7.149909138679504395e-01 3.360339254140853882e-02
-8.990221656858921051e-03 6.975176930427551270e-01 5.820925161242485046e-02
