-2.681385755538940430e+00 -4.722911357879638672e+00 6.635216996073722839e-03
-3.904067039489746094e+00 -6.294929027557373047e+00 2.020846605300903320e+00
-3.820367336273193359e+00 -6.701383590698242188e+00 2.028012752532958984e+00
-3.976166963577270508e+00 -6.960549831390380859e+00 1.791828751564025879e+00
-5.068853378295898438e+00 -6.957029342651367188e+00 1.848486781120300293e+00
-3.891785621643066406e+00 -6.799051761627197266e+00 1.449136018753051758e+00
-4.529431819915771484e+00 -6.214391231536865234e+00 1.358703017234802246e+00
-4.358297824859619141e+00 -6.462202548980712891e+00 1.298764944076538086e+00
-4.143530368804931641e+00 -6.660260200500488281e+00 1.231138706207275391e+00
-3.915304660797119141e+00 -6.829077720642089844e+00 1.161008834838867188e+00
-3.943708419799804688e+00 -6.870280265808105469e+00 8.759651184082031250e-01
-3.959552764892578125e+00 -6.889524936676025391e+00 5.877227187156677246e-01
-3.879585981369018555e+00 -5.313054084777832031e+00 4.334993064403533936e-01
-3.343238353729248047e+00 -5.355107784271240234e+00 2.966109514236450195e-01
-3.376605510711669922e+00 -5.868096828460693359e+00 2.541693747043609619e-01
-3.864222764968872070e+00 -5.290075778961181641e+00 1.944325715303421021e-01
-4.118516445159912109e+00 -6.088315010070800781e+00 1.488371044397354126e-01
-3.256264686584472656e+00 -5.209721565246582031e+00 6.541091203689575195e-02
-2.736763954162597656e+00 -4.752297878265380859e+00 6.699968595057725906e-03
-4.015367507934570312e+00 -6.944057941436767578e+00 2.108868837356567383e+00
-4.927981376647949219e+00 -6.677210330963134766e+00 1.782139539718627930e+00
-4.373935222625732422e+00 -6.400319576263427734e+00 1.291697502136230469e+00
-4.177467823028564453e+00 -6.623847484588623047e+00 1.229122996330261230e+00
-4.002292633056640625e+00 -6.874298572540283203e+00 8.795920610427856445e-01
-4.000747203826904297e+00 -6.863377094268798828e+00 5.875751972198486328e-01
-3.921013832092285156e+00 -5.301183223724365234e+00 4.344855546951293945e-01
-3.657084941864013672e+00 -5.339351177215576172e+00 3.652236461639404297e-01
-3.351995468139648438e+00 -5.296510219573974609e+00 2.944990098476409912e-01
-4.039650917053222656e+00 -6.921784400939941406e+00 3.008765280246734619e-01
-3.922769069671630859e+00 -5.301620483398437500e+00 1.957378983497619629e-01
-4.058571338653564453e+00 -5.921087265014648438e+00 1.453550606966018677e-01
-3.294591903686523438e+00 -5.199779510498046875e+00 6.553866714239120483e-02
-2.768898010253906250e+00 -4.740597248077392578e+00 6.707299035042524338e-03
-5.129388332366943359e+00 -6.856595039367675781e+00 2.523451328277587891e+00
-3.694102525711059570e+00 -5.342927455902099609e+00 1.579862236976623535e+00
-5.131014347076416016e+00 -6.863761901855468750e+00 1.840298295021057129e+00
-4.098161697387695312e+00 -6.960075378417968750e+00 1.494063377380371094e+00
-4.409755229949951172e+00 -6.368495464324951172e+00 1.290711283683776855e+00
-4.190362930297851562e+00 -6.554807662963867188e+00 1.221060037612915039e+00
-4.040354728698730469e+00 -6.842764854431152344e+00 8.787128329277038574e-01
-4.050904750823974609e+00 -6.852435111999511719e+00 5.887553691864013672e-01
-3.978595256805419922e+00 -5.310564517974853516e+00 4.372470974922180176e-01
-3.679531574249267578e+00 -5.302046775817871094e+00 3.642094433307647705e-01
-3.382273912429809570e+00 -5.272480487823486328e+00 2.943112850189208984e-01
-3.332822799682617188e+00 -5.631008625030517578e+00 2.456533014774322510e-01
-3.982200860977172852e+00 -5.313444137573242188e+00 1.970728635787963867e-01
-4.152997493743896484e+00 -5.979833602905273438e+00 1.474199891090393066e-01
-3.376147747039794922e+00 -5.256872177124023438e+00 6.651812791824340820e-02
-2.774490118026733398e+00 -4.683940410614013672e+00 6.651099305599927902e-03
-3.711764335632324219e+00 -5.298672676086425781e+00 1.573481321334838867e+00
-5.194279670715332031e+00 -6.860210895538330078e+00 1.847856879234313965e+00
-4.147344112396240234e+00 -6.945773601531982422e+00 1.496427893638610840e+00
-4.457812786102294922e+00 -6.354238033294677734e+00 1.293341159820556641e+00
-4.268645286560058594e+00 -6.587837219238281250e+00 1.232069015502929688e+00
-4.037295818328857422e+00 -6.750758171081542969e+00 1.160133361816406250e+00
-4.086349487304687500e+00 -6.824666976928710938e+00 8.795920610427856445e-01
-4.040660858154296875e+00 -5.325002670288085938e+00 4.404689371585845947e-01
-3.373996496200561523e+00 -5.621591091156005859e+00 2.461410015821456909e-01
-4.028024673461914062e+00 -5.306425571441650391e+00 1.977255344390869141e-01
-4.069365501403808594e+00 -5.783346652984619141e+00 1.431889086961746216e-01
-3.408885240554809570e+00 -5.236895561218261719e+00 6.652877479791641235e-02
-2.827893733978271484e+00 -4.707975864410400391e+00 6.709742359817028046e-03
-3.447554588317871094e+00 -5.265782356262207031e+00 1.717114210128784180e+00
-4.852078437805175781e+00 -6.831797599792480469e+00 1.713969945907592773e+00
-4.183263778686523438e+00 -6.909260749816894531e+00 1.494063377380371094e+00
-4.299767971038818359e+00 -6.547482967376708984e+00 1.229433059692382812e+00
-4.084797382354736328e+00 -6.736010074615478516e+00 1.161884307861328125e+00
-4.126600265502929688e+00 -6.796916007995605469e+00 8.792623281478881836e-01
-4.120077610015869141e+00 -5.361030101776123047e+00 4.455318152904510498e-01
-3.779074192047119141e+00 -5.305285453796386719e+00 3.675900995731353760e-01
-3.486843585968017578e+00 -5.291466236114501953e+00 2.977373301982879639e-01
-4.125086307525634766e+00 -5.365609169006347656e+00 2.008701562881469727e-01
-4.275395870208740234e+00 -5.997619628906250000e+00 1.491407752037048340e-01
-3.458024024963378906e+00 -5.241755485534667969e+00 6.685881316661834717e-02
-2.882216215133666992e+00 -4.732385158538818359e+00 6.769607309252023697e-03
-5.416012287139892578e+00 -6.968536853790283203e+00 2.600904703140258789e+00
-4.822694778442382812e+00 -6.712803363800048828e+00 2.342045068740844727e+00
-5.355972766876220703e+00 -6.893769741058349609e+00 2.217102766036987305e+00
-4.880745887756347656e+00 -6.783606529235839844e+00 1.709360957145690918e+00
-4.328915119171142578e+00 -6.504528522491455078e+00 1.226331949234008789e+00
-4.123460769653320312e+00 -6.706605434417724609e+00 1.161154747009277344e+00
-4.158410549163818359e+00 -5.342735767364501953e+00 4.461235702037811279e-01
-3.832004070281982422e+00 -5.310334682464599609e+00 3.695621490478515625e-01
-3.337257862091064453e+00 -5.408824443817138672e+00 2.386003285646438599e-01
-4.170827388763427734e+00 -5.356759071350097656e+00 2.014931440353393555e-01
-4.705457210540771484e+00 -6.515958786010742188e+00 1.627450287342071533e-01
-3.525690078735351562e+00 -5.273641109466552734e+00 6.754017621278762817e-02
-2.888607263565063477e+00 -4.678023815155029297e+00 6.717072799801826477e-03
-4.947017192840576172e+00 -6.797439575195312500e+00 2.382119894027709961e+00
-5.043458938598632812e+00 -6.919795989990234375e+00 1.751443743705749512e+00
-4.162441253662109375e+00 -6.677820205688476562e+00 1.160571098327636719e+00
-4.226324081420898438e+00 -5.361788272857666016e+00 4.498714208602905273e-01
-3.879834413528442383e+00 -5.307678699493408203e+00 3.710271120071411133e-01
-4.620216846466064453e+00 -6.827560424804687500e+00 3.873307108879089355e-01
-3.350245714187622070e+00 -5.356051921844482422e+00 2.371747344732284546e-01
-4.232086658477783203e+00 -5.367172241210937500e+00 2.028577923774719238e-01
-4.426592350006103516e+00 -6.051218032836914062e+00 1.518130451440811157e-01
-3.537230730056762695e+00 -5.221277713775634766e+00 6.714626401662826538e-02
-2.823339939117431641e+00 -4.510182857513427734e+00 6.500826217234134674e-03
-5.539981842041015625e+00 -6.950305461883544922e+00 2.619278907775878906e+00
-4.938962459564208984e+00 -6.699581146240234375e+00 2.358402013778686523e+00
-5.399095058441162109e+00 -6.775979042053222656e+00 2.200364351272583008e+00
-5.109098911285400391e+00 -6.920247077941894531e+00 1.759459495544433594e+00
-4.219190597534179688e+00 -6.677243709564208984e+00 1.164948344230651855e+00
-4.292758464813232422e+00 -5.377866744995117188e+00 4.534219801425933838e-01
-3.937282085418701172e+00 -5.317472934722900391e+00 3.733935654163360596e-01
-3.680812120437622070e+00 -5.368087291717529297e+00 3.058096468448638916e-01
-3.352544546127319336e+00 -5.287289619445800781e+00 2.350363284349441528e-01
-4.268058300018310547e+00 -5.345009326934814453e+00 2.030061185359954834e-01
-4.521376132965087891e+00 -6.101862907409667969e+00 1.537767350673675537e-01
-3.590140104293823242e+00 -5.229978084564208984e+00 6.754017621278762817e-02
-2.854175567626953125e+00 -4.497840404510498047e+00 6.508156657218933105e-03
-4.998973846435546875e+00 -6.694590568542480469e+00 2.367398262023925781e+00
-5.164859294891357422e+00 -6.401023387908935547e+00 2.088856935501098633e+00
-4.742409229278564453e+00 -5.879563331604003906e+00 1.622149944305419922e+00
-5.184321403503417969e+00 -6.932705402374267578e+00 1.770681500434875488e+00
-4.661789417266845703e+00 -6.735147476196289062e+00 1.595160484313964844e+00
-4.338518142700195312e+00 -6.773691177368164062e+00 1.186397314071655273e+00
-4.327557563781738281e+00 -5.353753566741943359e+00 4.536192119121551514e-01
-3.993197917938232422e+00 -5.324365139007568359e+00 3.755909800529479980e-01
-3.706271648406982422e+00 -5.334736824035644531e+00 3.051995337009429932e-01
-4.321514606475830078e+00 -5.344369411468505859e+00 2.039851099252700806e-01
-4.514320373535156250e+00 -6.014832973480224609e+00 1.522786617279052734e-01
-3.623875856399536133e+00 -5.210313796997070312e+00 6.757211685180664062e-02
-2.891998529434204102e+00 -4.496222972869873047e+00 6.531369872391223907e-03
-4.968571662902832031e+00 -6.569406032562255859e+00 2.333866834640502930e+00
-3.929983615875244141e+00 -6.086251258850097656e+00 1.904694437980651855e+00
-4.899866580963134766e+00 -5.996936798095703125e+00 1.966764926910400391e+00
-4.775303840637207031e+00 -5.846567153930664062e+00 1.621100068092346191e+00
-4.696264743804931641e+00 -6.696772575378417969e+00 1.592866659164428711e+00
-4.372966289520263672e+00 -5.342542648315429688e+00 4.549342393875122070e-01
-4.048137664794921875e+00 -5.329179763793945312e+00 3.776757419109344482e-01
-4.369423389434814453e+00 -5.336313247680664062e+00 2.046970874071121216e-01
-4.571712970733642578e+00 -6.014081954956054688e+00 1.529669612646102905e-01
-3.688032865524291992e+00 -5.233754158020019531e+00 6.816831231117248535e-02
-2.823415994644165039e+00 -4.330956459045410156e+00 6.316345185041427612e-03
-5.021073818206787109e+00 -6.554835319519042969e+00 2.339591741561889648e+00
-4.968698978424072266e+00 -6.005591392517089844e+00 1.979565024375915527e+00
-4.946717739105224609e+00 -6.453098773956298828e+00 1.977604508399963379e+00
-4.798625469207763672e+00 -5.802088260650634766e+00 1.616900920867919922e+00
-4.629760265350341797e+00 -6.035256862640380859e+00 1.555859088897705078e+00
-4.742383480072021484e+00 -6.675032138824462891e+00 1.594586968421936035e+00
-4.468703269958496094e+00 -5.391667842864990234e+00 4.614436328411102295e-01
-4.114244461059570312e+00 -5.347763061523437500e+00 3.807746767997741699e-01
-3.470770597457885742e+00 -5.257208347320556641e+00 2.364994436502456665e-01
-4.448657035827636719e+00 -5.365574836730957031e+00 2.068627327680587769e-01
-4.606698989868164062e+00 -5.983540534973144531e+00 1.529062390327453613e-01
-3.731116056442260742e+00 -5.226489067077636719e+00 6.837058812379837036e-02
-2.937033653259277344e+00 -4.445376873016357422e+00 6.509378552436828613e-03
-5.248647212982177734e+00 -6.263068199157714844e+00 2.408119440078735352e+00
-5.137866020202636719e+00 -6.622727394104003906e+00 2.375031709671020508e+00
-5.583055019378662109e+00 -6.664470195770263672e+00 2.207995176315307617e+00
-4.884327411651611328e+00 -6.291378974914550781e+00 1.937192320823669434e+00
-4.808399677276611328e+00 -5.741802215576171875e+00 1.608292579650878906e+00
-4.656486511230468750e+00 -5.993583202362060547e+00 1.552452325820922852e+00
-4.969031333923339844e+00 -6.903928756713867188e+00 1.656520128250122070e+00
-4.511323928833007812e+00 -5.375612735748291016e+00 4.624299407005310059e-01
-4.172753334045410156e+00 -5.355495929718017578e+00 3.831411004066467285e-01
-3.881050348281860352e+00 -5.372495651245117188e+00 3.113945722579956055e-01
-4.655428409576416016e+00 -6.958382129669189453e+00 3.143071532249450684e-01
-4.529697895050048828e+00 -5.395593643188476562e+00 2.090876996517181396e-01
-4.228974342346191406e+00 -5.423746585845947266e+00 1.392614841461181641e-01
-3.774834394454956055e+00 -5.219702243804931641e+00 6.858351826667785645e-02
-2.985396385192871094e+00 -4.458847999572753906e+00 6.555804517120122910e-03
-5.308700084686279297e+00 -6.256344318389892578e+00 2.418013334274291992e+00
-5.234279155731201172e+00 -6.662192821502685547e+00 2.400657653808593750e+00
-5.468983173370361328e+00 -6.447520256042480469e+00 2.147195339202880859e+00
-4.809932231903076172e+00 -6.117687225341796875e+00 1.892762422561645508e+00
-4.861244678497314453e+00 -5.733070373535156250e+00 1.614171504974365234e+00
-4.679847240447998047e+00 -5.947959423065185547e+00 1.548043727874755859e+00
-4.742981910705566406e+00 -6.505294799804687500e+00 1.567825794219970703e+00
-4.524945735931396484e+00 -6.707087516784667969e+00 1.496609926223754883e+00
-4.568775653839111328e+00 -5.376724720001220703e+00 4.649284780025482178e-01
-4.238932132720947266e+00 -5.372116088867187500e+00 3.861837089061737061e-01
-5.038279056549072266e+00 -6.885038375854492188e+00 4.008471667766571045e-01
-4.583435535430908203e+00 -5.392069339752197266e+00 2.100370228290557861e-01
-4.261554718017578125e+00 -5.396911144256591797e+00 1.392412334680557251e-01
-3.859974861145019531e+00 -5.269040584564208984e+00 6.954168528318405151e-02
-3.019436359405517578e+00 -4.450376033782958984e+00 6.570465397089719772e-03
-5.011941909790039062e+00 -5.833674430847167969e+00 2.266498804092407227e+00
-4.985461711883544922e+00 -6.767755508422851562e+00 2.293258190155029297e+00
-6.007314205169677734e+00 -6.994712352752685547e+00 2.341656446456909180e+00
-5.140921115875244141e+00 -6.456732273101806641e+00 2.007382154464721680e+00
-4.902699470520019531e+00 -5.710552692413330078e+00 1.616271138191223145e+00
-4.706486701965332031e+00 -5.906872749328613281e+00 1.544837474822998047e+00
-4.541976451873779297e+00 -6.149976730346679688e+00 1.488880157470703125e+00
-4.575448513031005859e+00 -6.692996501922607422e+00 1.499702095985412598e+00
-4.632918834686279297e+00 -5.384898185729980469e+00 4.680845439434051514e-01
-4.289889812469482422e+00 -5.368625164031982422e+00 3.878177106380462646e-01
-5.038792133331298828e+00 -6.797821044921875000e+00 3.975619375705718994e-01
-3.699352979660034180e+00 -5.385171413421630859e+00 2.452781349420547485e-01
-4.648384094238281250e+00 -5.400966644287109375e+00 2.114906609058380127e-01
-4.302706241607666016e+00 -5.380812168121337891e+00 1.395044177770614624e-01
-3.881506681442260742e+00 -5.230803012847900391e+00 6.935004889965057373e-02
-3.050085783004760742e+00 -4.436709880828857422e+00 6.577795837074518204e-03
-5.901296615600585938e+00 -6.784180164337158203e+00 2.649807929992675781e+00
-5.026894092559814453e+00 -6.737037658691406250e+00 2.293258190155029297e+00
-5.545783996582031250e+00 -6.377727508544921875e+00 2.146456718444824219e+00
-4.871835231781005859e+00 -6.042315959930419922e+00 1.887799382209777832e+00
-4.735259532928466797e+00 -5.868733406066894531e+00 1.542432665824890137e+00
-4.569043159484863281e+00 -6.107843875885009766e+00 1.485439419746398926e+00
-4.622028350830078125e+00 -6.672879219055175781e+00 1.501520872116088867e+00
-4.698642730712890625e+00 -5.393990039825439453e+00 4.713720977306365967e-01
-4.340334892272949219e+00 -5.363934040069580078e+00 3.893953263759613037e-01
-4.033259868621826172e+00 -5.372041702270507812e+00 3.156184554100036621e-01
-4.793567180633544922e+00 -6.887095928192138672e+00 3.150199651718139648e-01
-4.699166297912597656e+00 -5.392690181732177734e+00 2.122916430234909058e-01
-4.342562675476074219e+00 -5.362857341766357422e+00 1.397271007299423218e-01
-3.927947759628295898e+00 -5.226071834564208984e+00 6.960555911064147949e-02
-3.099542140960693359e+00 -4.449913024902343750e+00 6.625443231314420700e-03
-5.007709980010986328e+00 -5.686068534851074219e+00 2.232860088348388672e+00
-5.668648719787597656e+00 -6.947896003723144531e+00 2.540782213211059570e+00
-5.064647197723388672e+00 -6.701448917388916016e+00 2.291679143905639648e+00
-6.070281505584716797e+00 -6.895005226135253906e+00 2.333040952682495117e+00
-4.774279594421386719e+00 -5.843361377716064453e+00 1.543434619903564453e+00
-4.611769199371337891e+00 -6.086735248565673828e+00 1.487159729003906250e+00
-4.797320842742919922e+00 -6.835958003997802734e+00 1.544811248779296875e+00
-4.744191646575927734e+00 -5.379277229309082031e+00 4.726213812828063965e-01
-4.384555816650390625e+00 -5.351102352142333984e+00 3.904095292091369629e-01
-4.057681083679199219e+00 -5.336061477661132812e+00 3.149614036083221436e-01
-4.878351688385009766e+00 -6.917986869812011719e+00 3.177961409091949463e-01
-4.766553878784179688e+00 -5.402731418609619141e+00 2.138342857360839844e-01
-4.398841857910156250e+00 -5.364716053009033203e+00 1.404761523008346558e-01
-3.934502124786376953e+00 -5.168455123901367188e+00 6.915841251611709595e-02
-3.262284040451049805e+00 -4.622815608978271484e+00 6.912549957633018494e-03
-5.962399959564208984e+00 -6.686909198760986328e+00 2.640196800231933594e+00
-5.727718353271484375e+00 -6.933009624481201172e+00 2.548142910003662109e+00
-5.191869735717773438e+00 -6.782859802246093750e+00 2.330369234085083008e+00
-4.867606639862060547e+00 -5.887716770172119141e+00 1.858021974563598633e+00
-4.817538261413574219e+00 -5.823015213012695312e+00 1.545839309692382812e+00
-4.643054485321044922e+00 -6.050536155700683594e+00 1.485248327255249023e+00
-4.484200000762939453e+00 -6.307113647460937500e+00 1.431492447853088379e+00
-4.786413192749023438e+00 -5.360486030578613281e+00 4.735419154167175293e-01
-4.430057525634765625e+00 -5.339466094970703125e+00 3.915364146232604980e-01
-5.264240741729736328e+00 -6.835292816162109375e+00 4.053526520729064941e-01
-4.914898395538330078e+00 -6.879792213439941406e+00 3.174209594726562500e-01
-4.835571765899658203e+00 -5.413638591766357422e+00 2.154362797737121582e-01
-4.452113628387451172e+00 -5.362239360809326172e+00 1.411239653825759888e-01
-3.970414876937866211e+00 -5.149759769439697266e+00 6.923294067382812500e-02
-3.334206104278564453e+00 -4.663722991943359375e+00 7.004179526120424271e-03
-5.028741836547851562e+00 -6.011442184448242188e+00 2.220731019973754883e+00
-5.159443855285644531e+00 -6.648294448852539062e+00 1.961431741714477539e+00
-4.668648242950439453e+00 -6.007207870483398438e+00 1.481616377830505371e+00
-4.492356777191162109e+00 -6.237191677093505859e+00 1.421852111816406250e+00
-4.898843765258789062e+00 -5.419102191925048828e+00 4.813663661479949951e-01
-4.546866416931152344e+00 -5.412326335906982422e+00 3.989175260066986084e-01
-4.283200740814208984e+00 -5.491439819335937500e+00 3.272106945514678955e-01
-3.887226819992065430e+00 -5.371288299560546875e+00 2.489171624183654785e-01
-4.887470245361328125e+00 -5.404624462127685547e+00 2.162669301033020020e-01
-4.493938922882080078e+00 -5.345534801483154297e+00 1.414073854684829712e-01
-4.040093421936035156e+00 -5.174165725708007812e+00 6.989300996065139771e-02
-3.364518880844116211e+00 -4.645606517791748047e+00 7.007844280451536179e-03
-6.110662460327148438e+00 -6.686167716979980469e+00 2.669312477111816406e+00
-5.359310626983642578e+00 -6.826390266418457031e+00 2.367743730545043945e+00
-5.241663455963134766e+00 -6.669345378875732422e+00 1.977094054222106934e+00
-4.686600685119628906e+00 -5.954537391662597656e+00 1.475690722465515137e+00
-4.502723217010498047e+00 -6.171380519866943359e+00 1.413121342658996582e+00
-4.962991714477539062e+00 -5.422801494598388672e+00 4.843909144401550293e-01
-4.585165023803710938e+00 -5.390409469604492188e+00 3.993682563304901123e-01
-4.264186382293701172e+00 -5.398427486419677734e+00 3.232214748859405518e-01
-4.985337734222412109e+00 -5.445309638977050781e+00 2.191148847341537476e-01
-4.559056758880615234e+00 -5.355926513671875000e+00 1.424196213483810425e-01
-4.079207897186279297e+00 -5.158690929412841797e+00 7.002076506614685059e-02
-3.378172874450683594e+00 -4.604717731475830078e+00 6.977301556617021561e-03
-5.199163436889648438e+00 -5.619194984436035156e+00 2.256039619445800781e+00
-5.516970634460449219e+00 -6.939122200012207031e+00 2.418541193008422852e+00
-5.101091384887695312e+00 -5.515130043029785156e+00 1.907934308052062988e+00
-5.473530292510986328e+00 -6.877089023590087891e+00 2.048596382141113281e+00
-4.534660816192626953e+00 -6.135728359222412109e+00 1.411302328109741211e+00
-5.018551826477050781e+00 -5.416401386260986328e+00 4.865607321262359619e-01
-4.661155700683593750e+00 -5.412103652954101562e+00 4.030869901180267334e-01
-5.156872749328613281e+00 -6.944605827331542969e+00 3.247365355491638184e-01
-5.049232482910156250e+00 -5.447606563568115234e+00 2.204498648643493652e-01
-4.964533329010009766e+00 -5.760290145874023438e+00 1.539791971445083618e-01
-4.127659797668457031e+00 -5.154638767242431641e+00 7.030821591615676880e-02
-3.395627021789550781e+00 -4.569455146789550781e+00 6.955310236662626266e-03
-6.508978843688964844e+00 -6.948806762695312500e+00 2.805845260620117188e+00
-5.587275028228759766e+00 -6.939707756042480469e+00 2.430648326873779297e+00
-5.139472961425781250e+00 -5.488678932189941406e+00 1.909657359123229980e+00
-4.581652641296386719e+00 -6.120383739471435547e+00 1.414212703704833984e+00
-5.096064567565917969e+00 -5.432811260223388672e+00 4.908345341682434082e-01
-4.679840564727783203e+00 -5.366846561431884766e+00 4.018474221229553223e-01
-4.497984886169433594e+00 -5.552938461303710938e+00 3.357523381710052490e-01
-4.043100357055664062e+00 -5.375494480133056641e+00 2.525186836719512939e-01
-5.069567680358886719e+00 -5.402673244476318359e+00 2.198862135410308838e-01
-5.073407173156738281e+00 -5.814091205596923828e+00 1.562465727329254150e-01
-4.128980159759521484e+00 -5.091934204101562500e+00 6.979719549417495728e-02
-3.410971879959106445e+00 -4.531755924224853516e+00 6.929654162377119064e-03
-5.688273429870605469e+00 -6.977076053619384766e+00 2.455915451049804688e+00
-5.160384654998779297e+00 -5.443675994873046875e+00 1.904980421066284180e+00
-5.045279026031494141e+00 -5.734903812408447266e+00 1.857785582542419434e+00
-4.750824451446533203e+00 -5.821001529693603516e+00 1.751237750053405762e+00
-5.086157321929931641e+00 -6.720304489135742188e+00 1.883885145187377930e+00
-6.513951778411865234e+00 -6.873952388763427734e+00 2.033671379089355469e+00
-5.138923645019531250e+00 -5.411570072174072266e+00 4.917550981044769287e-01
-4.791975975036621094e+00 -5.427845954895019531e+00 4.086087346076965332e-01
-4.421112060546875000e+00 -5.390077590942382812e+00 3.275392353534698486e-01
-5.261083602905273438e+00 -6.906237602233886719e+00 3.259370625019073486e-01
-5.179726123809814453e+00 -5.452631473541259766e+00 2.232088297605514526e-01
-5.042790412902832031e+00 -5.707925319671630859e+00 1.542221307754516602e-01
-4.330841064453125000e+00 -5.274387359619140625e+00 7.266104966402053833e-02
-3.558753728866577148e+00 -4.668203353881835938e+00 7.171556353569030762e-03
-5.153576374053955078e+00 -5.368236064910888672e+00 2.193002939224243164e+00
-5.525224208831787109e+00 -6.692810058593750000e+00 2.367743730545043945e+00
-5.246390819549560547e+00 -6.856722354888916016e+00 2.269818067550659180e+00
-5.199728965759277344e+00 -5.418203353881835938e+00 1.907195806503295898e+00
-4.976322174072265625e+00 -5.587018966674804688e+00 1.819736480712890625e+00
-5.281661510467529297e+00 -6.890351295471191406e+00 1.940602421760559082e+00
-4.837167263031005859e+00 -5.411739826202392578e+00 4.096229374408721924e-01
-5.267821311950683594e+00 -5.477663040161132812e+00 2.255524545907974243e-01
-5.133041858673095703e+00 -5.738726615905761719e+00 1.559024006128311157e-01
-4.338829994201660156e+00 -5.218496799468994141e+00 7.225649058818817139e-02
-3.551884651184082031e+00 -4.600370883941650391e+00 7.100696209818124771e-03
-5.175722122192382812e+00 -5.325507164001464844e+00 2.188480138778686523e+00
-4.983817577362060547e+00 -5.530660629272460938e+00 2.109503507614135742e+00
-5.306315898895263672e+00 -6.347900390625000000e+00 2.257199764251708984e+00
-5.272048950195312500e+00 -5.426516532897949219e+00 1.921472668647766113e+00
-4.992940425872802734e+00 -5.536896228790283203e+00 1.813355684280395508e+00
-4.905787467956542969e+00 -5.421193599700927734e+00 4.126091897487640381e-01
-4.233035087585449219e+00 -5.417489528656005859e+00 2.581085264682769775e-01
-5.332012653350830078e+00 -5.476749897003173828e+00 2.268577814102172852e-01
-5.186276912689208984e+00 -5.727132320404052734e+00 1.564490050077438354e-01
-4.351448535919189453e+00 -5.168827056884765625e+00 7.193710654973983765e-02
-3.599140405654907227e+00 -4.602910995483398438e+00 7.138569839298725128e-03
-5.563504695892333984e+00 -5.654673099517822266e+00 2.337733268737792969e+00
-6.317141056060791016e+00 -6.924369335174560547e+00 2.655826330184936523e+00
-5.317599773406982422e+00 -6.775847434997558594e+00 2.264478445053100586e+00
-5.039922714233398438e+00 -5.520508289337158203e+00 1.818082213401794434e+00
-5.491881847381591797e+00 -6.985363483428955078e+00 1.986194372177124023e+00
-5.476469516754150391e+00 -5.558444499969482422e+00 5.141763091087341309e-01
-4.970657825469970703e+00 -5.425590038299560547e+00 4.152573645114898682e-01
-4.615420818328857422e+00 -5.420345306396484375e+00 3.344851732254028320e-01
-4.212249279022216797e+00 -5.323237895965576172e+00 2.548446655273437500e-01
-5.424455642700195312e+00 -5.503730297088623047e+00 2.293497473001480103e-01
-5.222671985626220703e+00 -5.696676254272460938e+00 1.564895063638687134e-01
-4.297457218170166016e+00 -5.041578769683837891e+00 7.053179293870925903e-02
-3.668909072875976562e+00 -4.633266448974609375e+00 7.220425643026828766e-03
-5.368621349334716797e+00 -5.390039443969726562e+00 2.241905927658081055e+00
-5.060451507568359375e+00 -5.478979587554931641e+00 2.113320112228393555e+00
-5.495068073272705078e+00 -6.914205551147460938e+00 2.321942329406738281e+00
-5.085572719573974609e+00 -5.502324104309082031e+00 1.822336196899414062e+00
-5.050702095031738281e+00 -5.445497989654541016e+00 4.191451072692871094e-01
-5.513192176818847656e+00 -5.525534629821777344e+00 2.316637188196182251e-01
-5.335063934326171875e+00 -5.748061656951904297e+00 1.587973684072494507e-01
-4.124471664428710938e+00 -4.778931617736816406e+00 6.721013784408569336e-02
-3.706027507781982422e+00 -4.621589183807373047e+00 7.237529847770929337e-03
-4.875356197357177734e+00 -5.618845939636230469e+00 2.029532194137573242e+00
-5.551942348480224609e+00 -6.898440837860107422e+00 2.328044652938842773e+00
-5.119238376617431641e+00 -5.471015930175781250e+00 1.822336196899414062e+00
-4.909903526306152344e+00 -5.652679920196533203e+00 1.745108962059020996e+00
-5.114774227142333984e+00 -5.447157859802246094e+00 4.216805994510650635e-01
-5.546701431274414062e+00 -6.354383945465087891e+00 3.962947428226470947e-01
-4.401927947998046875e+00 -5.424787998199462891e+00 2.622727751731872559e-01
-5.560488700866699219e+00 -5.504963874816894531e+00 2.322273701429367065e-01
-5.392141342163085938e+00 -5.738533973693847656e+00 1.594451814889907837e-01
-4.435983180999755859e+00 -5.076560497283935547e+00 7.177740335464477539e-02
-3.797352313995361328e+00 -4.676391601562500000e+00 7.359702605754137039e-03
-5.106140136718750000e+00 -5.394108772277832031e+00 2.104596376419067383e+00
-5.199470520019531250e+00 -6.379939079284667969e+00 2.163789749145507812e+00
-4.964433193206787109e+00 -5.645117759704589844e+00 1.752145767211914062e+00
-5.189373970031738281e+00 -5.459089279174804688e+00 4.250612556934356689e-01
-4.797757148742675781e+00 -5.428781509399414062e+00 3.403986096382141113e-01
-4.442744255065917969e+00 -5.406941413879394531e+00 2.627229690551757812e-01
-5.629893302917480469e+00 -5.505684852600097656e+00 2.337106764316558838e-01
-5.463083267211914062e+00 -5.743009090423583984e+00 1.604979038238525391e-01
-4.574385166168212891e+00 -5.170572280883789062e+00 7.350210845470428467e-02
-3.832325935363769531e+00 -4.660727977752685547e+00 7.371920160949230194e-03
-5.159112930297851562e+00 -5.383515834808349609e+00 2.112774848937988281e+00
-4.983434200286865234e+00 -5.597093582153320312e+00 1.746697902679443359e+00
-4.770591259002685547e+00 -5.770626544952392578e+00 1.673595070838928223e+00
-5.246311664581298828e+00 -5.451605319976806641e+00 4.269769787788391113e-01
-5.685539722442626953e+00 -6.354325294494628906e+00 4.006125032901763916e-01
-5.724677085876464844e+00 -5.530066967010498047e+00 2.362323105335235596e-01
-5.512783050537109375e+00 -5.724503040313720703e+00 1.609230339527130127e-01
-4.618700981140136719e+00 -5.156558990478515625e+00 7.370439171791076660e-02
-3.849973917007446289e+00 -4.624060630798339844e+00 7.351150736212730408e-03
-5.226780414581298828e+00 -4.996183395385742188e+00 2.130814075469970703e+00
-5.196737766265869141e+00 -5.356592655181884766e+00 2.114683389663696289e+00
-5.013119220733642578e+00 -5.561347007751464844e+00 1.745108962059020996e+00
-4.824701786041259766e+00 -5.763695716857910156e+00 1.680139303207397461e+00
-5.308228015899658203e+00 -5.448632240295410156e+00 4.292871057987213135e-01
-5.145676136016845703e+00 -5.680428981781005859e+00 3.601101040840148926e-01
-4.569281101226806641e+00 -5.423853874206542969e+00 2.662494480609893799e-01
-5.772964477539062500e+00 -5.508637905120849609e+00 2.368256300687789917e-01
-5.520585060119628906e+00 -5.662650108337402344e+00 1.601334959268569946e-01
-4.640850067138671875e+00 -5.117752075195312500e+00 7.355534285306930542e-02
-3.570822477340698242e+00 -4.235656261444091797e+00 6.768385879695415497e-03
-7.316194534301757812e+00 -6.908006668090820312e+00 2.965274572372436523e+00
-5.323890686035156250e+00 -5.420704841613769531e+00 2.152849435806274414e+00
-4.799413681030273438e+00 -5.672557830810546875e+00 1.953513264656066895e+00
-5.124615192413330078e+00 -5.615367412567138672e+00 1.771893978118896484e+00
-4.853666782379150391e+00 -5.726539134979248047e+00 1.677957892417907715e+00
-5.406761169433593750e+00 -5.482068061828613281e+00 4.345270991325378418e-01
-4.956958770751953125e+00 -5.405071735382080078e+00 3.445755839347839355e-01
-4.609609127044677734e+00 -5.404078483581542969e+00 2.666621208190917969e-01
-5.807383537292480469e+00 -5.473797321319580078e+00 2.368552982807159424e-01
-5.539073467254638672e+00 -5.612303256988525391e+00 1.596678793430328369e-01
-4.690423488616943359e+00 -5.109067916870117188e+00 7.384279370307922363e-02
-3.945382118225097656e+00 -4.622102737426757812e+00 7.424454204738140106e-03
-5.176163196563720703e+00 -4.827642440795898438e+00 2.085868597030639648e+00
-5.345519065856933594e+00 -5.376337528228759766e+00 2.148215055465698242e+00
-5.082060337066650391e+00 -5.506351470947265625e+00 2.044271230697631836e+00
-6.338677883148193359e+00 -6.860670566558837891e+00 2.177073478698730469e+00
-4.876636981964111328e+00 -5.682578086853027344e+00 1.673813223838806152e+00
-5.491087913513183594e+00 -5.499660015106201172e+00 4.385838806629180908e-01
-5.710464954376220703e+00 -6.150504589080810547e+00 3.943236172199249268e-01
-5.625698089599609375e+00 -5.630548477172851562e+00 1.611659675836563110e-01
-4.724406719207763672e+00 -5.083121776580810547e+00 7.388538122177124023e-02
-3.820659399032592773e+00 -4.420765399932861328e+00 7.138569839298725128e-03
-5.149250030517578125e+00 -4.743797302246093750e+00 2.063254356384277344e+00
-7.018548488616943359e+00 -6.972913742065429688e+00 2.803311586380004883e+00
-6.494310379028320312e+00 -6.950449943542480469e+00 2.595148086547851562e+00
-6.391299247741699219e+00 -6.833028316497802734e+00 2.180705308914184570e+00
-4.915893554687500000e+00 -5.657705307006835938e+00 1.675340175628662109e+00
-6.461162090301513672e+00 -6.898059844970703125e+00 1.840599179267883301e+00
-7.250760555267333984e+00 -6.682174205780029297e+00 1.742181301116943359e+00
-7.582292079925537109e+00 -6.985260963439941406e+00 1.436058521270751953e+00
-5.526858806610107422e+00 -5.467970371246337891e+00 4.387529194355010986e-01
-5.165214061737060547e+00 -5.495226383209228516e+00 3.543374538421630859e-01
-4.861075401306152344e+00 -5.559243679046630859e+00 2.772415876388549805e-01
-5.687868595123291016e+00 -5.623337268829345703e+00 1.619554907083511353e-01
-4.776749134063720703e+00 -5.076613426208496094e+00 7.421541213989257812e-02
-4.063047409057617188e+00 -4.643327236175537109e+00 7.538075093179941177e-03
-7.381805896759033203e+00 -6.717294692993164062e+00 2.941247224807739258e+00
-5.143282413482666016e+00 -5.437264919281005859e+00 2.041902542114257812e+00
-5.639323711395263672e+00 -5.133470535278320312e+00 1.936734199523925781e+00
-6.474622726440429688e+00 -6.837527275085449219e+00 2.194778680801391602e+00
-4.954383373260498047e+00 -5.631832122802734375e+00 1.676648974418640137e+00
-7.142061710357666016e+00 -6.999290943145751953e+00 2.045421600341796875e+00
-7.301820278167724609e+00 -6.646839141845703125e+00 1.744617104530334473e+00
-5.626712799072265625e+00 -5.498853206634521484e+00 4.439929425716400146e-01
-5.582377910614013672e+00 -5.866493701934814453e+00 3.804786503314971924e-01
-4.764603137969970703e+00 -5.381913185119628906e+00 2.698509693145751953e-01
-5.734425544738769531e+00 -5.600206375122070312e+00 1.622996479272842407e-01
-4.827120304107666016e+00 -5.067481040954589844e+00 7.451350986957550049e-02
-4.106713771820068359e+00 -4.635525703430175781e+00 7.566175423562526703e-03
-7.711095809936523438e+00 -6.930926322937011719e+00 3.055448532104492188e+00
-7.174050331115722656e+00 -6.954566955566406250e+00 2.831118345260620117e+00
-5.178549766540527344e+00 -5.407693862915039062e+00 2.042692184448242188e+00
-7.140526771545410156e+00 -6.912405490875244141e+00 2.032796859741210938e+00
-7.384938240051269531e+00 -6.640098571777343750e+00 1.754708647727966309e+00
-5.699854373931884766e+00 -5.502363204956054688e+00 4.470918774604797363e-01
-5.635593891143798828e+00 -5.850114822387695312e+00 3.816519379615783691e-01
-5.689945697784423828e+00 -6.348232269287109375e+00 3.200470805168151855e-01
-5.730543613433837891e+00 -5.528125762939453125e+00 1.612266898155212402e-01
-4.869228839874267578e+00 -5.049283504486083984e+00 7.468385249376296997e-02
-4.167796611785888672e+00 -4.646716594696044922e+00 7.626039907336235046e-03
-7.610731601715087891e+00 -6.756752490997314453e+00 2.999195814132690430e+00
-7.695528507232666016e+00 -6.834436893463134766e+00 2.613901853561401367e+00
-7.008437156677246094e+00 -6.706409454345703125e+00 2.359276771545410156e+00
-7.600844860076904297e+00 -6.752721309661865234e+00 2.183372735977172852e+00
-7.218918800354003906e+00 -6.902994632720947266e+00 2.043016910552978516e+00
-5.755908489227294922e+00 -5.488645553588867188e+00 4.488385617733001709e-01
-5.368705749511718750e+00 -5.505060195922851562e+00 3.612834215164184570e-01
-5.033761024475097656e+00 -5.547268390655517578e+00 2.812182605266571045e-01
-5.790412425994873047e+00 -5.517689228057861328e+00 1.619554907083511353e-01
-4.865192890167236328e+00 -4.983535766601562500e+00 7.415153086185455322e-02
-4.196229934692382812e+00 -4.621056079864501953e+00 7.626039907336235046e-03
-7.400344371795654297e+00 -6.489213943481445312e+00 2.900541782379150391e+00
-5.291823387145996094e+00 -5.391935825347900391e+00 2.061116218566894531e+00
-5.016026496887207031e+00 -5.504212856292724609e+00 1.957835674285888672e+00
-7.694329738616943359e+00 -6.749379634857177734e+00 2.599378824234008789e+00
-7.192052841186523438e+00 -6.793314456939697266e+00 2.023578643798828125e+00
-5.772226333618164062e+00 -5.846624851226806641e+00 3.860166370868682861e-01
-4.968323707580566406e+00 -5.408100605010986328e+00 2.757034301757812500e-01
-5.901329517364501953e+00 -5.554693222045898438e+00 1.641013920307159424e-01
-5.096708297729492188e+00 -5.156996250152587891e+00 7.719638198614120483e-02
-4.261728763580322266e+00 -4.635711669921875000e+00 7.693235296756029129e-03
-7.547333240509033203e+00 -6.536624431610107422e+00 2.942377805709838867e+00
-7.236167907714843750e+00 -6.760908126831054688e+00 2.806037664413452148e+00
-5.345207214355468750e+00 -5.379895687103271484e+00 2.069012165069580078e+00
-5.087742328643798828e+00 -5.514559268951416016e+00 1.972583055496215820e+00
-8.002242088317871094e+00 -6.933058738708496094e+00 2.688978672027587891e+00
-7.683045387268066406e+00 -6.656509399414062500e+00 1.796118855476379395e+00
-5.546720504760742188e+00 -5.549686431884765625e+00 3.686517477035522461e-01
-5.690818309783935547e+00 -6.118760585784912109e+00 3.137069046497344971e-01
-6.931840419769287109e+00 -6.444916725158691406e+00 1.916540712118148804e-01
-5.178469657897949219e+00 -5.175815582275390625e+00 7.795226573944091797e-02
-4.302356243133544922e+00 -4.622651100158691406e+00 7.715226616710424423e-03
-7.606980323791503906e+00 -6.507027149200439453e+00 2.950010061264038086e+00
-7.378622531890869141e+00 -6.809690952301025391e+00 2.845021963119506836e+00
-5.130725383758544922e+00 -5.493132591247558594e+00 1.976142764091491699e+00
-6.978447437286376953e+00 -6.930805206298828125e+00 2.292385101318359375e+00
-7.737222671508789062e+00 -6.623115062713623047e+00 2.187152147293090820e+00
-7.429698467254638672e+00 -6.357625484466552734e+00 1.727739930152893066e+00
-5.572143077850341797e+00 -5.507121562957763672e+00 3.680885732173919678e-01
-5.179542541503906250e+00 -5.500963687896728516e+00 2.836567759513854980e-01
-6.592022895812988281e+00 -6.053982734680175781e+00 1.812282055616378784e-01
-5.156762599945068359e+00 -5.091253280639648438e+00 7.715379446744918823e-02
-4.425275325775146484e+00 -4.696603775024414062e+00 7.883825339376926422e-03
-5.716754436492919922e+00 -4.829696178436279297e+00 2.205440759658813477e+00
-5.161337375640869141e+00 -4.705056190490722656e+00 1.978920459747314453e+00
-5.162340641021728516e+00 -5.459439754486083984e+00 1.975380063056945801e+00
-6.878325939178466797e+00 -6.748038291931152344e+00 2.245851755142211914e+00
-7.535805225372314453e+00 -6.370997428894042969e+00 2.119124889373779297e+00
-5.690885066986083984e+00 -5.555865764617919922e+00 3.736734688282012939e-01
-5.674464225769042969e+00 -5.952985286712646484e+00 3.087548315525054932e-01
-6.840831279754638672e+00 -6.205538749694824219e+00 1.870181262493133545e-01
-5.033992767333984375e+00 -4.909413337707519531e+00 7.486484199762344360e-02
-4.482999324798583984e+00 -4.699753761291503906e+00 7.935137487947940826e-03
-7.315055370330810547e+00 -6.103466510772705078e+00 2.807541131973266602e+00
-7.308624267578125000e+00 -6.580859184265136719e+00 2.786681890487670898e+00
-7.118357658386230469e+00 -6.905550479888916016e+00 2.705692052841186523e+00
-5.201760768890380859e+00 -5.433948993682861328e+00 1.977668404579162598e+00
-5.706892490386962891e+00 -5.503507614135742188e+00 3.725001811981201172e-01
-5.542263984680175781e+00 -5.743318080902099609e+00 2.996385097503662109e-01
-6.845271110534667969e+00 -6.133424282073974609e+00 1.861071139574050903e-01
-5.075543880462646484e+00 -4.889533042907714844e+00 7.503517717123031616e-02
-4.377684593200683594e+00 -4.533324241638183594e+00 7.699344307184219360e-03
-7.219859600067138672e+00 -5.949278354644775391e+00 2.756942033767700195e+00
-7.362525463104248047e+00 -6.548038959503173828e+00 2.791861534118652344e+00
-7.155719757080078125e+00 -6.857070446014404297e+00 2.703849554061889648e+00
-5.251158237457275391e+00 -5.418597698211669922e+00 1.983770728111267090e+00
-7.706640720367431641e+00 -6.849269390106201172e+00 2.507691383361816406e+00
-5.803477764129638672e+00 -5.528327941894531250e+00 3.765832781791687012e-01
-5.430754661560058594e+00 -5.559092998504638672e+00 2.917601764202117920e-01
-7.168778419494628906e+00 -6.344421386718750000e+00 1.938404887914657593e-01
-5.117040157318115234e+00 -4.869327068328857422e+00 7.520551979541778564e-02
-4.329920768737792969e+00 -4.429150104522705078e+00 7.567396853119134903e-03
-5.610654354095458984e+00 -4.928646564483642578e+00 2.116046428680419922e+00
-5.304626464843750000e+00 -5.406986236572265625e+00 1.991398572921752930e+00
-7.634622573852539062e+00 -6.215006351470947266e+00 2.500179052352905273e+00
-7.894569396972656250e+00 -6.930058002471923828e+00 2.554957389831542969e+00
-8.389945983886718750e+00 -6.829880714416503906e+00 1.911475300788879395e+00
-7.373031616210937500e+00 -6.959543228149414062e+00 1.591331958770751953e+00
-5.780969619750976562e+00 -5.845396995544433594e+00 3.086422681808471680e-01
-7.451462268829345703e+00 -6.513505458831787109e+00 2.003996819257736206e-01
-5.117677211761474609e+00 -4.810443401336669922e+00 7.477966696023941040e-02
-4.461122989654541016e+00 -4.507692813873291016e+00 7.748213130980730057e-03
-8.668839454650878906e+00 -6.966423511505126953e+00 3.277349233627319336e+00
-5.414053916931152344e+00 -4.697403907775878906e+00 2.030990123748779297e+00
-7.431004047393798828e+00 -6.947959423065185547e+00 2.775439739227294922e+00
-5.372460842132568359e+00 -5.409332275390625000e+00 2.004366159439086914e+00
-7.495849609375000000e+00 -6.025942802429199219e+00 2.442579269409179688e+00
-7.421923637390136719e+00 -6.932188987731933594e+00 2.367065191268920898e+00
-7.654081821441650391e+00 -6.631562232971191406e+00 2.071472883224487305e+00
-5.572802543640136719e+00 -5.566180229187011719e+00 2.956993281841278076e-01
-8.054327011108398438e+00 -6.953765392303466797e+00 2.154615521430969238e-01
-5.535474777221679688e+00 -5.139550209045410156e+00 8.042220771312713623e-02
-4.371207237243652344e+00 -4.362965583801269531e+00 7.545405533164739609e-03
-7.286818027496337891e+00 -5.782582283020019531e+00 2.741394996643066406e+00
-7.718512058258056641e+00 -6.614250659942626953e+00 2.880189418792724609e+00
-7.506097793579101562e+00 -6.932342529296875000e+00 2.787547111511230469e+00
-8.130864143371582031e+00 -6.454702854156494141e+00 2.636548042297363281e+00
-7.130758285522460938e+00 -6.578778266906738281e+00 2.261287212371826172e+00
-7.007908344268798828e+00 -6.957787990570068359e+00 2.207391500473022461e+00
-7.495879650115966797e+00 -6.414398670196533203e+00 2.017967700958251953e+00
-5.579108715057373047e+00 -5.504509925842285156e+00 2.942362129688262939e-01
-7.193052291870117188e+00 -6.133547306060791016e+00 1.914111673831939697e-01
-5.559536457061767578e+00 -5.098729610443115234e+00 8.031574636697769165e-02
-4.515390872955322266e+00 -4.451906204223632812e+00 7.746991235762834549e-03
-7.837083339691162109e+00 -6.141263008117675781e+00 2.934180021286010742e+00
-7.679636001586914062e+00 -6.499638080596923828e+00 2.850746870040893555e+00
-7.514281272888183594e+00 -6.854946136474609375e+00 2.774913311004638672e+00
-8.171841621398925781e+00 -6.405887126922607422e+00 2.637040376663208008e+00
-8.199592590332031250e+00 -6.934790611267089844e+00 2.611912965774536133e+00
-7.074532508850097656e+00 -6.446999073028564453e+00 2.230870246887207031e+00
-6.972432613372802734e+00 -6.838123798370361328e+00 2.182959556579589844e+00
-5.699370861053466797e+00 -5.554565906524658203e+00 2.987756133079528809e-01
-7.203021049499511719e+00 -6.066111087799072266e+00 1.906823515892028809e-01
-5.621101856231689453e+00 -5.092045783996582031e+00 8.075224608182907104e-02
-4.525429248809814453e+00 -4.407371520996093750e+00 7.717669941484928131e-03
-7.851100921630859375e+00 -6.074863433837890625e+00 2.925417423248291016e+00
-7.515628814697265625e+00 -6.282091140747070312e+00 2.775504827499389648e+00
-7.341189861297607422e+00 -6.614968776702880859e+00 2.695953369140625000e+00
-5.734786033630371094e+00 -5.520876884460449219e+00 2.988506555557250977e-01
-7.599843502044677734e+00 -6.321003437042236328e+00 2.001567482948303223e-01
-5.658201694488525391e+00 -5.062793254852294922e+00 8.083741366863250732e-02
-4.785159111022949219e+00 -4.603454113006591797e+00 8.112289011478424072e-03
-7.888227939605712891e+00 -6.026575565338134766e+00 2.925417423248291016e+00
-7.408305168151855469e+00 -6.593531608581542969e+00 2.705692052841186523e+00
-8.045766830444335938e+00 -6.149158954620361328e+00 2.571809768676757812e+00
-7.443518638610839844e+00 -6.617890834808349609e+00 2.321439743041992188e+00
-5.757690906524658203e+00 -5.475255489349365234e+00 2.982879281044006348e-01
-7.203523635864257812e+00 -5.916975498199462891e+00 1.887591332197189331e-01
-5.698900222778320312e+00 -5.036588191986083984e+00 8.097581565380096436e-02
-4.861883163452148438e+00 -4.620159626007080078e+00 8.194144815206527710e-03
-7.823975086212158203e+00 -5.901811599731445312e+00 2.888103961944580078e+00
-8.329668045043945312e+00 -6.790637493133544922e+00 3.045121908187866211e+00
-7.634838104248046875e+00 -6.711649894714355469e+00 2.773334264755249023e+00
-8.226474761962890625e+00 -6.207680225372314453e+00 2.617347955703735352e+00
-7.210965156555175781e+00 -5.849359989166259766e+00 1.880100965499877930e-01
-5.737983226776123047e+00 -5.008759498596191406e+00 8.109293133020401001e-02
-4.882120132446289062e+00 -4.582712173461914062e+00 8.180704899132251740e-03
-7.826190471649169922e+00 -5.828484058380126953e+00 2.875666141510009766e+00
-7.867558479309082031e+00 -6.333950042724609375e+00 2.861923933029174805e+00
-7.639452934265136719e+00 -6.633051872253417969e+00 2.760174274444580078e+00
-7.483463287353515625e+00 -6.999609947204589844e+00 2.693931102752685547e+00
-7.533025741577148438e+00 -5.612196445465087891e+00 2.385717868804931641e+00
-8.025928497314453125e+00 -6.961246967315673828e+00 2.476248025894165039e+00
-7.585000991821289062e+00 -6.569537639617919922e+00 1.954143285751342773e+00
-7.006385326385498047e+00 -5.612483024597167969e+00 1.817747950553894043e-01
-5.787541389465332031e+00 -4.989780426025390625e+00 8.135908097028732300e-02
-4.840484619140625000e+00 -4.488078594207763672e+00 8.064641617238521576e-03
-7.448352336883544922e+00 -5.476363658905029297e+00 2.724434375762939453e+00
-7.529713630676269531e+00 -5.986186981201171875e+00 2.725615978240966797e+00
-7.672725200653076172e+00 -5.643396377563476562e+00 2.418948650360107422e+00
-7.954254150390625000e+00 -6.319169998168945312e+00 2.470824241638183594e+00
-7.772644042968750000e+00 -6.658432483673095703e+00 2.385451555252075195e+00
-7.608013153076171875e+00 -6.508197784423828125e+00 1.949746847152709961e+00
-7.044611930847167969e+00 -5.572488307952880859e+00 1.818760186433792114e-01
-5.834037303924560547e+00 -4.967789173126220703e+00 8.158265799283981323e-02
-4.528702735900878906e+00 -4.147611141204833984e+00 7.502645254135131836e-03
-8.376092910766601562e+00 -6.079656600952148438e+00 3.050077676773071289e+00
-7.668468475341796875e+00 -6.020077228546142578e+00 2.762419223785400391e+00
-7.522980690002441406e+00 -6.371702671051025391e+00 2.689636945724487305e+00
-7.668777942657470703e+00 -5.568306922912597656e+00 2.406887054443359375e+00
-7.889670372009277344e+00 -6.189280033111572266e+00 2.438919782638549805e+00
-7.369458198547363281e+00 -6.713556766510009766e+00 2.228333234786987305e+00
-7.700287818908691406e+00 -6.505736351013183594e+00 1.963127374649047852e+00
-7.349772930145263672e+00 -6.683896541595458984e+00 1.837657928466796875e+00
-7.904411315917968750e+00 -6.174145221710205078e+00 2.030922025442123413e-01
-5.953948020935058594e+00 -5.007199764251708984e+00 8.282827585935592651e-02
-4.758002758026123047e+00 -4.304231643676757812e+00 7.838620804250240326e-03
-6.270553112030029297e+00 -4.492897033691406250e+00 2.273283004760742188e+00
-7.833772182464599609e+00 -6.072528362274169922e+00 2.808491230010986328e+00
-7.574514389038085938e+00 -6.335944652557373047e+00 2.694111108779907227e+00
-7.992698669433593750e+00 -5.728938579559326172e+00 2.497471570968627930e+00
-8.368426322937011719e+00 -6.482302665710449219e+00 2.574572563171386719e+00
-7.187799453735351562e+00 -6.467807292938232422e+00 2.161363363265991211e+00
-7.725741863250732422e+00 -6.446417331695556641e+00 1.959495544433593750e+00
-8.147192955017089844e+00 -6.301836490631103516e+00 1.716236829757690430e+00
-7.482961654663085938e+00 -6.712162494659423828e+00 1.482595205307006836e+00
