-5.702320098876953125e+00 -4.812493324279785156e+00 9.664535522460937500e-01
-6.561139583587646484e+00 -6.407850265502929688e+00 1.014119148254394531e+00
-6.633217811584472656e+00 -5.194158554077148438e+00 8.631982803344726562e-01
-5.618878364562988281e+00 -4.738715171813964844e+00 6.831626296043395996e-01
-6.262432575225830078e+00 -5.682972431182861328e+00 7.056624293327331543e-01
-5.126017570495605469e+00 -5.001015663146972656e+00 5.296732783317565918e-01
-6.606609821319580078e+00 -5.169603824615478516e+00 5.527724027633666992e-01
-6.335109233856201172e+00 -5.338969707489013672e+00 4.675448536872863770e-01
-6.466470241546630859e+00 -5.864015579223632812e+00 4.101397395133972168e-01
-6.054329395294189453e+00 -5.900505542755126953e+00 3.173834383487701416e-01
-7.587190628051757812e+00 -6.873086929321289062e+00 1.089969053864479065e-01
-5.520493507385253906e+00 -5.376477241516113281e+00 9.414653293788433075e-03
-6.990051746368408203e+00 -5.408618450164794922e+00 2.604579687118530273e+00
-5.912255764007568359e+00 -4.941878795623779297e+00 2.183382511138916016e+00
-7.350507259368896484e+00 -6.623364448547363281e+00 2.699375152587890625e+00
-6.904961109161376953e+00 -5.344705581665039062e+00 2.217595100402832031e+00
-5.838448047637939453e+00 -4.876724720001220703e+00 1.850223064422607422e+00
-6.789716243743896484e+00 -5.257396697998046875e+00 1.844077467918395996e+00
-5.782436847686767578e+00 -4.826513767242431641e+00 1.540629148483276367e+00
-6.783441543579101562e+00 -5.250644683837890625e+00 1.515643835067749023e+00
-5.705421447753906250e+00 -4.758852005004882812e+00 1.237952113151550293e+00
-6.762461185455322266e+00 -5.232518196105957031e+00 1.191035985946655273e+00
-5.706602573394775391e+00 -4.756460666656494141e+00 9.622147083282470703e-01
-6.575297355651855469e+00 -6.343317985534667969e+00 1.010272383689880371e+00
-6.757040500640869141e+00 -5.224554061889648438e+00 8.751234412193298340e-01
-5.612655162811279297e+00 -4.674836158752441406e+00 6.789055466651916504e-01
-6.317962646484375000e+00 -5.663064002990722656e+00 7.079907655715942383e-01
-5.222671031951904297e+00 -5.033135414123535156e+00 5.364592671394348145e-01
-6.721903800964355469e+00 -5.193637847900390625e+00 5.597420930862426758e-01
-6.422234058380126953e+00 -5.345345973968505859e+00 4.715453088283538818e-01
-6.280599594116210938e+00 -5.625621318817138672e+00 3.961539566516876221e-01
-6.052265167236328125e+00 -5.826514244079589844e+00 3.153951168060302734e-01
-5.551217079162597656e+00 -5.340423107147216797e+00 9.410988539457321167e-03
-7.118384361267089844e+00 -5.438417911529541016e+00 2.639914274215698242e+00
-6.078248023986816406e+00 -5.017596244812011719e+00 2.233271360397338867e+00
-7.403980731964111328e+00 -6.589683055877685547e+00 2.704112768173217773e+00
-7.026954174041748047e+00 -5.370508193969726562e+00 2.246148824691772461e+00
-6.011426448822021484e+00 -4.958907604217529297e+00 1.895362019538879395e+00
-7.005928039550781250e+00 -5.356375694274902344e+00 1.893838047981262207e+00
-6.074266910552978516e+00 -5.007183551788330078e+00 1.610165953636169434e+00
-6.892989635467529297e+00 -5.268122673034667969e+00 1.532868981361389160e+00
-5.924851894378662109e+00 -4.880544185638427734e+00 1.279041886329650879e+00
-6.905411243438720703e+00 -5.275707721710205078e+00 1.210488796234130859e+00
-5.782386302947998047e+00 -4.759802341461181641e+00 9.700501561164855957e-01
-6.572361946105957031e+00 -6.263083457946777344e+00 1.003897786140441895e+00
-6.881482601165771484e+00 -5.253623008728027344e+00 8.870485424995422363e-01
-5.881155014038085938e+00 -4.837661743164062500e+00 7.077794075012207031e-01
-6.359307289123535156e+00 -5.630136489868164062e+00 7.087392210960388184e-01
-6.141912460327148438e+00 -5.846756458282470703e+00 6.271845102310180664e-01
-6.898031711578369141e+00 -5.262446880340576172e+00 5.717088580131530762e-01
-6.403234958648681641e+00 -5.263361930847167969e+00 4.677702188491821289e-01
-6.303029537200927734e+00 -5.576387882232666016e+00 3.954030573368072510e-01
-6.157420158386230469e+00 -5.855376243591308594e+00 3.189966380596160889e-01
-8.002936363220214844e+00 -6.103159427642822266e+00 2.987094223499298096e-01
-5.548360824584960938e+00 -5.272506713867187500e+00 9.351123124361038208e-03
-6.461645126342773438e+00 -5.267759323120117188e+00 2.362218618392944336e+00
-7.479779720306396484e+00 -6.575340270996093750e+00 2.717009782791137695e+00
-7.199810028076171875e+00 -5.432960987091064453e+00 2.290702819824218750e+00
-6.383000850677490234e+00 -5.199938297271728516e+00 2.002419233322143555e+00
-7.115135192871093750e+00 -5.371014595031738281e+00 1.914414048194885254e+00
-6.367001533508300781e+00 -5.183207511901855469e+00 1.679301738739013672e+00
-7.102833747863769531e+00 -5.359782695770263672e+00 1.572191119194030762e+00
-6.158226490020751953e+00 -5.009676456451416016e+00 1.322761297225952148e+00
-7.057839870452880859e+00 -5.323897838592529297e+00 1.231459259986877441e+00
-6.035416126251220703e+00 -4.906270980834960938e+00 1.007428884506225586e+00
-6.839681625366210938e+00 -5.985185146331787109e+00 1.091801762580871582e+00
-6.571585655212402344e+00 -6.185850620269775391e+00 9.979628324508666992e-01
-7.096299171447753906e+00 -5.349022865295410156e+00 9.104912281036376953e-01
-6.021245002746582031e+00 -4.891261100769042969e+00 7.210132479667663574e-01
-6.468750476837158203e+00 -5.656609535217285156e+00 7.170547842979431152e-01
-6.333875656127929688e+00 -5.955841541290283203e+00 6.430430412292480469e-01
-7.014676570892333984e+00 -5.283658981323242188e+00 5.786784887313842773e-01
-6.428433418273925781e+00 -5.218310356140136719e+00 4.672631323337554932e-01
-6.376240253448486328e+00 -5.571787357330322266e+00 3.978435099124908447e-01
-6.274808406829833984e+00 -5.894112110137939453e+00 3.231984078884124756e-01
-8.029853820800781250e+00 -6.046123504638671875e+00 2.983237802982330322e-01
-5.587170124053955078e+00 -5.244523048400878906e+00 9.362119249999523163e-03
-6.585277080535888672e+00 -5.301621437072753906e+00 2.395478010177612305e+00
-7.536010265350341797e+00 -6.543236255645751953e+00 2.722800016403198242e+00
-7.390790462493896484e+00 -5.506229877471923828e+00 2.340671777725219727e+00
-6.506394386291503906e+00 -5.234372615814208984e+00 2.031015157699584961e+00
-7.267900466918945312e+00 -5.416647434234619141e+00 1.946538090705871582e+00
-6.517801284790039062e+00 -5.239803314208984375e+00 1.710563182830810547e+00
-7.214555740356445312e+00 -5.374932289123535156e+00 1.589590430259704590e+00
-6.515671253204345703e+00 -5.234347343444824219e+00 1.392614006996154785e+00
-7.169808864593505859e+00 -5.339649677276611328e+00 1.245255470275878906e+00
-6.533285140991210938e+00 -5.244746208190917969e+00 1.085140824317932129e+00
-6.880784988403320312e+00 -5.947000980377197266e+00 1.092517375946044922e+00
-6.593403816223144531e+00 -6.130521297454833984e+00 9.955447912216186523e-01
-7.264655113220214844e+00 -5.406344413757324219e+00 9.278183579444885254e-01
-6.224343776702880859e+00 -4.993164539337158203e+00 7.416505813598632812e-01
-6.549342155456542969e+00 -5.656545162200927734e+00 7.221273183822631836e-01
-6.349110126495361328e+00 -5.897182941436767578e+00 6.409039497375488281e-01
-7.183884143829345703e+00 -5.342339038848876953e+00 5.899219512939453125e-01
-6.468900680541992188e+00 -5.185637474060058594e+00 4.678829610347747803e-01
-6.430726051330566406e+00 -5.550180435180664062e+00 3.991107046604156494e-01
-6.180463314056396484e+00 -5.734515190124511719e+00 3.165206015110015869e-01
-5.585513114929199219e+00 -5.178866386413574219e+00 9.305919520556926727e-03
-6.682451725006103516e+00 -5.312606334686279297e+00 2.418922662734985352e+00
-7.574346542358398438e+00 -5.571037292480468750e+00 2.387933254241943359e+00
-6.561974048614501953e+00 -5.213088035583496094e+00 2.038341283798217773e+00
-7.482913970947265625e+00 -5.505800247192382812e+00 1.995038747787475586e+00
-6.542923927307128906e+00 -5.194229602813720703e+00 1.708759665489196777e+00
-5.672444820404052734e+00 -4.852435588836669922e+00 1.453708291053771973e+00
-7.396535873413085938e+00 -5.440255165100097656e+00 1.622300863265991211e+00
-6.355246067047119141e+00 -5.041622638702392578e+00 1.351688504219055176e+00
-7.340485572814941406e+00 -5.397055625915527344e+00 1.269123077392578125e+00
-6.423902988433837891e+00 -5.092435359954833984e+00 1.061763048171997070e+00
-6.613326549530029297e+00 -6.073813915252685547e+00 9.929069876670837402e-01
-7.452414989471435547e+00 -5.475344657897949219e+00 9.474897980690002441e-01
-6.350864887237548828e+00 -5.030926704406738281e+00 7.530335783958435059e-01
-6.375622272491455078e+00 -5.849350452423095703e+00 6.399450898170471191e-01
-7.276050090789794922e+00 -5.341857910156250000e+00 5.947875976562500000e-01
-6.462238311767578125e+00 -5.115482807159423828e+00 4.651220440864562988e-01
-6.309580802917480469e+00 -5.378424644470214844e+00 3.895365297794342041e-01
-6.116078376770019531e+00 -5.605335235595703125e+00 3.114559650421142578e-01
-7.770635604858398438e+00 -5.702880859375000000e+00 2.860715985298156738e-01
-5.549338817596435547e+00 -5.082360267639160156e+00 9.193520061671733856e-03
-6.818602561950683594e+00 -5.352896213531494141e+00 2.456271171569824219e+00
-5.749532699584960938e+00 -4.869654178619384766e+00 2.055588960647583008e+00
-7.754264831542968750e+00 -5.630379199981689453e+00 2.433717727661132812e+00
-6.691693782806396484e+00 -5.249493122100830078e+00 2.068591356277465820e+00
-5.701093196868896484e+00 -4.823503017425537109e+00 1.740569114685058594e+00
-7.589332580566406250e+00 -5.512644767761230469e+00 2.014355182647705078e+00
-6.644836425781250000e+00 -5.208988189697265625e+00 1.726995468139648438e+00
-5.708110332489013672e+00 -4.822606563568115234e+00 1.455237507820129395e+00
-7.526992321014404297e+00 -5.465356349945068359e+00 1.643527746200561523e+00
-6.648523807525634766e+00 -5.208133220672607422e+00 1.407241821289062500e+00
-5.714912891387939453e+00 -4.826644897460937500e+00 1.174078345298767090e+00
-7.517742156982421875e+00 -5.456636428833007812e+00 1.293956518173217773e+00
-6.637761592864990234e+00 -5.195964813232421875e+00 1.091820120811462402e+00
-5.718968391418457031e+00 -4.821525573730468750e+00 8.985835909843444824e-01
-6.667401790618896484e+00 -6.048480510711669922e+00 9.954348802566528320e-01
-7.633236408233642578e+00 -5.536398887634277344e+00 9.661419391632080078e-01
-6.573760986328125000e+00 -5.142165660858154297e+00 7.757069468498229980e-01
-5.619884967803955078e+00 -4.734635353088378906e+00 6.131929159164428711e-01
-6.398830413818359375e+00 -5.798735618591308594e+00 6.386911869049072266e-01
-7.546226501464843750e+00 -5.469271183013916016e+00 6.141185164451599121e-01
-6.705891132354736328e+00 -5.241749286651611328e+00 4.803350269794464111e-01
-6.358510494232177734e+00 -5.353118419647216797e+00 3.905220925807952881e-01
-6.274075984954833984e+00 -5.679700851440429688e+00 3.177211284637451172e-01
-7.762580394744873047e+00 -5.624011993408203125e+00 2.844992876052856445e-01
-5.729477405548095703e+00 -5.183056831359863281e+00 9.439087472856044769e-03
-6.959297657012939453e+00 -5.394659519195556641e+00 2.494982719421386719e+00
-5.869582653045654297e+00 -4.909800052642822266e+00 2.087699174880981445e+00
-7.764046669006347656e+00 -6.998604297637939453e+00 2.748089551925659180e+00
-7.876108646392822266e+00 -5.645370006561279297e+00 2.461040735244750977e+00
-6.888934612274169922e+00 -5.336266994476318359e+00 2.119402170181274414e+00
-5.824746608734130859e+00 -4.867114067077636719e+00 1.769170045852661133e+00
-7.798612594604492188e+00 -5.591883659362792969e+00 2.060756206512451172e+00
-6.818449974060058594e+00 -5.277861595153808594e+00 1.763667702674865723e+00
-5.793364524841308594e+00 -4.834026813507080078e+00 1.469382643699645996e+00
-7.735669136047363281e+00 -5.544707298278808594e+00 1.681632161140441895e+00
-6.787247180938720703e+00 -5.249921321868896484e+00 1.429759025573730469e+00
-5.772490501403808594e+00 -4.814900875091552734e+00 1.179815411567687988e+00
-7.688754558563232422e+00 -5.509048938751220703e+00 1.317548155784606934e+00
-6.768384456634521484e+00 -5.231555938720703125e+00 1.108004808425903320e+00
-5.688168048858642578e+00 -4.736155509948730469e+00 8.891612291336059570e-01
-6.690324306488037109e+00 -5.994853496551513672e+00 9.933466315269470215e-01
-7.751993179321289062e+00 -5.550265789031982422e+00 9.768440723419189453e-01
-6.669806957244873047e+00 -5.151643276214599609e+00 7.832956314086914062e-01
-5.664151191711425781e+00 -4.712810993194580078e+00 6.148560047149658203e-01
-6.425373077392578125e+00 -5.751382350921630859e+00 6.378059983253479004e-01
-7.638884544372558594e+00 -5.465250015258789062e+00 6.189183592796325684e-01
-6.695247650146484375e+00 -5.167562484741210938e+00 4.772924184799194336e-01
-6.382788181304931641e+00 -5.306978225708007812e+00 3.900058567523956299e-01
-6.433955192565917969e+00 -5.752998828887939453e+00 3.240237236022949219e-01
-7.813203334808349609e+00 -5.587905406951904297e+00 2.850926220417022705e-01
-5.689586639404296875e+00 -5.083839893341064453e+00 9.321802295744419098e-03
-7.109161853790283203e+00 -5.441326618194580078e+00 2.536692857742309570e+00
-6.063971996307373047e+00 -5.009482860565185547e+00 2.145866632461547852e+00
-7.793841838836669922e+00 -6.939257144927978516e+00 2.743512868881225586e+00
-8.098909378051757812e+00 -5.730170249938964844e+00 2.519625186920166016e+00
-7.028828620910644531e+00 -5.375949859619140625e+00 2.152251958847045898e+00
-5.983700275421142578e+00 -4.937901020050048828e+00 1.808212637901306152e+00
-8.065007209777832031e+00 -5.708296298980712891e+00 2.121854543685913086e+00
-6.958125114440917969e+00 -5.318024635314941406e+00 1.791321992874145508e+00
-6.013049125671386719e+00 -4.955068111419677734e+00 1.517361760139465332e+00
-7.925498485565185547e+00 -5.607478141784667969e+00 1.715386509895324707e+00
-6.911050796508789062e+00 -5.278225421905517578e+00 1.448989033699035645e+00
-5.907151699066162109e+00 -4.866072177886962891e+00 1.201213002204895020e+00
-7.785486221313476562e+00 -5.506377220153808594e+00 1.328309297561645508e+00
-6.891807079315185547e+00 -5.259720325469970703e+00 1.122905015945434570e+00
-5.858994960784912109e+00 -4.817826271057128906e+00 9.112262725830078125e-01
-6.627990722656250000e+00 -5.866077899932861328e+00 9.787289500236511230e-01
-7.875265121459960938e+00 -5.565751552581787109e+00 9.880557060241699219e-01
-6.934062957763671875e+00 -5.288140296936035156e+00 8.105036616325378418e-01
-5.900076389312744141e+00 -4.848156452178955078e+00 6.372250318527221680e-01
-6.439622402191162109e+00 -5.693353176116943359e+00 6.357407569885253906e-01
-7.877673625946044922e+00 -5.563331604003906250e+00 6.354877352714538574e-01
-6.845150470733642578e+00 -5.216554164886474609e+00 4.856877326965332031e-01
-6.396703243255615234e+00 -5.252500534057617188e+00 3.888794779777526855e-01
-6.514822959899902344e+00 -5.753764152526855469e+00 3.263121843338012695e-01
-7.875923156738281250e+00 -5.560035228729248047e+00 2.861309349536895752e-01
-5.278314590454101562e+00 -4.658425331115722656e+00 8.600980974733829498e-03
-7.292095184326171875e+00 -5.510717868804931641e+00 2.589853048324584961e+00
-6.333804130554199219e+00 -5.167335510253906250e+00 2.230090379714965820e+00
-7.812306880950927734e+00 -6.870228290557861328e+00 2.735121965408325195e+00
-8.353237152099609375e+00 -5.833532333374023438e+00 2.587563514709472656e+00
-7.142325401306152344e+00 -5.393619060516357422e+00 2.176830291748046875e+00
-6.356630325317382812e+00 -5.180416584014892578e+00 1.911266565322875977e+00
-8.179228782653808594e+00 -5.714136600494384766e+00 2.142640590667724609e+00
-7.079777240753173828e+00 -5.342505931854248047e+00 1.814167022705078125e+00
-6.378319740295410156e+00 -5.190686225891113281e+00 1.601468443870544434e+00
-8.091355323791503906e+00 -5.650646209716796875e+00 1.743747234344482422e+00
-7.048843860626220703e+00 -5.315302371978759766e+00 1.471013307571411133e+00
-6.116223812103271484e+00 -4.975618362426757812e+00 1.237495899200439453e+00
-8.033526420593261719e+00 -5.608174800872802734e+00 1.364731550216674805e+00
-7.076812267303466797e+00 -5.332518577575683594e+00 1.147695660591125488e+00
-5.986330032348632812e+00 -4.861273288726806641e+00 9.263736009597778320e-01
-6.422897338867187500e+00 -5.614658832550048828e+00 9.433385729789733887e-01
-8.027572631835937500e+00 -5.599851608276367188e+00 1.002834796905517578e+00
-7.145351886749267578e+00 -5.380255222320556641e+00 8.313261866569519043e-01
-6.052749156951904297e+00 -4.911704540252685547e+00 6.504468321800231934e-01
-6.454152584075927734e+00 -5.636021614074707031e+00 6.337491869926452637e-01
-8.044272422790527344e+00 -5.607327938079833984e+00 6.461395025253295898e-01
-6.941650867462158203e+00 -5.223077774047851562e+00 4.902516007423400879e-01
-6.515708923339843750e+00 -5.283617496490478516e+00 3.941358923912048340e-01
-6.650913715362548828e+00 -5.801706314086914062e+00 3.313393294811248779e-01
-8.052588462829589844e+00 -5.611036777496337891e+00 2.912928462028503418e-01
-5.279661655426025391e+00 -4.602294921875000000e+00 8.556998334825038910e-03
-7.448381423950195312e+00 -5.557352542877197266e+00 2.633198976516723633e+00
-6.584006786346435547e+00 -5.304505825042724609e+00 2.306681394577026367e+00
-7.832409858703613281e+00 -6.803136825561523438e+00 2.727494001388549805e+00
-8.625089645385742188e+00 -5.944983959197998047e+00 2.660424947738647461e+00
-7.311608791351318359e+00 -5.451332092285156250e+00 2.218188047409057617e+00
-6.535485744476318359e+00 -5.259773254394531250e+00 1.955302953720092773e+00
-7.912293434143066406e+00 -5.455714702606201172e+00 2.063905715942382812e+00
-7.250698089599609375e+00 -5.401981830596923828e+00 1.849436283111572266e+00
-6.509512901306152344e+00 -5.231386184692382812e+00 1.626318216323852539e+00
-5.592614173889160156e+00 -4.840578556060791016e+00 1.368193864822387695e+00
-7.872903823852539062e+00 -5.426527500152587891e+00 1.689461588859558105e+00
-7.241940498352050781e+00 -5.391527175903320312e+00 1.504378199577331543e+00
-6.514774799346923828e+00 -5.233744144439697266e+00 1.311612367630004883e+00
-7.925058364868164062e+00 -5.460435867309570312e+00 1.340587973594665527e+00
-7.290813446044921875e+00 -5.423958301544189453e+00 1.176982164382934570e+00
-6.485432147979736328e+00 -5.200865268707275391e+00 9.986515045166015625e-01
-6.429391384124755859e+00 -5.551109313964843750e+00 9.392719864845275879e-01
-8.060961723327636719e+00 -5.549925804138183594e+00 1.002732872962951660e+00
-7.192613601684570312e+00 -5.347003459930419922e+00 8.329919576644897461e-01
-6.456044197082519531e+00 -5.173596382141113281e+00 6.903616786003112793e-01
-6.354188919067382812e+00 -5.480375289916992188e+00 6.206198930740356445e-01
-7.926442623138427734e+00 -5.453232765197753906e+00 6.339754462242126465e-01
-7.122641086578369141e+00 -5.291126728057861328e+00 5.007316470146179199e-01
-6.497324466705322266e+00 -5.202953338623046875e+00 3.910852968692779541e-01
-6.868838787078857422e+00 -5.917982578277587891e+00 3.403806090354919434e-01
-8.268879890441894531e+00 -5.686697006225585938e+00 2.978491187095642090e-01
-5.535148620605468750e+00 -4.765550613403320312e+00 8.923517540097236633e-03
-6.645874023437500000e+00 -5.287432193756103516e+00 2.316946268081665039e+00
-7.807941913604736328e+00 -6.698275566101074219e+00 2.704610109329223633e+00
-7.475604057312011719e+00 -5.502558708190917969e+00 2.257654905319213867e+00
-6.588984489440917969e+00 -5.236539840698242188e+00 1.961658596992492676e+00
-7.975527286529541016e+00 -5.427414894104003906e+00 2.071674108505249023e+00
-7.484958648681640625e+00 -5.505416870117187500e+00 1.900536775588989258e+00
-6.558404445648193359e+00 -5.204770088195800781e+00 1.630523562431335449e+00
-5.693964481353759766e+00 -4.867510795593261719e+00 1.385655641555786133e+00
-7.886511802673339844e+00 -5.364825725555419922e+00 1.685285925865173340e+00
-7.410798072814941406e+00 -5.446884632110595703e+00 1.532483458518981934e+00
-6.532060623168945312e+00 -5.182005882263183594e+00 1.308666348457336426e+00
-7.932205677032470703e+00 -5.393884181976318359e+00 1.336173176765441895e+00
-7.482217788696289062e+00 -5.495356082916259766e+00 1.202415108680725098e+00
-6.455731391906738281e+00 -5.112279415130615234e+00 9.892292022705078125e-01
-7.981315135955810547e+00 -5.423205375671386719e+00 9.886673092842102051e-01
-7.381816864013671875e+00 -5.417650222778320312e+00 8.510380387306213379e-01
-6.479071140289306641e+00 -5.127083301544189453e+00 6.894469857215881348e-01
-7.944068908691406250e+00 -5.393844604492187500e+00 6.327261328697204590e-01
-7.437565326690673828e+00 -5.454571723937988281e+00 5.205085277557373047e-01
-6.548715114593505859e+00 -5.178478240966796875e+00 3.922586143016815186e-01
-7.745223045349121094e+00 -6.590681552886962891e+00 3.817980289459228516e-01
-7.822348594665527344e+00 -5.732566356658935547e+00 1.963710486888885498e-01
-6.798054695129394531e+00 -5.340721607208251953e+00 2.358531713485717773e+00
-5.740754604339599609e+00 -4.864047527313232422e+00 1.978176832199096680e+00
-7.637354373931884766e+00 -5.549690246582031250e+00 2.296176671981811523e+00
-6.659298419952392578e+00 -5.226074695587158203e+00 1.973008275032043457e+00
-5.707747459411621094e+00 -4.827531337738037109e+00 1.670977354049682617e+00
-8.424250602722167969e+00 -5.657460689544677734e+00 2.179173469543457031e+00
-7.591532707214355469e+00 -5.512345790863037109e+00 1.918972969055175781e+00
-6.646616458892822266e+00 -5.208628177642822266e+00 1.644477605819702148e+00
-5.733490943908691406e+00 -4.840728282928466797e+00 1.388020157814025879e+00
-8.095882415771484375e+00 -5.434889316558837891e+00 1.722868204116821289e+00
-7.554256439208984375e+00 -5.481252670288085938e+00 1.555165052413940430e+00
-6.650835037231445312e+00 -5.210060596466064453e+00 1.326032400131225586e+00
-5.705194473266601562e+00 -4.810019493103027344e+00 1.100601911544799805e+00
-7.991469860076904297e+00 -5.362771987915039062e+00 1.340587973594665527e+00
-7.585647583007812500e+00 -5.499988555908203125e+00 1.213590383529663086e+00
-6.648096561431884766e+00 -5.198559761047363281e+00 1.013798832893371582e+00
-5.703335285186767578e+00 -4.803345680236816406e+00 8.245282769203186035e-01
-8.020224571228027344e+00 -5.378009319305419922e+00 9.893807768821716309e-01
-7.581022262573242188e+00 -5.492598533630371094e+00 8.701022267341613770e-01
-6.599925994873046875e+00 -5.157180786132812500e+00 6.989268064498901367e-01
-5.676912784576416016e+00 -4.776013851165771484e+00 5.487034916877746582e-01
-7.461189270019531250e+00 -5.401806831359863281e+00 5.198323726654052734e-01
-6.714210033416748047e+00 -5.242708683013916016e+00 4.002370834350585938e-01
-7.755681514739990234e+00 -6.517960071563720703e+00 3.803349137306213379e-01
-7.853325366973876953e+00 -5.681530952453613281e+00 1.962698251008987427e-01
-5.879611968994140625e+00 -4.937789440155029297e+00 9.380444884300231934e-03
-6.927505016326904297e+00 -5.374007701873779297e+00 2.391957998275756836e+00
-5.801643371582031250e+00 -4.854799270629882812e+00 1.988856077194213867e+00
-7.879703521728515625e+00 -5.652241706848144531e+00 2.358567714691162109e+00
-6.858289718627929688e+00 -5.314564228057861328e+00 2.022265434265136719e+00
-5.775459766387939453e+00 -4.824326038360595703e+00 1.682102680206298828e+00
-8.632398605346679688e+00 -5.720704555511474609e+00 2.223895072937011719e+00
-7.778895378112792969e+00 -5.575819015502929688e+00 1.957648992538452148e+00
-6.793342113494873047e+00 -5.256649017333984375e+00 1.672767996788024902e+00
-5.859753131866455078e+00 -4.886062145233154297e+00 1.411302328109741211e+00
-7.717657089233398438e+00 -5.527846813201904297e+00 1.581791162490844727e+00
-6.767072200775146484e+00 -5.234433650970458984e+00 1.342778444290161133e+00
-5.700388908386230469e+00 -4.746436119079589844e+00 1.094035983085632324e+00
-8.257924079895019531e+00 -5.468391895294189453e+00 1.379631519317626953e+00
-7.757959842681884766e+00 -5.552617549896240234e+00 1.235683679580688477e+00
-6.774173736572265625e+00 -5.230484962463378906e+00 1.028111338615417480e+00
-5.669275760650634766e+00 -4.715505123138427734e+00 8.154059052467346191e-01
-8.294489860534667969e+00 -5.488441944122314453e+00 1.019040703773498535e+00
-7.753882408142089844e+00 -5.545607089996337891e+00 8.860198855400085449e-01
-6.707977294921875000e+00 -5.175636768341064453e+00 7.069929838180541992e-01
-5.703810214996337891e+00 -4.739179134368896484e+00 5.484821796417236328e-01
-7.760625362396240234e+00 -5.546336174011230469e+00 5.383132696151733398e-01
-6.795298099517822266e+00 -5.239227294921875000e+00 4.031468331813812256e-01
-7.797835826873779297e+00 -6.472164154052734375e+00 3.804474771022796631e-01
-7.958823680877685547e+00 -5.683787822723388672e+00 1.980310827493667603e-01
-5.797421932220458984e+00 -4.808413982391357422e+00 9.202072396874427795e-03
-7.091315269470214844e+00 -5.431716442108154297e+00 2.436965227127075195e+00
-6.066901683807373047e+00 -5.013796329498291016e+00 2.069203615188598633e+00
-8.120419502258300781e+00 -5.749776840209960938e+00 2.420013427734375000e+00
-6.999054908752441406e+00 -5.355235576629638672e+00 2.054044246673583984e+00
-6.030044078826904297e+00 -4.974486827850341797e+00 1.747327446937561035e+00
-9.213137626647949219e+00 -6.024531841278076172e+00 2.363938331604003906e+00
-8.023302078247070312e+00 -5.676807880401611328e+00 2.010352611541748047e+00
-6.968981742858886719e+00 -5.324515819549560547e+00 1.707939982414245605e+00
-6.027015209197998047e+00 -4.963155269622802734e+00 1.444224953651428223e+00
-8.795010566711425781e+00 -5.748924255371093750e+00 1.856493949890136719e+00
-7.895601272583007812e+00 -5.582319736480712891e+00 1.611211419105529785e+00
-6.911333084106445312e+00 -5.278560161590576172e+00 1.364951372146606445e+00
-5.951001644134521484e+00 -4.893591880798339844e+00 1.136350035667419434e+00
-8.589810371398925781e+00 -5.612653732299804688e+00 1.429298400878906250e+00
-7.825091838836669922e+00 -5.528372764587402344e+00 1.240949988365173340e+00
-6.915890693664550781e+00 -5.272491931915283203e+00 1.044690012931823730e+00
-5.874752521514892578e+00 -4.825736999511718750e+00 8.406847119331359863e-01
-8.557077407836914062e+00 -5.587004661560058594e+00 1.047070026397705078e+00
-7.870733261108398438e+00 -5.556500434875488281e+00 8.954594135284423828e-01
-6.955224514007568359e+00 -5.298641204833984375e+00 7.296113967895507812e-01
-5.947876453399658203e+00 -4.880590438842773438e+00 5.690613389015197754e-01
-8.611123085021972656e+00 -5.618005275726318359e+00 6.775029301643371582e-01
-7.861409187316894531e+00 -5.545806884765625000e+00 5.429335236549377441e-01
-7.029991149902343750e+00 -5.351722717285156250e+00 4.151145219802856445e-01
-7.854403972625732422e+00 -6.438131809234619141e+00 3.812727928161621094e-01
-7.956776142120361328e+00 -5.608924388885498047e+00 1.971200853586196899e-01
-5.977670192718505859e+00 -4.896315097808837891e+00 9.440309368073940277e-03
-7.264553070068359375e+00 -5.494013786315917969e+00 2.484867334365844727e+00
-6.372532844543457031e+00 -5.200900554656982422e+00 2.162518501281738281e+00
-8.188997268676757812e+00 -5.723220825195312500e+00 2.429939031600952148e+00
-7.138242244720458984e+00 -5.392614841461181641e+00 2.085142135620117188e+00
-6.369907379150390625e+00 -5.189502716064453125e+00 1.836548089981079102e+00
-9.650029182434082031e+00 -6.226024150848388672e+00 2.466188669204711914e+00
-8.139912605285644531e+00 -5.684688091278076172e+00 2.030792951583862305e+00
-7.100255966186523438e+00 -5.356135845184326172e+00 1.732025146484375000e+00
-6.374717235565185547e+00 -5.184172630310058594e+00 1.519891977310180664e+00
-9.093285560607910156e+00 -5.864575862884521484e+00 1.911823511123657227e+00
-8.116562843322753906e+00 -5.664166927337646484e+00 1.649178385734558105e+00
-7.060330390930175781e+00 -5.324084758758544922e+00 1.387899518013000488e+00
-6.182891368865966797e+00 -5.021004676818847656e+00 1.174724459648132324e+00
-9.076102256774902344e+00 -5.851251125335693359e+00 1.504212379455566406e+00
-8.046775817871093750e+00 -5.611290454864501953e+00 1.270621776580810547e+00
-7.097243785858154297e+00 -5.342211246490478516e+00 1.067112803459167480e+00
-6.029299736022949219e+00 -4.891039371490478516e+00 8.584897518157958984e-01
-8.869681358337402344e+00 -5.713791847229003906e+00 1.081010818481445312e+00
-7.975752830505371094e+00 -5.557626724243164062e+00 9.035107493400573730e-01
-7.010701179504394531e+00 -5.273236751556396484e+00 7.320229411125183105e-01
-6.258969783782958984e+00 -5.071918964385986328e+00 5.958363413810729980e-01
-8.106682777404785156e+00 -5.644658088684082031e+00 5.574703216552734375e-01
-7.096232891082763672e+00 -5.333693504333496094e+00 4.170856773853302002e-01
-7.899973392486572266e+00 -6.394847393035888672e+00 3.815729618072509766e-01
-8.107580184936523438e+00 -5.641081809997558594e+00 1.999948024749755859e-01
-5.305534839630126953e+00 -4.291644096374511719e+00 8.337086997926235199e-03
-7.440363407135009766e+00 -5.555540561676025391e+00 2.533296108245849609e+00
-6.576763629913330078e+00 -5.300682067871093750e+00 2.220745086669921875e+00
-8.484707832336425781e+00 -5.852729797363281250e+00 2.506982564926147461e+00
-7.325767993927001953e+00 -5.464002609252929688e+00 2.130086421966552734e+00
-6.555986881256103516e+00 -5.274505138397216797e+00 1.880831122398376465e+00
-9.956933021545410156e+00 -6.337846755981445312e+00 2.534635543823242188e+00
-7.939902782440185547e+00 -5.472835540771484375e+00 1.972478270530700684e+00
-7.243984222412109375e+00 -5.395137310028076172e+00 1.758977532386779785e+00
-6.515275955200195312e+00 -5.232392787933349609e+00 1.545720696449279785e+00
-1.040690708160400391e+01 -6.621714591979980469e+00 2.179423093795776367e+00
-7.951324939727783203e+00 -5.476615428924560547e+00 1.608746051788330078e+00
-7.142787456512451172e+00 -5.317830562591552734e+00 1.397668123245239258e+00
-6.527696132659912109e+00 -5.234875202178955078e+00 1.234109878540039062e+00
-9.356698989868164062e+00 -5.951193809509277344e+00 1.544635534286499023e+00
-8.054096221923828125e+00 -5.543256759643554688e+00 1.266382932662963867e+00
-7.267753601074218750e+00 -5.401016712188720703e+00 1.087746620178222656e+00
-6.492052078247070312e+00 -5.200707435607910156e+00 9.198183417320251465e-01
-9.212698936462402344e+00 -5.855088710784912109e+00 1.118417143821716309e+00
-7.944070339202880859e+00 -5.463445663452148438e+00 8.961071968078613281e-01
-7.170135021209716797e+00 -5.324587345123291016e+00 7.452447414398193359e-01
-6.399763584136962891e+00 -5.121277332305908203e+00 6.062366366386413574e-01
-8.031727790832519531e+00 -5.519602298736572266e+00 5.499765276908874512e-01
-7.269205093383789062e+00 -5.394221782684326172e+00 4.252988100051879883e-01
-7.901595592498779297e+00 -6.316303253173828125e+00 3.797721862792968750e-01
-9.524066925048828125e+00 -6.045978546142578125e+00 3.348132371902465820e-01
-8.336545944213867188e+00 -5.724797725677490234e+00 2.047724872827529907e-01
-5.859944820404052734e+00 -4.680915832519531250e+00 9.162977337837219238e-03
-7.551190853118896484e+00 -5.566455364227294922e+00 2.559353113174438477e+00
-6.640190124511718750e+00 -5.284921169281005859e+00 2.231169939041137695e+00
-8.750177383422851562e+00 -5.956945896148681641e+00 2.574572563171386719e+00
-7.477574348449707031e+00 -5.506147384643554688e+00 2.164361953735351562e+00
-6.615735054016113281e+00 -5.256033420562744141e+00 1.888684153556823730e+00
-7.996015548706054688e+00 -5.439443588256835938e+00 1.978089213371276855e+00
-7.447764873504638672e+00 -5.476181983947753906e+00 1.800266146659851074e+00
-6.558815479278564453e+00 -5.201482772827148438e+00 1.548449158668518066e+00
-1.042732334136962891e+01 -6.545169830322265625e+00 2.175247192382812500e+00
-7.893413066864013672e+00 -5.365616798400878906e+00 1.590337872505187988e+00
-7.398962497711181641e+00 -5.438309669494628906e+00 1.441238522529602051e+00
-6.544183254241943359e+00 -5.182440280914306641e+00 1.231191754341125488e+00
-1.043587017059326172e+01 -6.547995567321777344e+00 1.716123700141906738e+00
-7.961622238159179688e+00 -5.407920360565185547e+00 1.246601819992065430e+00
-7.421635627746582031e+00 -5.445005416870117188e+00 1.105756402015686035e+00
-6.535533905029296875e+00 -5.170025348663330078e+00 9.214670062065124512e-01
-1.043179512023925781e+01 -6.540364742279052734e+00 1.261519074440002441e+00
-7.957671165466308594e+00 -5.401178359985351562e+00 8.938861489295959473e-01
-7.210707664489746094e+00 -5.286383628845214844e+00 7.460762858390808105e-01
-6.489751338958740234e+00 -5.128285884857177734e+00 6.117686629295349121e-01
-1.041780471801757812e+01 -6.526528358459472656e+00 8.100578188896179199e-01
-7.935715675354003906e+00 -5.382230758666992188e+00 5.411304831504821777e-01
-7.478636741638183594e+00 -5.478797912597656250e+00 4.355769157409667969e-01
-7.908044338226318359e+00 -6.242316246032714844e+00 3.782340586185455322e-01
-9.548277854919433594e+00 -5.979468345642089844e+00 3.343682587146759033e-01
-9.065312385559082031e+00 -6.633894920349121094e+00 1.196006163954734802e-01
-6.074634075164794922e+00 -4.791649818420410156e+00 9.452526457607746124e-03
-7.821558475494384766e+00 -5.692020893096923828e+00 2.639102458953857422e+00
-6.763740539550781250e+00 -5.315792083740234375e+00 2.261681795120239258e+00
-9.069664001464843750e+00 -6.093340873718261719e+00 2.657524347305297852e+00
-7.653013706207275391e+00 -5.563237667083740234e+00 2.205220222473144531e+00
-6.663985729217529297e+00 -5.227991580963134766e+00 1.893265366554260254e+00
-8.290348052978515625e+00 -5.565567493438720703e+00 2.042415618896484375e+00
-7.601967811584472656e+00 -5.518023490905761719e+00 1.829321265220642090e+00
-6.643251895904541016e+00 -5.202366352081298828e+00 1.560817837715148926e+00
-1.047817134857177734e+01 -6.487804412841796875e+00 2.177509069442749023e+00
-8.147359848022460938e+00 -5.465450763702392578e+00 1.634714722633361816e+00
-7.534539699554443359e+00 -5.467072010040283203e+00 1.461085557937622070e+00
-6.634307384490966797e+00 -5.187893867492675781e+00 1.242135047912597656e+00
-1.046237754821777344e+01 -6.475499153137207031e+00 1.713916301727294922e+00
-8.017720222473144531e+00 -5.374427795410156250e+00 1.250198364257812500e+00
-7.619748115539550781e+00 -5.518755435943603516e+00 1.130206823348999023e+00
-6.667394638061523438e+00 -5.208144187927246094e+00 9.355351328849792480e-01
-1.049288082122802734e+01 -6.489314079284667969e+00 1.264067173004150391e+00
-8.187554359436035156e+00 -5.484129905700683594e+00 9.159116744995117188e-01
-6.586353778839111328e+00 -5.139289379119873047e+00 6.178907752037048340e-01
-1.050603866577148438e+01 -6.492382526397705078e+00 8.138056993484497070e-01
-8.193444252014160156e+00 -5.483932495117187500e+00 5.563997626304626465e-01
-7.549346446990966797e+00 -5.459733963012695312e+00 4.377358257770538330e-01
-7.960384368896484375e+00 -6.204733371734619141e+00 3.789093196392059326e-01
-9.560126304626464844e+00 -5.905534744262695312e+00 3.335079252719879150e-01
-7.909458637237548828e+00 -5.713864326477050781e+00 1.038866713643074036e-01
-6.259339332580566406e+00 -4.875339984893798828e+00 9.693208150565624237e-03
-6.884860038757324219e+00 -5.342971324920654297e+00 2.291176319122314453e+00
-7.831012725830078125e+00 -5.619514465332031250e+00 2.246532678604125977e+00
-6.834810256958007812e+00 -5.294579982757568359e+00 1.932530999183654785e+00
-8.637157440185546875e+00 -5.721824645996093750e+00 2.119166612625122070e+00
-7.720257759094238281e+00 -5.531876087188720703e+00 1.849583387374877930e+00
-6.789397716522216797e+00 -5.249927520751953125e+00 1.587556004524230957e+00
-1.064468574523925781e+01 -6.500891208648681641e+00 2.203781843185424805e+00
-8.374855995178222656e+00 -5.543852806091308594e+00 1.673503398895263672e+00
-7.734191894531250000e+00 -5.539817810058593750e+00 1.493181943893432617e+00
-6.780338287353515625e+00 -5.235362529754638672e+00 1.263437867164611816e+00
-1.049261474609375000e+01 -6.405504703521728516e+00 1.712398767471313477e+00
-8.266428947448730469e+00 -5.467929363250732422e+00 1.283723711967468262e+00
-7.768155574798583984e+00 -5.553894519805908203e+00 1.147143125534057617e+00
-6.756679058074951172e+00 -5.211449623107910156e+00 9.435583949089050293e-01
-1.054608917236328125e+01 -6.433097839355468750e+00 1.265697956085205078e+00
-8.339835166931152344e+00 -5.512300968170166016e+00 9.291455745697021484e-01
-7.790744304656982422e+00 -5.565936088562011719e+00 7.989636063575744629e-01
-1.056442165374755859e+01 -6.439221382141113281e+00 8.152521848678588867e-01
-8.391894340515136719e+00 -5.542501926422119141e+00 5.675559639930725098e-01
-7.785137176513671875e+00 -5.557826519012451172e+00 4.494219124317169189e-01
-7.962669849395751953e+00 -6.128345966339111328e+00 3.772211074829101562e-01
-9.570573806762695312e+00 -5.831161499023437500e+00 3.326179683208465576e-01
-7.941112995147705078e+00 -5.662903308868408203e+00 1.038440912961959839e-01
-5.466332435607910156e+00 -4.204041004180908203e+00 8.425051346421241760e-03
-7.078725814819335938e+00 -5.424156665802001953e+00 2.344571828842163086e+00
-8.053694725036621094e+00 -5.704774379730224609e+00 2.300329685211181641e+00
-6.999721527099609375e+00 -5.353929996490478516e+00 1.969833612442016602e+00
-8.949282646179199219e+00 -5.849904537200927734e+00 2.186899662017822266e+00
-8.083418846130371094e+00 -5.717358112335205078e+00 1.928146719932556152e+00
-6.955129623413085938e+00 -5.310208797454833984e+00 1.618659496307373047e+00
-8.800989151000976562e+00 -5.748585700988769531e+00 1.751574039459228516e+00
-7.920495033264160156e+00 -5.600049495697021484e+00 1.522487401962280273e+00
-6.914609909057617188e+00 -5.271634578704833984e+00 1.282406330108642578e+00
-1.114010334014892578e+01 -6.707301139831542969e+00 1.811318397521972656e+00
-8.571391105651855469e+00 -5.594349861145019531e+00 1.325726628303527832e+00
-7.910788536071777344e+00 -5.582838535308837891e+00 1.163125514984130859e+00
-6.867603302001953125e+00 -5.230113983154296875e+00 9.545491933822631836e-01
-1.073794651031494141e+01 -6.460062503814697266e+00 1.283942341804504395e+00
-8.557817459106445312e+00 -5.581232547760009766e+00 9.495978951454162598e-01
-7.950166225433349609e+00 -5.606472015380859375e+00 8.117695450782775879e-01
-6.944978713989257812e+00 -5.283296585083007812e+00 6.454033255577087402e-01
-8.685886383056640625e+00 -5.660435676574707031e+00 5.850790143013000488e-01
-7.881966114044189453e+00 -5.554258823394775391e+00 4.530357122421264648e-01
-7.977845191955566406e+00 -6.062443733215332031e+00 3.761706650257110596e-01
-9.546197891235351562e+00 -5.736289024353027344e+00 3.305412828922271729e-01
-7.997787475585937500e+00 -5.629611015319824219e+00 1.041315346956253052e-01
-6.220737457275390625e+00 -4.723775863647460938e+00 9.542934596538543701e-03
-7.253788471221923828e+00 -5.487987518310546875e+00 2.391356468200683594e+00
-7.894594669342041016e+00 -5.519644737243652344e+00 2.245170831680297852e+00
-7.141470432281494141e+00 -5.393218517303466797e+00 2.000373601913452148e+00
-9.700483322143554688e+00 -6.256328105926513672e+00 2.361042261123657227e+00
-8.086958885192871094e+00 -5.645738124847412109e+00 1.920691728591918945e+00
-7.101437568664550781e+00 -5.353260517120361328e+00 1.645034074783325195e+00
-9.104736328125000000e+00 -5.867602348327636719e+00 1.804826378822326660e+00
-8.116733551025390625e+00 -5.664418220520019531e+00 1.553498506546020508e+00
-7.083565235137939453e+00 -5.332036495208740234e+00 1.307648777961730957e+00
-1.130368328094482422e+01 -6.711636066436767578e+00 1.831185102462768555e+00
-8.839851379394531250e+00 -5.692529201507568359e+00 1.361820936203002930e+00
-8.127386093139648438e+00 -5.661312103271484375e+00 1.189842104911804199e+00
-7.089433193206787109e+00 -5.330640316009521484e+00 9.808171987533569336e-01
-1.112901401519775391e+01 -6.602672100067138672e+00 1.325833320617675781e+00
-8.895854949951171875e+00 -5.724201679229736328e+00 9.831914901733398438e-01
-8.417090415954589844e+00 -5.858749389648437500e+00 8.557591438293457031e-01
-7.013946533203125000e+00 -5.268134593963623047e+00 6.487963199615478516e-01
-1.122889614105224609e+01 -6.656632423400878906e+00 8.601604104042053223e-01
-8.936282157897949219e+00 -5.745805263519287109e+00 5.995595455169677734e-01
-8.188972473144531250e+00 -5.695724487304687500e+00 4.686640501022338867e-01
-7.979722976684570312e+00 -5.986990928649902344e+00 3.745200037956237793e-01
-9.555418014526367188e+00 -5.662319660186767578e+00 3.296513259410858154e-01
-8.061742782592773438e+00 -5.600970745086669922e+00 1.045148000121116638e-01
-6.276008605957031250e+00 -4.705312728881835938e+00 9.583251550793647766e-03
-7.354735851287841797e+00 -5.493729114532470703e+00 2.413477659225463867e+00
-7.878616333007812500e+00 -5.436805725097656250e+00 2.231097459793090820e+00
-7.273791313171386719e+00 -5.423383235931396484e+00 2.028077840805053711e+00
-9.966822624206542969e+00 -6.341850280761718750e+00 2.416351079940795898e+00
-7.944437980651855469e+00 -5.474043846130371094e+00 1.878829479217529297e+00
-7.224076271057128906e+00 -5.376513004302978516e+00 1.665769577026367188e+00
-1.039499282836914062e+01 -6.609196662902832031e+00 2.052515506744384766e+00
-7.935737133026123047e+00 -5.466006278991699219e+00 1.512408971786499023e+00
-7.198728084564208984e+00 -5.349842071533203125e+00 1.322823405265808105e+00
-1.036208629608154297e+01 -6.583196640014648438e+00 1.590075612068176270e+00
-7.950884819030761719e+00 -5.466216087341308594e+00 1.159070253372192383e+00
-7.283218383789062500e+00 -5.406714916229248047e+00 1.003018498420715332e+00
-1.150934314727783203e+01 -6.733182430267333984e+00 1.366195440292358398e+00
-9.190564155578613281e+00 -5.834408283233642578e+00 1.011787652969360352e+00
-8.001940727233886719e+00 -5.497203826904296875e+00 8.101064562797546387e-01
-7.243200778961181641e+00 -5.371127605438232422e+00 6.669414043426513672e-01
-1.132035541534423828e+01 -6.617317676544189453e+00 8.640397787094116211e-01
-1.039198398590087891e+01 -6.592011928558349609e+00 6.944996118545532227e-01
-8.316002845764160156e+00 -5.708687782287597656e+00 4.739204943180084229e-01
-7.739274501800537109e+00 -5.732708454132080078e+00 3.615770339965820312e-01
-9.567543029785156250e+00 -5.590470790863037109e+00 3.288799822330474854e-01
-9.526239395141601562e+00 -6.038176536560058594e+00 2.283774912357330322e-01
-9.770898818969726562e+00 -6.699906349182128906e+00 1.261374503374099731e-01
-6.212328433990478516e+00 -4.598297119140625000e+00 9.442753158509731293e-03
-7.533083438873291016e+00 -5.555263519287109375e+00 2.460770606994628906e+00
-8.078451156616210938e+00 -5.501840591430664062e+00 2.278084516525268555e+00
-7.464120388031005859e+00 -5.494357109069824219e+00 2.071706533432006836e+00
-1.020469665527343750e+01 -6.405582904815673828e+00 2.464445590972900391e+00
-7.924306392669677734e+00 -5.388765335083007812e+00 1.866213560104370117e+00
-7.395602703094482422e+00 -5.433976650238037109e+00 1.697600841522216797e+00
-1.042532253265380859e+01 -6.539000034332275391e+00 2.050543069839477539e+00
-7.926641941070556641e+00 -5.388330936431884766e+00 1.504346013069152832e+00
-7.410888195037841797e+00 -5.437244892120361328e+00 1.355653285980224609e+00
-1.043001556396484375e+01 -6.536871910095214844e+00 1.594314455986022949e+00
-7.930049896240234375e+00 -5.380535602569580078e+00 1.151198387145996094e+00
-7.442121505737304688e+00 -5.454168319702148438e+00 1.020274043083190918e+00
-1.049370479583740234e+01 -6.571687698364257812e+00 1.150789260864257812e+00
-7.922517776489257812e+00 -5.371387481689453125e+00 7.987141013145446777e-01
-7.227738857269287109e+00 -5.291237354278564453e+00 6.625157594680786133e-01
-1.046524429321289062e+01 -6.548779487609863281e+00 6.966970562934875488e-01
-8.281407356262207031e+00 -5.610492229461669922e+00 4.699782133102416992e-01
-7.700901031494140625e+00 -5.631435871124267578e+00 3.581631183624267578e-01
-9.596468925476074219e+00 -5.528666496276855469e+00 3.287020027637481689e-01
-9.529200553894042969e+00 -5.958408355712890625e+00 2.275677174329757690e-01
-9.898779869079589844e+00 -6.698671340942382812e+00 1.272553205490112305e-01
-6.181485176086425781e+00 -4.517022132873535156e+00 9.353565983474254608e-03
-7.714021205902099609e+00 -5.615950584411621094e+00 2.508572340011596680e+00
-8.894489288330078125e+00 -5.978045940399169922e+00 2.497812032699584961e+00
-7.646114826202392578e+00 -5.556310653686523438e+00 2.112717390060424805e+00
-8.252265930175781250e+00 -5.538043975830078125e+00 1.935410499572753906e+00
-7.537854194641113281e+00 -5.467594146728515625e+00 1.722520112991333008e+00
-1.051390075683593750e+01 -6.505009651184082031e+00 2.060075759887695312e+00
-8.184345245361328125e+00 -5.490391254425048828e+00 1.546831250190734863e+00
-7.513816833496093750e+00 -5.442157268524169922e+00 1.368347406387329102e+00
-1.050535678863525391e+01 -6.494654178619384766e+00 1.599709272384643555e+00
-8.128740310668945312e+00 -5.442809104919433594e+00 1.175171852111816406e+00
-7.560002803802490234e+00 -5.469576358795166016e+00 1.031814336776733398e+00
-1.050926399230957031e+01 -6.492000102996826172e+00 1.148105502128601074e+00
-7.991769790649414062e+00 -5.347057342529296875e+00 8.023729324340820312e-01
-7.605209827423095703e+00 -5.496219158172607422e+00 6.940114498138427734e-01
-1.051032733917236328e+01 -6.487588882446289062e+00 6.970350742340087891e-01
-8.404529571533203125e+00 -5.618976593017578125e+00 4.749999046325683594e-01
-7.700469493865966797e+00 -5.558927059173583984e+00 3.565499186515808105e-01
-9.611089706420898438e+00 -5.458818912506103516e+00 3.280493319034576416e-01
-9.551966667175292969e+00 -5.891428947448730469e+00 2.272438108921051025e-01
-9.972958564758300781e+00 -6.660020351409912109e+00 1.276811808347702026e-01
-6.300729274749755859e+00 -4.545117378234863281e+00 9.491622447967529297e-03
-7.936035633087158203e+00 -5.703407764434814453e+00 2.569341659545898438e+00
-9.213443756103515625e+00 -6.110682964324951172e+00 2.576805114746093750e+00
-7.833902835845947266e+00 -5.619647026062011719e+00 2.155037164688110352e+00
-8.466953277587890625e+00 -5.607076644897460938e+00 1.977654933929443359e+00
-7.726363658905029297e+00 -5.532298088073730469e+00 1.757807254791259766e+00
-1.077758789062500000e+01 -6.577054500579833984e+00 2.103795289993286133e+00
-8.442767143249511719e+00 -5.588940620422363281e+00 1.589161276817321777e+00
-7.671805858612060547e+00 -5.485135078430175781e+00 1.390963554382324219e+00
-1.053484916687011719e+01 -6.423876285552978516e+00 1.598167896270751953e+00
-8.326829910278320312e+00 -5.501747608184814453e+00 1.198906540870666504e+00
-7.719601154327392578e+00 -5.513201713562011719e+00 1.048959970474243164e+00
-1.055145168304443359e+01 -6.428948402404785156e+00 1.148383140563964844e+00
-8.381198883056640625e+00 -5.533468246459960938e+00 8.380468487739562988e-01
-7.646909236907958984e+00 -5.455242633819580078e+00 6.947490572929382324e-01
-1.055505371093750000e+01 -6.426092147827148438e+00 6.973732113838195801e-01
-8.518894195556640625e+00 -5.620109558105468750e+00 4.795054197311401367e-01
-7.798724174499511719e+00 -5.557386875152587891e+00 3.595136702060699463e-01
-9.576375007629394531e+00 -5.361655712127685547e+00 3.257353603839874268e-01
-9.562311172485351562e+00 -5.817119598388671875e+00 2.266364842653274536e-01
-1.005872344970703125e+01 -6.628413677215576172e+00 1.282560676336288452e-01
-6.291842460632324219e+00 -4.480268955230712891e+00 9.436644613742828369e-03
-8.127064704895019531e+00 -5.765403270721435547e+00 2.619685888290405273e+00
-9.505014419555664062e+00 -6.220425128936767578e+00 2.647626399993896484e+00
-8.006820678710937500e+00 -5.669604301452636719e+00 2.192994117736816406e+00
-8.956414222717285156e+00 -5.852475166320800781e+00 2.083552837371826172e+00
-7.944050312042236328e+00 -5.614754676818847656e+00 1.799460530281066895e+00
-8.680367469787597656e+00 -5.669933319091796875e+00 1.627304911613464355e+00
-7.907386779785156250e+00 -5.580567359924316406e+00 1.427441120147705078e+00
-8.592481613159179688e+00 -5.601835250854492188e+00 1.232183098793029785e+00
-7.929568767547607422e+00 -5.590004444122314453e+00 1.072809934616088867e+00
-1.033021068572998047e+01 -5.707802772521972656e+00 1.209231734275817871e+00
