-1.275671739131212234e-02 -7.452743649482727051e-01 4.911633208394050598e-02
-1.672105677425861359e-02 -7.299859523773193359e-01 7.481255382299423218e-02
-1.461526658385992050e-02 -6.533067822456359863e-01 1.336628049612045288e-01
-3.999868035316467285e-02 -7.270973920822143555e-01 3.421350941061973572e-02
-8.671054244041442871e-02 -7.075725197792053223e-01 4.022981971502304077e-02
-3.607846423983573914e-02 -7.255918383598327637e-01 2.727396972477436066e-02
-6.444982439279556274e-02 -7.461793422698974609e-01 7.974084466695785522e-03
-1.095325574278831482e-01 -7.104588747024536133e-01 1.455575041472911835e-02
-1.143053323030471802e-01 -6.847593784332275391e-01 3.261781856417655945e-02
-6.060917973518371582e-01 -2.496345520019531250e+00 7.624225318431854248e-02
-6.189269423484802246e-01 -2.484516143798828125e+00 1.687182188034057617e-01
-6.168037056922912598e-01 -2.474151849746704102e+00 7.567859441041946411e-02
-6.341599822044372559e-01 -2.480671882629394531e+00 1.687182188034057617e-01
-6.322209239006042480e-01 -2.471288919448852539e+00 7.570825517177581787e-02
-6.491160392761230469e-01 -2.475768566131591797e+00 1.686524599790573120e-01
-6.476262807846069336e-01 -2.468330144882202148e+00 7.573793083429336548e-02
-6.604101657867431641e-01 -2.457284688949584961e+00 1.676661968231201172e-01
-6.580865979194641113e-01 -2.446935176849365234e+00 7.520393282175064087e-02
-6.606090068817138672e-01 -2.397559642791748047e+00 7.380961626768112183e-02
-5.870862007141113281e-01 -2.476850748062133789e+00 5.154233425855636597e-02
-5.951516628265380859e-01 -2.447675466537475586e+00 1.421566158533096313e-01
-6.964789628982543945e-01 -2.468497514724731445e+00 7.612358778715133667e-02
-6.081867814064025879e-01 -2.497487068176269531e+00 5.204844847321510315e-02
-6.237021684646606445e-01 -2.498223781585693359e+00 1.453119069337844849e-01
-6.213169693946838379e-01 -2.484978675842285156e+00 5.186624825000762939e-02
-6.375325322151184082e-01 -2.488546609878540039e+00 1.449738442897796631e-01
-6.340682506561279297e-01 -2.471435308456420898e+00 5.166380107402801514e-02
-6.436564922332763672e-01 -2.449825048446655273e+00 1.429454535245895386e-01
-6.471856236457824707e-01 -2.459763288497924805e+00 5.150184780359268188e-02
-6.571184396743774414e-01 -2.440045118331909180e+00 1.426073759794235229e-01
-6.638281941413879395e-01 -2.461537837982177734e+00 5.162331461906433105e-02
-6.802505850791931152e-01 -2.462236642837524414e+00 5.172453448176383972e-02
-5.937327742576599121e-01 -2.497243404388427734e+00 2.732907235622406006e-02
-6.080493927001953125e-01 -2.495146989822387695e+00 1.206624582409858704e-01
-6.064345240592956543e-01 -2.482867956161499023e+00 2.721196413040161133e-02
-6.206809282302856445e-01 -2.480709791183471680e+00 1.201462149620056152e-01
-6.204416155815124512e-01 -2.474250555038452148e+00 2.715873159468173981e-02
-6.378777027130126953e-01 -2.484594821929931641e+00 1.205216646194458008e-01
-6.358608007431030273e-01 -2.471365451812744141e+00 2.716937661170959473e-02
-6.480243802070617676e-01 -2.461314439773559570e+00 1.195830255746841431e-01
-6.530537009239196777e-01 -2.475152254104614258e+00 2.725454792380332947e-02
-6.594710350036621094e-01 -2.443790435791015625e+00 1.189259737730026245e-01
-6.658793687820434570e-01 -2.462411165237426758e+00 2.715873159468173981e-02
-5.882858633995056152e-01 -2.535649776458740234e+00 3.180163912475109100e-03
-5.948867201805114746e-01 -2.498342275619506836e+00 9.641554206609725952e-02
-6.809759140014648438e-01 -2.458279132843017578e+00 2.715873159468173981e-02
-5.973378419876098633e-01 -2.504755973815917969e+00 3.145955270156264305e-03
-6.154706478118896484e-01 -2.521892547607421875e+00 1.919982731342315674e-01
-6.121045351028442383e-01 -2.502410650253295898e+00 9.671566635370254517e-02
-6.126955151557922363e-01 -2.501043796539306641e+00 3.145955270156264305e-03
-6.292364001274108887e-01 -2.511297225952148438e+00 1.914819628000259399e-01
-6.245269179344177246e-01 -2.486977338790893555e+00 9.626547992229461670e-02
-6.321763396263122559e-01 -2.513723850250244141e+00 3.166724694892764091e-03
-6.535730361938476562e-01 -2.542160034179687500e+00 1.941373348236083984e-01
-6.397749781608581543e-01 -2.483098506927490234e+00 9.626547992229461670e-02
-6.395934820175170898e-01 -2.478812456130981445e+00 3.127629403024911880e-03
-6.650913357734680176e-01 -2.522672891616821289e+00 1.929571628570556641e-01
-6.583173274993896484e-01 -2.491686105728149414e+00 9.675318747758865356e-02
-6.532564163208007812e-01 -2.469040870666503906e+00 3.120298963040113449e-03
-6.688922643661499023e-01 -2.470237493515014648e+00 9.607789665460586548e-02
-6.670853495597839355e-01 -2.460160255432128906e+00 3.114190185442566872e-03
-6.781537532806396484e-01 -2.441568136215209961e+00 3.095864551141858101e-03
-2.421248674392700195e+00 -6.879340648651123047e+00 8.910078555345535278e-03
-2.370187282562255859e+00 -6.604576587677001953e+00 8.572881110012531281e-03
-2.539841175079345703e+00 -6.943023681640625000e+00 9.032251313328742981e-03
-2.654675483703613281e+00 -6.989860534667968750e+00 9.134876541793346405e-03
-2.684887409210205078e+00 -6.940797328948974609e+00 9.092116728425025940e-03
-2.663655281066894531e+00 -6.762299060821533203e+00 8.879534900188446045e-03
-2.748272180557250977e+00 -6.853494167327880859e+00 9.021256119012832642e-03
-2.693535089492797852e+00 -6.599483489990234375e+00 8.708492852747440338e-03
-2.733978033065795898e+00 -6.582831859588623047e+00 8.708492852747440338e-03
-2.773150682449340820e+00 -6.563169479370117188e+00 8.704828098416328430e-03
-2.880100250244140625e+00 -6.701296806335449219e+00 8.911300450563430786e-03
-2.919162034988403320e+00 -6.678917884826660156e+00 8.905191905796527863e-03
-2.951153755187988281e+00 -6.640775680541992188e+00 8.878313004970550537e-03
-2.846514225006103516e+00 -6.300848007202148438e+00 8.447042666375637054e-03
-2.959398984909057617e+00 -6.445025444030761719e+00 8.664511144161224365e-03
-3.001849174499511719e+00 -6.433088779449462891e+00 8.673063479363918304e-03
-3.108953952789306641e+00 -6.557315349578857422e+00 8.866096846759319305e-03
-3.094019174575805664e+00 -6.423696041107177734e+00 8.710936643183231354e-03
-3.149196863174438477e+00 -6.436928272247314453e+00 8.754919283092021942e-03
-3.129898309707641602e+00 -6.299271583557128906e+00 8.593650534749031067e-03
-3.177950382232666016e+00 -6.298696994781494141e+00 8.619306609034538269e-03
-3.209699869155883789e+00 -6.265728950500488281e+00 8.600980974733829498e-03
-3.238396406173706055e+00 -6.227285385131835938e+00 8.575324900448322296e-03
-3.217726945877075195e+00 -6.095868587493896484e+00 8.421386592090129852e-03
-3.243736505508422852e+00 -6.054854869842529297e+00 8.392064832150936127e-03
-3.292290449142456055e+00 -6.055922985076904297e+00 8.421386592090129852e-03
-3.263697624206542969e+00 -5.916524887084960938e+00 8.255231194198131561e-03
-3.303357839584350586e+00 -5.902495861053466797e+00 8.263783529400825500e-03
-3.351361751556396484e+00 -5.902986526489257812e+00 8.293104358017444611e-03
-3.400494098663330078e+00 -5.904842853546142578e+00 8.324869908392429352e-03
-3.431113719940185547e+00 -5.874368667602539062e+00 8.311430923640727997e-03
-3.493085145950317383e+00 -5.897084236145019531e+00 8.373738266527652740e-03
-3.527658462524414062e+00 -5.872968673706054688e+00 8.370073512196540833e-03
-3.679103851318359375e+00 -6.040815830230712891e+00 8.641297928988933563e-03
-3.590006113052368164e+00 -5.813920974731445312e+00 8.348082192242145538e-03
-3.630387783050537109e+00 -5.799412727355957031e+00 8.359078317880630493e-03
-3.658402919769287109e+00 -5.765206813812255859e+00 8.341974578797817230e-03
-3.658004760742187500e+00 -5.687141418457031250e+00 8.261339738965034485e-03
-3.684639692306518555e+00 -5.652023792266845703e+00 8.243014104664325714e-03
-3.657511234283447266e+00 -5.535862445831298828e+00 8.106179535388946533e-03
-3.721452713012695312e+00 -5.558187007904052734e+00 8.172153495252132416e-03
-3.712256193161010742e+00 -5.471529960632324219e+00 8.078080601990222931e-03
-3.573539972305297852e+00 -5.198135852813720703e+00 7.706673815846443176e-03
-3.885429859161376953e+00 -5.578187465667724609e+00 8.305322378873825073e-03
-3.910358667373657227e+00 -5.541169166564941406e+00 8.285774849355220795e-03
-3.851231813430786133e+00 -5.386913299560546875e+00 8.090297691524028778e-03
-3.870722055435180664e+00 -5.344553470611572266e+00 8.062197826802730560e-03
-3.881556510925292969e+00 -5.290869712829589844e+00 8.016993291676044464e-03
-3.921701431274414062e+00 -5.277387619018554688e+00 8.032876066863536835e-03
-3.948596954345703125e+00 -5.246034622192382812e+00 8.021880872547626495e-03
-4.004961967468261719e+00 -5.253518581390380859e+00 8.070750162005424500e-03
-4.021843433380126953e+00 -5.209057331085205078e+00 8.040206506848335266e-03
-4.034634590148925781e+00 -5.159860610961914062e+00 8.002332411706447601e-03
-3.788722753524780273e+00 -4.784572601318359375e+00 7.456219289451837540e-03
-4.045725822448730469e+00 -5.045208930969238281e+00 7.900930009782314301e-03
-3.847781896591186523e+00 -4.738495349884033203e+00 7.457441184669733047e-03
-3.942836999893188477e+00 -4.795127391815185547e+00 7.584501057863235474e-03
-4.199331760406494141e+00 -5.043661594390869141e+00 8.018215186893939972e-03
-4.228910923004150391e+00 -5.016271114349365234e+00 8.015772327780723572e-03
-4.244678020477294922e+00 -4.972734451293945312e+00 7.987672463059425354e-03
-4.265955924987792969e+00 -4.936004161834716797e+00 7.970567792654037476e-03
-4.110460758209228516e+00 -4.697512149810791016e+00 7.626039907336235046e-03
-4.288409233093261719e+00 -4.840617656707763672e+00 7.900930009782314301e-03
-4.233899116516113281e+00 -4.720415115356445312e+00 7.746991235762834549e-03
-4.248666286468505859e+00 -4.678801059722900391e+00 7.721334695816040039e-03
-4.268496513366699219e+00 -4.643073081970214844e+00 7.705452386289834976e-03
-4.303718566894531250e+00 -4.624114990234375000e+00 7.717669941484928131e-03
-4.344354629516601562e+00 -4.610721588134765625e+00 7.739661261439323425e-03
-4.447107791900634766e+00 -4.662126541137695312e+00 7.871608249843120575e-03
-4.321417808532714844e+00 -4.475056648254394531e+00 7.600383833050727844e-03
-4.403320789337158203e+00 -4.504232406616210938e+00 7.695678621530532837e-03
-4.572264194488525391e+00 -4.619994163513183594e+00 7.941246964037418365e-03
-4.596279144287109375e+00 -4.587613582611083984e+00 7.933916524052619934e-03
-4.528920650482177734e+00 -4.465245723724365234e+00 7.770203985273838043e-03
-8.269823074340820312e+00 -6.964531421661376953e+00 2.189233303070068359e-01
-4.542622089385986328e+00 -4.424116134643554688e+00 7.746991235762834549e-03
-8.307788848876953125e+00 -6.909821987152099609e+00 2.188018858432769775e-01
-4.550224781036376953e+00 -4.377440929412841797e+00 7.714004255831241608e-03
-8.363936424255371094e+00 -6.870138645172119141e+00 2.191662639379501343e-01
-7.896490573883056641e+00 -6.978780746459960938e+00 1.122014373540878296e-01
-4.507409095764160156e+00 -4.283308982849121094e+00 7.596718613058328629e-03
-8.412145614624023438e+00 -6.823728084564208984e+00 2.193282395601272583e-01
-7.908277034759521484e+00 -6.903236389160156250e+00 1.117649376392364502e-01
-4.411844253540039062e+00 -4.141277313232421875e+00 7.392689585685729980e-03
-8.485069274902343750e+00 -6.796986579895019531e+00 2.201380133628845215e-01
-7.973206043243408203e+00 -6.874170780181884766e+00 1.120843291282653809e-01
-4.500235080718994141e+00 -4.172600746154785156e+00 7.497758138924837112e-03
-8.536808013916015625e+00 -6.752858638763427734e+00 2.204011827707290649e-01
-8.059391975402832031e+00 -6.862719058990478516e+00 1.127018108963966370e-01
-4.637846469879150391e+00 -4.247570037841796875e+00 7.683461531996726990e-03
-8.590689659118652344e+00 -6.710197925567626953e+00 2.207251042127609253e-01
-8.151092529296875000e+00 -6.854972362518310547e+00 1.133938282728195190e-01
-4.675686836242675781e+00 -4.229766368865966797e+00 7.703009061515331268e-03
-8.641992568969726562e+00 -6.665297508239746094e+00 2.209882736206054688e-01
-8.116078376770019531e+00 -6.740940093994140625e+00 1.123291924595832825e-01
-4.794017314910888672e+00 -4.283617973327636719e+00 7.854503579437732697e-03
-8.711362838745117188e+00 -6.633952617645263672e+00 2.217170745134353638e-01
-8.097756385803222656e+00 -6.642183780670166016e+00 1.115094348788261414e-01
-4.839704513549804688e+00 -4.271326065063476562e+00 7.886269129812717438e-03
-8.777475357055664062e+00 -6.599602222442626953e+00 2.223648875951766968e-01
-8.259572029113769531e+00 -6.690557956695556641e+00 1.131702512502670288e-01
-4.676616191864013672e+00 -4.076619148254394531e+00 7.579614408314228058e-03
-8.861154556274414062e+00 -6.577800273895263672e+00 2.234580963850021362e-01
-8.255960464477539062e+00 -6.604149341583251953e+00 1.125634163618087769e-01
-4.853106975555419922e+00 -4.178338527679443359e+00 7.823959924280643463e-03
-8.941669464111328125e+00 -6.552854537963867188e+00 2.244703173637390137e-01
-8.325360298156738281e+00 -6.576300621032714844e+00 1.129573285579681396e-01
-4.703435897827148438e+00 -3.999488830566406250e+00 7.542962208390235901e-03
-9.074053764343261719e+00 -6.564673423767089844e+00 2.267781943082809448e-01
-8.011536598205566406e+00 -6.248960494995117188e+00 1.081771329045295715e-01
-4.774600028991699219e+00 -4.009783267974853516e+00 7.617487572133541107e-03
-9.125553131103515625e+00 -6.517007350921630859e+00 2.270616143941879272e-01
-8.192328453063964844e+00 -6.309511184692382812e+00 1.100934669375419617e-01
-4.801423072814941406e+00 -3.982326745986938477e+00 7.621153257787227631e-03
-9.108984947204589844e+00 -6.421144008636474609e+00 2.256647348403930664e-01
-8.226908683776855469e+00 -6.256098747253417969e+00 1.100402399897575378e-01
-4.817257881164550781e+00 -3.945820569992065430e+00 7.607714273035526276e-03
-9.248336791992187500e+00 -6.434796333312988281e+00 2.281345725059509277e-01
-8.235553741455078125e+00 -6.183288097381591797e+00 1.096463277935981750e-01
-4.793951988220214844e+00 -3.877825021743774414e+00 7.533188909292221069e-03
-9.334623336791992188e+00 -6.410188198089599609e+00 2.292884886264801025e-01
-7.964062213897705078e+00 -5.903387069702148438e+00 1.055474951863288879e-01
-4.227754592895507812e+00 -3.377124547958374023e+00 6.610782351344823837e-03
-9.474751472473144531e+00 -6.421221733093261719e+00 2.317583262920379639e-01
-8.578720092773437500e+00 -6.277812004089355469e+00 1.131808981299400330e-01
-4.421127319335937500e+00 -3.487369537353515625e+00 6.879562512040138245e-03
-9.448319435119628906e+00 -6.319055557250976562e+00 2.301589995622634888e-01
-8.609784126281738281e+00 -6.219785690307617188e+00 1.130850836634635925e-01
-4.911853313446044922e+00 -3.825796365737915039e+00 7.606492377817630768e-03
-9.472728729248046875e+00 -6.251600742340087891e+00 2.298148423433303833e-01
-8.469489097595214844e+00 -6.039694786071777344e+00 1.107535436749458313e-01
-5.001028537750244141e+00 -3.846185445785522461e+00 7.707896176725625992e-03
-9.508396148681640625e+00 -6.191722869873046875e+00 2.297541201114654541e-01
-8.494123458862304688e+00 -5.978979587554931641e+00 1.105938479304313660e-01
-5.030905246734619141e+00 -3.820265293121337891e+00 7.717669941484928131e-03
-9.564713478088378906e+00 -6.145153045654296875e+00 2.301994860172271729e-01
-7.185519695281982422e+00 -4.992206573486328125e+00 9.315519034862518311e-02
-4.983841896057128906e+00 -3.736536264419555664e+00 7.610157132148742676e-03
-9.774507522583007812e+00 -6.195540904998779297e+00 2.343293577432632446e-01
-8.841475486755371094e+00 -6.062601089477539062e+00 1.141390651464462280e-01
-5.052489757537841797e+00 -3.739797592163085938e+00 7.679796312004327774e-03
-9.808947563171386719e+00 -6.133328437805175781e+00 2.342483699321746826e-01
-8.880993843078613281e+00 -6.009918212890625000e+00 1.141710132360458374e-01
-5.152853012084960938e+00 -3.765365362167358398e+00 7.797082420438528061e-03
-9.825122833251953125e+00 -6.059905529022216797e+00 2.337422668933868408e-01
-8.736420631408691406e+00 -5.834250926971435547e+00 1.118501126766204834e-01
-5.265881538391113281e+00 -3.798615932464599609e+00 7.932694628834724426e-03
-9.864683151245117188e+00 -6.001064300537109375e+00 2.338030040264129639e-01
-8.387139320373535156e+00 -5.526887416839599609e+00 1.069421544671058655e-01
-5.101736068725585938e+00 -3.632823228836059570e+00 7.651696447283029556e-03
-9.862739562988281250e+00 -5.917276382446289062e+00 2.328920066356658936e-01
-8.370594978332519531e+00 -5.442615985870361328e+00 1.063033863902091980e-01
-5.121476173400878906e+00 -3.599725961685180664e+00 7.648031227290630341e-03
-9.922954559326171875e+00 -5.870903015136718750e+00 2.334588468074798584e-01
-8.503147125244140625e+00 -5.454864025115966797e+00 1.075596511363983154e-01
-5.118818283081054688e+00 -3.551133394241333008e+00 7.611379493027925491e-03
-9.995060920715332031e+00 -5.831066131591796875e+00 2.343091070652008057e-01
-8.555891036987304688e+00 -5.414885997772216797e+00 1.078045144677162170e-01
-5.098430156707763672e+00 -3.490845203399658203e+00 7.549071218818426132e-03
-1.019358253479003906e+01 -5.863345623016357422e+00 2.381150573492050171e-01
-8.598284721374511719e+00 -5.368111133575439453e+00 1.079216152429580688e-01
-5.114781856536865234e+00 -3.456136941909790039e+00 7.541740778833627701e-03
-1.025980758666992188e+01 -5.817950248718261719e+00 2.388236373662948608e-01
-8.415647506713867188e+00 -5.182593822479248047e+00 1.052281111478805542e-01
-5.176659584045410156e+00 -3.451872587203979492e+00 7.601605262607336044e-03
-1.038520145416259766e+01 -5.805133342742919922e+00 2.409088015556335449e-01
-8.452416419982910156e+00 -5.133973121643066406e+00 1.052919849753379822e-01
-5.237005710601806641e+00 -3.445878744125366211e+00 7.659026887267827988e-03
-1.020520687103271484e+01 -5.622615814208984375e+00 2.359286695718765259e-01
-8.657035827636718750e+00 -5.185811996459960938e+00 1.074425354599952698e-01
-5.162434101104736328e+00 -3.351603269577026367e+00 7.519749458879232407e-03
-1.024566459655761719e+01 -5.563231468200683594e+00 2.360703796148300171e-01
-8.668890953063964844e+00 -5.120898246765136719e+00 1.071976721286773682e-01
-5.168587207794189453e+00 -3.310694932937622070e+00 7.498980499804019928e-03
-1.032368469238281250e+01 -5.523844718933105469e+00 2.370826005935668945e-01
-8.369217872619628906e+00 -4.874851703643798828e+00 1.031201407313346863e-01
-5.397606849670410156e+00 -3.410865783691406250e+00 7.800747640430927277e-03
-1.044228744506835938e+01 -5.505156993865966797e+00 2.390260547399520874e-01
-9.135160446166992188e+00 -5.246189594268798828e+00 1.121588572859764099e-01
-5.392126560211181641e+00 -3.361283540725708008e+00 7.762873545289039612e-03
-1.043505668640136719e+01 -5.419782638549804688e+00 2.380948215723037720e-01
-9.130630493164062500e+00 -5.169347286224365234e+00 1.117117032408714294e-01
-5.439908981323242188e+00 -3.344895839691162109e+00 7.801969069987535477e-03
-1.047434520721435547e+01 -5.358839988708496094e+00 2.382365316152572632e-01
-9.356021881103515625e+00 -5.221405982971191406e+00 1.140751838684082031e-01
-5.442374706268310547e+00 -3.300564765930175781e+00 7.776312995702028275e-03
-1.057220745086669922e+01 -5.327312946319580078e+00 2.397143840789794922e-01
-8.328625679016113281e+00 -4.581244468688964844e+00 1.012037992477416992e-01
-5.363829612731933594e+00 -3.208080291748046875e+00 7.635814137756824493e-03
-1.064499759674072266e+01 -5.282341480255126953e+00 2.406253814697265625e-01
-8.694147109985351562e+00 -4.713048934936523438e+00 1.052919849753379822e-01
-5.266269683837890625e+00 -3.106017589569091797e+00 7.469658739864826202e-03
-1.069248104095458984e+01 -5.224387168884277344e+00 2.409695386886596680e-01
-9.611950874328613281e+00 -5.134527206420898438e+00 1.160234659910202026e-01
-5.331044673919677734e+00 -3.100290298461914062e+00 7.534410338848829269e-03
-1.074235439300537109e+01 -5.167348384857177734e+00 2.413744181394577026e-01
-9.178718566894531250e+00 -4.830947399139404297e+00 1.104341447353363037e-01
-5.365582466125488281e+00 -3.076474666595458984e+00 7.556401658803224564e-03
-4.630827903747558594e+00 -1.991206407546997070e+00 1.496068686246871948e-01
-1.083169078826904297e+01 -5.128720283508300781e+00 2.426700741052627563e-01
-9.213515281677246094e+00 -4.777298927307128906e+00 1.104980334639549255e-01
-5.478377819061279297e+00 -3.096638202667236328e+00 7.688348181545734406e-03
-4.647562026977539062e+00 -1.964700818061828613e+00 1.497552096843719482e-01
-1.091551780700683594e+01 -5.086655616760253906e+00 2.438442558050155640e-01
-8.828564643859863281e+00 -4.509180068969726562e+00 1.055474951863288879e-01
-5.499896049499511719e+00 -3.064425468444824219e+00 7.692013867199420929e-03
-4.685374736785888672e+00 -1.946886181831359863e+00 1.505858600139617920e-01
-1.097742176055908203e+01 -5.033752441406250000e+00 2.445325553417205811e-01
-9.270552635192871094e+00 -4.663425922393798828e+00 1.104873791337013245e-01
-5.504570960998535156e+00 -3.022919416427612305e+00 7.672465872019529343e-03
-1.102632904052734375e+01 -4.974524497985839844e+00 2.449374496936798096e-01
-9.293616294860839844e+00 -4.603791713714599609e+00 1.104235053062438965e-01
-5.447381973266601562e+00 -2.948153734207153320e+00 7.567396853119134903e-03
-1.118640995025634766e+01 -4.964362621307373047e+00 2.478121519088745117e-01
-9.087119102478027344e+00 -4.432268142700195312e+00 1.076448112726211548e-01
-5.564193725585937500e+00 -2.967376947402954102e+00 7.704230956733226776e-03
-4.642072200775146484e+00 -2.026081800460815430e+00 1.025583222508430481e-01
-9.118651390075683594e+00 -4.378591537475585938e+00 1.076980456709861755e-01
-5.485806465148925781e+00 -2.882479429244995117e+00 7.571062538772821426e-03
-4.635122299194335938e+00 -1.989279866218566895e+00 1.021331846714019775e-01
-9.398479461669921875e+00 -4.442202091217041016e+00 1.106790229678153992e-01
-5.472306728363037109e+00 -2.832675218582153320e+00 7.528301328420639038e-03
-4.640793323516845703e+00 -1.958081245422363281e+00 1.019914746284484863e-01
-9.430091857910156250e+00 -4.386559009552001953e+00 1.107322424650192261e-01
-5.504729747772216797e+00 -2.806766748428344727e+00 7.549071218818426132e-03
-4.682273387908935547e+00 -1.941825151443481445e+00 1.026392951607704163e-01
-9.453193664550781250e+00 -4.326949596405029297e+00 1.106896623969078064e-01
-5.401205539703369141e+00 -2.712353706359863281e+00 7.384137250483036041e-03
-1.150193309783935547e+01 -4.687559604644775391e+00 2.514966428279876709e-01
-9.019126892089843750e+00 -4.061518669128417969e+00 1.053132712841033936e-01
-5.642738819122314453e+00 -2.790423870086669922e+00 7.690791506320238113e-03
-1.154440212249755859e+01 -4.622471809387207031e+00 2.518002986907958984e-01
-9.270614624023437500e+00 -4.106537818908691406e+00 1.079535633325576782e-01
-5.699314117431640625e+00 -2.775009870529174805e+00 7.744547910988330841e-03
-1.162185955047607422e+01 -4.570944309234619141e+00 2.528732419013977051e-01
-4.656986236572265625e+00 -2.028782367706298828e+00 5.408324673771858215e-02
-5.699100971221923828e+00 -2.731774806976318359e+00 7.721334695816040039e-03
-4.675353050231933594e+00 -2.005640029907226562e+00 2.390252649784088135e-01
-1.173922157287597656e+01 -4.534129142761230469e+00 2.548167407512664795e-01
-4.648206233978271484e+00 -1.991113424301147461e+00 5.383837595582008362e-02
-5.789011478424072266e+00 -2.731317281723022461e+00 7.820295169949531555e-03
-4.658118724822998047e+00 -1.964493632316589355e+00 2.375234365463256836e-01
-1.172942829132080078e+01 -4.447833538055419922e+00 2.540069520473480225e-01
-4.622551918029785156e+00 -1.946643590927124023e+00 5.340187996625900269e-02
-5.827428817749023438e+00 -2.705852508544921875e+00 7.849616929888725281e-03
-1.177898693084716797e+01 -4.384149551391601562e+00 2.544928193092346191e-01
-4.650115966796875000e+00 -1.924744725227355957e+00 5.358286947011947632e-02
-5.952159881591796875e+00 -2.719497919082641602e+00 7.995001971721649170e-03
-1.198597621917724609e+01 -4.377647399902343750e+00 2.583797574043273926e-01
-8.716053962707519531e+00 -3.545204877853393555e+00 1.001817584037780762e-01
-5.907624244689941406e+00 -2.655456304550170898e+00 7.913146167993545532e-03
-1.198155117034912109e+01 -4.292891979217529297e+00 2.577116787433624268e-01
-9.364412307739257812e+00 -3.742121219635009766e+00 1.073680073022842407e-01
-4.829041004180908203e+00 -2.135117053985595703e+00 6.450735498219728470e-03
-4.673898696899414062e+00 -2.034269809722900391e+00 1.913679689168930054e-01
-1.207463836669921875e+01 -4.242826461791992188e+00 2.591490447521209717e-01
-9.392783164978027344e+00 -3.686784267425537109e+00 1.074318960309028625e-01
-4.656805515289306641e+00 -2.024897098541259766e+00 6.203945726156234741e-03
-4.664243698120117188e+00 -1.996116995811462402e+00 1.904675811529159546e-01
-1.244357872009277344e+01 -4.286869049072265625e+00 2.664977610111236572e-01
-9.977846145629882812e+00 -3.845941781997680664e+00 1.138516142964363098e-01
-4.636960506439208984e+00 -1.982526063919067383e+00 6.161185447126626968e-03
-4.689299106597900391e+00 -1.972885370254516602e+00 1.909928023815155029e-01
-1.243744182586669922e+01 -4.199561595916748047e+00 2.658094763755798340e-01
-1.082892704010009766e+01 -4.097851276397705078e+00 1.232735961675643921e-01
-4.634287834167480469e+00 -1.947837352752685547e+00 6.141637917608022690e-03
-1.243544864654541016e+01 -4.114060878753662109e+00 2.652223706245422363e-01
-1.080699825286865234e+01 -4.013921260833740234e+00 1.227412819862365723e-01
-4.645227909088134766e+00 -1.918983221054077148e+00 6.140416022390127182e-03
-1.243667984008789062e+01 -4.029975891113281250e+00 2.647162675857543945e-01
-1.097516632080078125e+01 -3.999922275543212891e+00 1.243701651692390442e-01
-6.092164516448974609e+00 -2.473074674606323242e+00 8.032876066863536835e-03
-1.251835250854492188e+01 -3.971731662750244141e+00 2.659309208393096924e-01
-1.043361568450927734e+01 -3.730190515518188477e+00 1.179717332124710083e-01
-5.988330841064453125e+00 -2.388231039047241211e+00 7.876494899392127991e-03
-1.257686042785644531e+01 -3.905519723892211914e+00 2.666597366333007812e-01
-1.030155277252197266e+01 -3.611842393875122070e+00 1.162257418036460876e-01
-6.116467475891113281e+00 -2.395939826965332031e+00 8.025545626878738403e-03
-1.262163257598876953e+01 -3.834669828414916992e+00 2.671051025390625000e-01
-1.023179435729980469e+01 -3.517035245895385742e+00 1.151930540800094604e-01
-6.182386875152587891e+00 -2.378110647201538086e+00 8.092741481959819794e-03
-1.271776103973388672e+01 -3.778794765472412109e+00 2.686436772346496582e-01
-1.026076221466064453e+01 -3.456741809844970703e+00 1.152782142162322998e-01
-6.205281734466552734e+00 -2.343311071395874023e+00 8.103736676275730133e-03
-1.296345520019531250e+01 -3.765388488769531250e+00 2.733404040336608887e-01
-1.089519214630126953e+01 -3.596187829971313477e+00 1.221557408571243286e-01
-6.216730117797851562e+00 -2.304149389266967773e+00 8.100070990622043610e-03
-1.281607532501220703e+01 -3.637457847595214844e+00 2.697571218013763428e-01
-1.024341869354248047e+01 -3.311495780944824219e+00 1.146181523799896240e-01
-6.186581134796142578e+00 -2.249897480010986328e+00 8.042650297284126282e-03
-1.363686370849609375e+01 -3.780154943466186523e+00 2.865397632122039795e-01
-1.000233268737792969e+01 -3.165903091430664062e+00 1.117010638117790222e-01
-6.195560932159423828e+00 -2.210215091705322266e+00 8.036541752517223358e-03
-1.348801708221435547e+01 -3.649923801422119141e+00 2.829362452030181885e-01
-1.043133449554443359e+01 -3.231406688690185547e+00 1.162683293223381042e-01
-6.200510501861572266e+00 -2.169186115264892578e+00 8.025545626878738403e-03
-1.377019214630126953e+01 -3.635751008987426758e+00 2.883820235729217529e-01
-1.041747283935546875e+01 -3.157189607620239258e+00 1.158957108855247498e-01
-6.270458221435546875e+00 -2.150564670562744141e+00 8.098849095404148102e-03
-1.365669155120849609e+01 -3.516289234161376953e+00 2.855477929115295410e-01
-1.133401203155517578e+01 -3.359170198440551758e+00 1.258606463670730591e-01
-6.311025142669677734e+00 -2.121289253234863281e+00 8.134280331432819366e-03
-1.379146862030029297e+01 -3.460898876190185547e+00 2.879163920879364014e-01
-1.087034511566162109e+01 -3.149320840835571289e+00 1.204949170351028442e-01
-6.325821876525878906e+00 -2.083151102066040039e+00 8.136723190546035767e-03
-1.344824314117431641e+01 -3.287188291549682617e+00 2.803247272968292236e-01
-1.010339832305908203e+01 -2.860044956207275391e+00 1.117968782782554626e-01
-6.303270816802978516e+00 -2.032939910888671875e+00 8.091518655419349670e-03
-1.387472343444824219e+01 -3.301347017288208008e+00 2.887868881225585938e-01
-1.014678001403808594e+01 -2.805191993713378906e+00 1.120843291282653809e-01
-6.315625667572021484e+00 -1.994225621223449707e+00 8.091518655419349670e-03
-1.401550006866455078e+01 -3.244108200073242188e+00 2.912971973419189453e-01
-1.118133926391601562e+01 -3.017480373382568359e+00 1.233055368065834045e-01
-6.507362365722656250e+00 -2.010942935943603516e+00 8.321204222738742828e-03
-1.396003532409667969e+01 -3.141149759292602539e+00 2.897383868694305420e-01
-1.028197288513183594e+01 -2.707197427749633789e+00 1.132021918892860413e-01
-6.353023529052734375e+00 -1.920624375343322754e+00 8.108623325824737549e-03
-1.397318649291992188e+01 -3.054152488708496094e+00 2.896169126033782959e-01
-1.041655063629150391e+01 -2.674394607543945312e+00 1.145010367035865784e-01
-6.516206264495849609e+00 -1.926400303840637207e+00 8.301657624542713165e-03
-1.420585060119628906e+01 -3.013797521591186523e+00 2.940504550933837891e-01
-1.078003883361816406e+01 -2.697322607040405273e+00 1.183124259114265442e-01
-6.380917549133300781e+00 -1.843906402587890625e+00 8.114731870591640472e-03
-1.422309684753417969e+01 -2.926373958587646484e+00 2.940302193164825439e-01
-1.093628406524658203e+01 -2.665220260620117188e+00 1.198454946279525757e-01
-6.463327884674072266e+00 -1.824826002120971680e+00 8.205140940845012665e-03
-1.449473476409912109e+01 -2.889675140380859375e+00 2.992735207080841064e-01
-1.109350776672363281e+01 -2.631531715393066406e+00 1.213892027735710144e-01
-6.351007461547851562e+00 -1.751110553741455078e+00 8.048758842051029205e-03
-1.474485015869140625e+01 -2.845582962036132812e+00 3.040714561939239502e-01
-1.099057674407958984e+01 -2.535985469818115234e+00 1.200903505086898804e-01
-6.334594726562500000e+00 -1.704831838607788086e+00 8.014550432562828064e-03
-1.444949436187744141e+01 -2.696727275848388672e+00 2.976337075233459473e-01
-1.021268367767333984e+01 -2.290585041046142578e+00 1.114349067211151123e-01
-6.413608551025390625e+00 -1.683962106704711914e+00 8.101293817162513733e-03
-1.451693439483642578e+01 -2.617240428924560547e+00 2.986864149570465088e-01
-1.084793567657470703e+01 -2.363249063491821289e+00 1.182059571146965027e-01
-6.514883041381835938e+00 -1.667890548706054688e+00 8.216136135160923004e-03
-1.469721508026123047e+01 -2.556732654571533203e+00 3.020672500133514404e-01
-1.027328586578369141e+01 -2.172119855880737305e+00 1.117968782782554626e-01
-6.584180355072021484e+00 -1.642650485038757324e+00 8.290661498904228210e-03
-1.498773002624511719e+01 -2.512624025344848633e+00 3.077154457569122314e-01
-1.061653423309326172e+01 -2.176727056503295898e+00 1.153846830129623413e-01
-6.473641395568847656e+00 -1.572942495346069336e+00 8.139166980981826782e-03
-1.094746303558349609e+01 -2.174668550491333008e+00 1.188340857625007629e-01
-6.567835807800292969e+00 -1.553213596343994141e+00 8.245457895100116730e-03
-1.498186779022216797e+01 -2.322997331619262695e+00 3.069866299629211426e-01
-1.229213428497314453e+01 -2.363476514816284180e+00 1.332704871892929077e-01
-6.316062927246093750e+00 -1.452808856964111328e+00 7.918033748865127563e-03
-1.276649379730224609e+01 -2.373548984527587891e+00 1.382529586553573608e-01
-6.829402446746826172e+00 -1.526826024055480957e+00 8.549667894840240479e-03
-1.207219409942626953e+01 -2.167916297912597656e+00 1.305876076221466064e-01
-6.478044986724853516e+00 -1.406595468521118164e+00 8.098849095404148102e-03
-1.148130035400390625e+01 -1.989163041114807129e+00 1.240614280104637146e-01
-6.827075958251953125e+00 -1.438573837280273438e+00 8.524011820554733276e-03
-1.089658164978027344e+01 -1.819063782691955566e+00 1.176204085350036621e-01
-6.740737438201904297e+00 -1.377239108085632324e+00 8.405503816902637482e-03
-1.095986461639404297e+01 -1.760574936866760254e+00 1.181846633553504944e-01
-6.846177577972412109e+00 -1.355075240135192871e+00 8.526455610990524292e-03
-1.152387523651123047e+01 -1.778712987899780273e+00 1.241465955972671509e-01
-6.799363136291503906e+00 -1.302506327629089355e+00 8.458038792014122009e-03
-1.165524959564208984e+01 -1.725839614868164062e+00 1.254454553127288818e-01
-7.012732028961181641e+00 -1.298823118209838867e+00 8.713380433619022369e-03
-1.266654872894287109e+01 -1.796232700347900391e+00 1.362088620662689209e-01
-7.047147750854492188e+00 -1.260523438453674316e+00 8.746366947889328003e-03
-1.150115585327148438e+01 -1.559041619300842285e+00 1.235716938972473145e-01
-7.050807476043701172e+00 -1.216579079627990723e+00 8.741479367017745972e-03
-1.198453140258789062e+01 -1.549739718437194824e+00 1.286606341600418091e-01
-7.047288894653320312e+00 -1.171489477157592773e+00 8.728041313588619232e-03
-1.196999645233154297e+01 -1.473243236541748047e+00 1.284051239490509033e-01
-7.040519714355468750e+00 -1.126015067100524902e+00 8.710936643183231354e-03
-1.277733135223388672e+01 -1.493079066276550293e+00 1.369647532701492310e-01
-7.044331073760986328e+00 -1.082338452339172363e+00 8.707270957529544830e-03
-1.269680309295654297e+01 -1.404754281044006348e+00 1.360065788030624390e-01
-6.900464057922363281e+00 -1.016933798789978027e+00 8.521568030118942261e-03
-1.316565322875976562e+01 -1.374909281730651855e+00 1.409358233213424683e-01
-7.086788654327392578e+00 -1.000003933906555176e+00 8.743923157453536987e-03
-1.365151500701904297e+01 -1.341023564338684082e+00 1.460460424423217773e-01
-7.104682922363281250e+00 -9.581050872802734375e-01 8.758584037423133850e-03
-1.293160438537597656e+01 -1.190239071846008301e+00 1.382635980844497681e-01
-7.113403797149658203e+00 -9.148762226104736328e-01 8.762249723076820374e-03
-1.224525451660156250e+01 -1.051336050033569336e+00 1.308537721633911133e-01
-7.146676063537597656e+00 -8.746132254600524902e-01 8.796457201242446899e-03
-1.234716701507568359e+01 -9.838054180145263672e-01 1.318758130073547363e-01
-7.040656089782714844e+00 -8.178228735923767090e-01 8.659623563289642334e-03
-1.228416061401367188e+01 -9.029680490493774414e-01 1.311412155628204346e-01
-7.090272426605224609e+00 -7.795246243476867676e-01 8.714601397514343262e-03
-1.255585098266601562e+01 -8.455150723457336426e-01 1.339837908744812012e-01
-6.901957035064697266e+00 -7.159873247146606445e-01 8.477585390210151672e-03
-1.296901607513427734e+01 -7.934319972991943359e-01 1.383381187915802002e-01
-7.307317256927490234e+00 -7.127467393875122070e-01 8.969943970441818237e-03
-1.253632640838623047e+01 -6.897786259651184082e-01 1.336750388145446777e-01
-7.296614646911621094e+00 -6.665318608283996582e-01 8.951617404818534851e-03
-1.288988590240478516e+01 -6.299272775650024414e-01 1.374012380838394165e-01
-7.298574447631835938e+00 -6.215784549713134766e-01 8.949173614382743835e-03
-1.335506153106689453e+01 -5.705426335334777832e-01 1.423198431730270386e-01
-7.284307003021240234e+00 -5.753661394119262695e-01 8.927182294428348541e-03
-1.160958003997802734e+01 -4.246260821819305420e-01 1.236888095736503601e-01
-7.304655551910400391e+00 -5.318942666053771973e-01 8.947952650487422943e-03
-1.313517379760742188e+01 -3.997382819652557373e-01 1.399137675762176514e-01
-7.305786132812500000e+00 -4.869307577610015869e-01 8.945508860051631927e-03
-1.316936874389648438e+01 -3.199119567871093750e-01 1.402544677257537842e-01
-7.304643154144287109e+00 -4.418525993824005127e-01 8.940622210502624512e-03
-1.274317836761474609e+01 -2.313322424888610840e-01 1.356978416442871094e-01
-7.299229145050048828e+00 -3.965898156166076660e-01 8.930847980082035065e-03
-1.377522563934326172e+01 -1.655241996049880981e-01 1.466741859912872314e-01
-7.219619750976562500e+00 -3.478488326072692871e-01 8.830665610730648041e-03
-1.372998523712158203e+01 -8.072745054960250854e-02 1.461844593286514282e-01
-7.327524662017822266e+00 -3.079950511455535889e-01 8.960168808698654175e-03
-1.335724353790283203e+01 3.424065653234720230e-03 1.422133743762969971e-01
-7.353260993957519531e+00 -2.638891637325286865e-01 8.989490568637847900e-03
-7.468691349029541016e+00 -2.221548408269882202e-01 9.128767997026443481e-03
-7.449919223785400391e+00 -1.758516728878021240e-01 9.104333817958831787e-03
-7.377869606018066406e+00 -1.288616955280303955e-01 9.015147574245929718e-03
-7.245530128479003906e+00 -8.208288997411727905e-02 8.852656930685043335e-03
-7.483893871307373047e+00 -3.885937854647636414e-02 9.143428876996040344e-03
-7.896076679229736328e+00 8.667223453521728516e-01 2.357576638460159302e-01
-1.280846786499023438e+01 4.750516712665557861e-01 1.364643722772598267e-01
-7.498991489410400391e+00 7.075815461575984955e-03 9.161755442619323730e-03
-7.891602993011474609e+00 9.152705669403076172e-01 2.357873171567916870e-01
-1.280531215667724609e+01 5.536340475082397461e-01 1.364643722772598267e-01
-7.501806735992431641e+00 5.310986563563346863e-02 9.165420196950435638e-03
-7.781315326690673828e+00 1.028392985463142395e-01 9.507505223155021667e-03
-7.645562648773193359e+00 1.479703485965728760e-01 9.342570789158344269e-03
-7.619519233703613281e+00 1.942427307367324829e-01 9.312028065323829651e-03
-7.873703002929687500e+00 8.208736181259155273e-01 1.602954566478729248e-01
-7.601192474365234375e+00 2.404540777206420898e-01 9.291258640587329865e-03
-7.871499538421630859e+00 8.694996833801269531e-01 1.603561937808990479e-01
-7.940330982208251953e+00 2.999623715877532959e-01 9.707869030535221100e-03
-7.836224079132080078e+00 9.143058657646179199e-01 1.597488522529602051e-01
-7.977303028106689453e+00 3.503890335559844971e-01 9.755516424775123596e-03
-7.933055400848388672e+00 3.972298204898834229e-01 9.704203344881534576e-03
-7.971404075622558594e+00 4.482002854347229004e-01 9.754293598234653473e-03
-7.984472274780273438e+00 4.980996549129486084e-01 9.773841127753257751e-03
-7.920050621032714844e+00 8.312079906463623047e-01 8.478719741106033325e-02
-7.951336383819580078e+00 5.450305342674255371e-01 9.737189859151840210e-03
-7.883993148803710938e+00 8.763643503189086914e-01 8.445715904235839844e-02
-7.931887149810791016e+00 5.926166772842407227e-01 9.717642329633235931e-03
-7.867543220520019531e+00 9.234408736228942871e-01 8.434005081653594971e-02
-7.794537544250488281e+00 6.304711699485778809e-01 9.553929790854454041e-03
-7.930991172790527344e+00 6.905156970024108887e-01 9.726194664835929871e-03
-8.140676498413085938e+00 7.591287493705749512e-01 9.988866746425628662e-03
-8.011478424072265625e+00 7.966951727867126465e-01 9.836150333285331726e-03
-7.877158641815185547e+00 8.321799039840698242e-01 9.677325375378131866e-03
-7.848798751831054688e+00 8.751392364501953125e-01 2.964871823787689209e-01
-7.852028369903564453e+00 8.782743811607360840e-01 9.652890264987945557e-03
-7.880257129669189453e+00 9.304236769676208496e-01 9.694429114460945129e-03
-8.032185554504394531e+00 9.983707070350646973e-01 9.888685308396816254e-03
-8.443366050720214844e+00 1.102128028869628906e+00 1.040303241461515427e-02
-8.346284866333007812e+00 1.141582965850830078e+00 1.029185578227043152e-02
-8.564826011657714844e+00 1.225056290626525879e+00 1.057040970772504807e-02
-8.645171165466308594e+00 1.290727972984313965e+00 1.067914348095655441e-02
-8.434526443481445312e+00 1.312234997749328613e+00 1.042868942022323608e-02
-8.509237289428710938e+00 1.377385973930358887e+00 1.053131464868783951e-02
-8.675173759460449219e+00 1.458926081657409668e+00 1.074756123125553131e-02
-8.717284202575683594e+00 1.521066665649414062e+00 1.081109046936035156e-02
-9.005951881408691406e+00 1.628439903259277344e+00 1.118127536028623581e-02
-8.765784263610839844e+00 1.640620350837707520e+00 1.089539006352424622e-02
-8.588648796081542969e+00 1.662076234817504883e+00 1.068769581615924835e-02
-8.853837966918945312e+00 1.769824266433715820e+00 1.103100180625915527e-02
-8.957399368286132812e+00 1.847754478454589844e+00 1.117394492030143738e-02
-8.872533798217773438e+00 1.887078642845153809e+00 1.108231488615274429e-02
-8.852973937988281250e+00 1.939771771430969238e+00 1.107254158705472946e-02
-9.063317298889160156e+00 2.044220924377441406e+00 1.135109551250934601e-02
-9.071060180664062500e+00 2.104539871215820312e+00 1.137675158679485321e-02
-9.086185455322265625e+00 2.166886806488037109e+00 1.141218189150094986e-02
-9.072718620300292969e+00 2.222597599029541016e+00 1.141218189150094986e-02
-9.421615600585937500e+00 2.369441747665405273e+00 1.186910923570394516e-02
-9.161923408508300781e+00 2.363997459411621094e+00 1.156001165509223938e-02
-9.289355278015136719e+00 2.457768678665161133e+00 1.173960510641336441e-02
-9.398604393005371094e+00 2.548480749130249023e+00 1.189720910042524338e-02
-9.667992591857910156e+00 2.685317516326904297e+00 1.225884072482585907e-02
-9.732130050659179688e+00 2.767565011978149414e+00 1.236146595329046249e-02
-9.732249259948730469e+00 2.832257986068725586e+00 1.238345820456743240e-02
-9.474120140075683594e+00 2.820307254791259766e+00 1.207680348306894302e-02
-9.180160522460937500e+00 2.794233322143554688e+00 1.172372326254844666e-02
-9.854162216186523438e+00 3.065574407577514648e+00 1.260825619101524353e-02
-9.876146316528320312e+00 3.139005899429321289e+00 1.266079116612672806e-02
-1.009163188934326172e+01 3.275805950164794922e+00 1.296255830675363541e-02
-1.026973152160644531e+01 3.403412103652954102e+00 1.321789901703596115e-02
-1.018518733978271484e+01 3.444895505905151367e+00 1.313604414463043213e-02
-1.023286533355712891e+01 3.531138420104980469e+00 1.322523038834333420e-02
-1.021383476257324219e+01 3.594855546951293945e+00 1.322889421135187149e-02
-1.037324237823486328e+01 3.722650051116943359e+00 1.346468925476074219e-02
-1.107803440093994141e+01 4.052477836608886719e+00 1.441152952611446381e-02
-1.082151889801025391e+01 4.034097194671630859e+00 1.410976238548755646e-02
-1.081619453430175781e+01 4.107876777648925781e+00 1.413541845977306366e-02
-9.801943778991699219e+00 4.630806922912597656e+00 2.195104360580444336e-01
-1.137742328643798828e+01 4.401093959808349609e+00 1.490388717502355576e-02
-9.767937660217285156e+00 4.688267707824707031e+00 2.193889766931533813e-01
-1.127391052246093750e+01 4.440769195556640625e+00 1.480370480567216873e-02
-1.237044525146484375e+01 4.960587024688720703e+00 1.628322154283523560e-02
-1.323507499694824219e+01 5.401807785034179688e+00 1.746463403105735779e-02
-1.306038284301757812e+01 5.424231052398681641e+00 1.727770827710628510e-02
-1.202280521392822266e+01 5.080022811889648438e+00 1.594602316617965698e-02
-9.790269851684570312e+00 4.633524417877197266e+00 1.153208091855049133e-01
-9.757148742675781250e+00 4.691342830657958984e+00 1.152675747871398926e-01
-1.350994110107421875e+01 5.904805183410644531e+00 1.801319047808647156e-02
-1.428493309020996094e+01 6.348209381103515625e+00 1.909808628261089325e-02
-1.166486167907714844e+01 5.269797801971435547e+00 1.563814654946327209e-02
-1.343167972564697266e+01 6.167500972747802734e+00 1.805717311799526215e-02
-9.748861312866210938e+00 4.549076557159423828e+00 1.314337365329265594e-02
-9.765944480895996094e+00 4.630228996276855469e+00 1.320446003228425980e-02
-9.734647750854492188e+00 4.688762664794921875e+00 1.320079527795314789e-02
-3.061665296554565430e+00 2.734741687774658203e+00 1.218392774462699890e-01
-3.046310424804687500e+00 2.754817008972167969e+00 1.218986064195632935e-01
-2.988063812255859375e+00 2.735658407211303711e+00 1.202372834086418152e-01
-3.002011775970458984e+00 2.782479763031005859e+00 1.214832738041877747e-01
-3.011042833328247070e+00 2.726687908172607422e+00 8.225315064191818237e-02
-2.974357604980468750e+00 2.726869821548461914e+00 8.170654624700546265e-02
-3.005910634994506836e+00 2.725802421569824219e+00 4.320271685719490051e-02
-3.026695728302001953e+00 2.778683662414550781e+00 4.374567791819572449e-02
-5.199942111968994141e+00 5.324568271636962891e+00 1.506995856761932373e-01
-3.073384284973144531e+00 2.722778558731079102e+00 5.016424693167209625e-03
-3.068076610565185547e+00 2.749929428100585938e+00 1.546775400638580322e-01
-5.180362224578857422e+00 5.370046138763427734e+00 1.510842293500900269e-01
-3.055130720138549805e+00 2.740249633789062500e+00 5.013980902731418610e-03
-3.057065725326538086e+00 2.774075031280517578e+00 1.549776643514633179e-01
-3.044181823730468750e+00 2.764322042465209961e+00 5.023754667490720749e-03
-3.021589756011962891e+00 2.775879621505737305e+00 1.540397852659225464e-01
-3.027162790298461914e+00 2.782948732376098633e+00 5.023754667490720749e-03
-3.010030031204223633e+00 2.801470518112182617e+00 5.023754667490720749e-03
-5.142751216888427734e+00 5.338395118713378906e+00 7.892107963562011719e-02
-5.320382595062255859e+00 5.396252155303955078e+00 9.258272126317024231e-03
-5.181120872497558594e+00 5.319904327392578125e+00 9.072568267583847046e-03
-5.169873237609863281e+00 5.373935222625732422e+00 9.110442362725734711e-03
-4.924619942903518677e-02 7.201696634292602539e-01 4.073691740632057190e-02
-4.494537040591239929e-02 7.264618277549743652e-01 1.473795063793659210e-02
-2.706633880734443665e-02 7.263469696044921875e-01 1.471770647913217545e-02
-4.355589300394058228e-02 7.058773040771484375e-01 3.322793543338775635e-02
-4.494120180606842041e-02 7.345849275588989258e-01 7.835682481527328491e-03
-9.280991740524768829e-03 7.401253581047058105e-01 3.477669507265090942e-02
