-5.280633926391601562e+00 -2.942257165908813477e+00 7.385359145700931549e-03
-8.912919044494628906e+00 -3.703532695770263672e+00 2.864572703838348389e-01
-7.759353160858154297e+00 -3.558090686798095703e+00 1.728470027446746826e-01
-6.892617702484130859e+00 -3.467237949371337891e+00 8.214691281318664551e-02
-5.274044990539550781e+00 -2.896322488784790039e+00 7.351150736212730408e-03
-8.483889579772949219e+00 -3.464370727539062500e+00 2.719801366329193115e-01
-7.760078430175781250e+00 -3.500956773757934570e+00 1.723813861608505249e-01
-6.994404792785644531e+00 -3.464828252792358398e+00 8.310507982969284058e-02
-5.372627735137939453e+00 -2.907696247100830078e+00 7.463549729436635971e-03
-8.747113227844238281e+00 -3.509391546249389648e+00 2.797230482101440430e-01
-7.817967891693115234e+00 -3.469497919082641602e+00 1.731911599636077881e-01
-7.021823883056640625e+00 -3.424914598464965820e+00 8.317960053682327271e-02
-4.973009109497070312e+00 -2.652098894119262695e+00 6.885671522468328476e-03
-8.825207710266113281e+00 -3.478010177612304688e+00 2.815326750278472900e-01
-7.874845981597900391e+00 -3.437060356140136719e+00 1.739806979894638062e-01
-6.952566146850585938e+00 -3.338481187820434570e+00 8.211497217416763306e-02
-5.256529808044433594e+00 -2.762007713317871094e+00 7.254634052515029907e-03
-8.817484855651855469e+00 -3.412610054016113281e+00 2.806130349636077881e-01
-7.897624492645263672e+00 -3.389465093612670898e+00 1.740211844444274902e-01
-6.806574821472167969e+00 -3.217135190963745117e+00 8.015605062246322632e-02
-5.271602153778076172e+00 -2.728782892227172852e+00 7.252190727740526199e-03
-8.851339340209960938e+00 -3.363413333892822266e+00 2.810283601284027100e-01
-7.900771141052246094e+00 -3.333557605743408203e+00 1.736365407705307007e-01
-6.962184429168701172e+00 -3.238571882247924805e+00 8.175300061702728271e-02
-5.178668498992919922e+00 -2.640513658523559570e+00 7.101917639374732971e-03
-9.074102401733398438e+00 -3.384490728378295898e+00 2.874362468719482422e-01
-7.991264820098876953e+00 -3.314125061035156250e+00 1.751751303672790527e-01
-6.991016864776611328e+00 -3.199953556060791016e+00 8.185946196317672729e-02
-5.293074131011962891e+00 -2.658052921295166016e+00 7.236308418214321136e-03
-8.649771690368652344e+00 -3.165902137756347656e+00 2.733744382858276367e-01
-8.017930030822753906e+00 -3.267670392990112305e+00 1.753168404102325439e-01
-7.011432170867919922e+00 -3.157407999038696289e+00 8.187010884284973145e-02
-5.428503036499023438e+00 -2.684480905532836914e+00 7.398798130452632904e-03
-8.539211273193359375e+00 -3.066153049468994141e+00 2.692805230617523193e-01
-8.037829399108886719e+00 -3.218411922454833984e+00 1.753168404102325439e-01
-7.188840866088867188e+00 -3.184389352798461914e+00 8.371192216873168945e-02
-4.916209697723388672e+00 -2.393714189529418945e+00 6.680421065539121628e-03
-8.552206993103027344e+00 -3.011707544326782227e+00 2.691025137901306152e-01
-8.065799713134765625e+00 -3.172325372695922852e+00 1.754990369081497192e-01
-7.199994087219238281e+00 -3.136625289916992188e+00 8.361610025167465210e-02
-5.567444324493408203e+00 -2.668667316436767578e+00 7.542962208390235901e-03
-8.055267333984375000e+00 -3.111247539520263672e+00 1.748511940240859985e-01
-7.001263141632080078e+00 -2.999072790145874023e+00 8.109293133020401001e-02
-5.304257392883300781e+00 -2.502604961395263672e+00 7.165447808802127838e-03
-8.109729766845703125e+00 -3.075233697891235352e+00 1.756204813718795776e-01
-7.213060855865478516e+00 -3.037555456161499023e+00 8.332864940166473389e-02
-5.226092815399169922e+00 -2.426633596420288086e+00 7.039609365165233612e-03
-8.172485351562500000e+00 -3.041806697845458984e+00 1.765719801187515259e-01
-7.205693244934082031e+00 -2.982532024383544922e+00 8.303055167198181152e-02
-5.401875972747802734e+00 -2.468077421188354492e+00 7.255855482071638107e-03
-8.214474678039550781e+00 -3.000179052352905273e+00 1.770780980587005615e-01
-7.160872936248779297e+00 -2.912643671035766602e+00 8.230660855770111084e-02
-5.548259258270263672e+00 -2.493923187255859375e+00 7.431784644722938538e-03
-9.153037071228027344e+00 -2.910933732986450195e+00 2.850629389286041260e-01
-8.226140022277832031e+00 -2.947358846664428711e+00 1.769363880157470703e-01
-7.256608009338378906e+00 -2.899819612503051758e+00 8.320089429616928101e-02
-5.604614257812500000e+00 -2.478029727935791016e+00 7.486762944608926773e-03
-8.242183685302734375e+00 -2.896165847778320312e+00 1.768959015607833862e-01
-7.329181671142578125e+00 -2.876795053482055664e+00 8.382903039455413818e-02
-5.621547698974609375e+00 -2.444391250610351562e+00 7.489206269383430481e-03
-8.268305778503417969e+00 -2.848469018936157227e+00 1.770780980587005615e-01
-7.358825206756591797e+00 -2.836445093154907227e+00 8.396743237972259521e-02
-5.631843090057373047e+00 -2.407886743545532227e+00 7.483097724616527557e-03
-8.296995162963867188e+00 -2.801520347595214844e+00 1.773210316896438599e-01
-7.464001178741455078e+00 -2.824505805969238281e+00 8.496817946434020996e-02
-5.452917098999023438e+00 -2.291915178298950195e+00 7.226534653455018997e-03
-8.325419425964355469e+00 -2.754326343536376953e+00 1.775639653205871582e-01
-7.527123451232910156e+00 -2.795714139938354492e+00 8.548985421657562256e-02
-5.466876983642578125e+00 -2.258413553237915039e+00 7.226534653455018997e-03
-8.356429100036621094e+00 -2.707813501358032227e+00 1.778676211833953857e-01
-7.829741954803466797e+00 -2.853565692901611328e+00 8.872633427381515503e-02
-5.677989959716796875e+00 -2.304943323135375977e+00 7.486762944608926773e-03
-8.392899513244628906e+00 -2.662837982177734375e+00 1.782927513122558594e-01
-7.837687492370605469e+00 -2.802103281021118164e+00 8.861986547708511353e-02
-5.551768779754638672e+00 -2.214123725891113281e+00 7.302281446754932404e-03
-8.429131507873535156e+00 -2.617516517639160156e+00 1.787178814411163330e-01
-7.893422126770019531e+00 -2.767524242401123047e+00 8.905636519193649292e-02
-5.651843070983886719e+00 -2.213937282562255859e+00 7.415902335196733475e-03
-8.454599380493164062e+00 -2.568653345108032227e+00 1.789203286170959473e-01
-7.831767082214355469e+00 -2.692059755325317383e+00 8.817272633314132690e-02
-5.572921276092529297e+00 -2.143674135208129883e+00 7.294951006770133972e-03
-8.476910591125488281e+00 -2.518722057342529297e+00 1.790620386600494385e-01
-7.782752037048339844e+00 -2.621926546096801758e+00 8.743812143802642822e-02
-5.493353366851806641e+00 -2.074464321136474609e+00 7.173999678343534470e-03
-8.545011520385742188e+00 -2.481999397277832031e+00 1.801754981279373169e-01
-8.068367004394531250e+00 -2.663134813308715820e+00 9.046167880296707153e-02
-5.522856712341308594e+00 -2.046974420547485352e+00 7.195990998297929764e-03
-8.562965393066406250e+00 -2.430340528488159180e+00 1.802362352609634399e-01
-8.107391357421875000e+00 -2.620960235595703125e+00 9.071719646453857422e-02
-5.892429828643798828e+00 -2.142922401428222656e+00 7.660248782485723495e-03
-8.595058441162109375e+00 -2.382560729980468750e+00 1.806006282567977905e-01
-8.107113838195800781e+00 -2.566035032272338867e+00 9.053620696067810059e-02
-5.853665351867675781e+00 -2.088246583938598633e+00 7.593053393065929413e-03
-8.625923156738281250e+00 -2.334217309951782227e+00 1.809447854757308960e-01
-8.057755470275878906e+00 -2.496122121810913086e+00 8.981225639581680298e-02
-5.744604587554931641e+00 -2.009692192077636719e+00 7.435450330376625061e-03
-8.698082923889160156e+00 -2.296559333801269531e+00 1.821594387292861938e-01
-8.100670814514160156e+00 -2.455044031143188477e+00 9.012099355459213257e-02
-5.889255523681640625e+00 -2.019824504852294922e+00 7.606492377817630768e-03
-8.721693038940429688e+00 -2.245638608932495117e+00 1.823618859052658081e-01
-8.193239212036132812e+00 -2.428308963775634766e+00 9.098334610462188721e-02
-5.502478122711181641e+00 -1.849516868591308594e+00 7.092143874615430832e-03
-8.752761840820312500e+00 -2.196461200714111328e+00 1.827262789011001587e-01
-8.271373748779296875e+00 -2.396355390548706055e+00 9.168600291013717651e-02
-5.784422397613525391e+00 -1.904863238334655762e+00 7.440336979925632477e-03
-8.772872924804687500e+00 -2.144375801086425781e+00 1.828679889440536499e-01
-8.279187202453613281e+00 -2.343651771545410156e+00 9.161148220300674438e-02
-5.823601722717285156e+00 -1.878236532211303711e+00 7.475767284631729126e-03
-8.809208869934082031e+00 -2.096060276031494141e+00 1.833538562059402466e-01
-8.301122665405273438e+00 -2.294939041137695312e+00 9.169665724039077759e-02
-5.843598842620849609e+00 -1.845178127288818359e+00 7.486762944608926773e-03
-8.844307899475097656e+00 -2.047154188156127930e+00 1.838195025920867920e-01
-7.995497703552246094e+00 -2.157725095748901367e+00 8.817272633314132690e-02
-6.142392158508300781e+00 -1.898157835006713867e+00 7.854503579437732697e-03
-8.875234603881835938e+00 -1.997017979621887207e+00 1.842041313648223877e-01
-8.358634948730468750e+00 -2.200791358947753906e+00 9.202668070793151855e-02
-6.233371734619140625e+00 -1.884451627731323242e+00 7.955906912684440613e-03
-9.020157814025878906e+00 -1.971557378768920898e+00 1.869573742151260376e-01
-8.237356185913085938e+00 -2.114897727966308594e+00 9.054684638977050781e-02
-6.310027599334716797e+00 -1.865447163581848145e+00 8.038984611630439758e-03
-9.016436576843261719e+00 -1.912853837013244629e+00 1.866334676742553711e-01
-8.038709640502929688e+00 -2.011402130126953125e+00 8.822595328092575073e-02
-6.073496341705322266e+00 -1.755070328712463379e+00 7.723778951913118362e-03
-9.023107528686523438e+00 -1.856486558914184570e+00 1.865322440862655640e-01
-8.349153518676757812e+00 -2.034725427627563477e+00 9.149437397718429565e-02
-5.974439620971679688e+00 -1.686795592308044434e+00 7.584501057863235474e-03
-9.061782836914062500e+00 -1.806560039520263672e+00 1.870990842580795288e-01
-8.435424804687500000e+00 -2.000998020172119141e+00 9.230348467826843262e-02
-6.022274017333984375e+00 -1.660471677780151367e+00 7.632148452103137970e-03
-9.141414642333984375e+00 -1.764185667037963867e+00 1.885161995887756348e-01
-8.639489173889160156e+00 -1.993491411209106445e+00 9.440081566572189331e-02
-6.160779476165771484e+00 -1.658052921295166016e+00 7.794638630002737045e-03
-9.123564720153808594e+00 -1.702742338180541992e+00 1.879291087388992310e-01
-8.596920013427734375e+00 -1.928188085556030273e+00 9.380462020635604858e-02
-6.180509090423583984e+00 -1.622759461402893066e+00 7.806856185197830200e-03
-9.185006141662597656e+00 -1.655953526496887207e+00 1.889818161725997925e-01
-8.570484161376953125e+00 -1.867100954055786133e+00 9.338941425085067749e-02
-6.313381671905517578e+00 -1.616303682327270508e+00 7.962015457451343536e-03
-9.207798957824707031e+00 -1.601791858673095703e+00 1.892450004816055298e-01
-8.656131744384765625e+00 -1.830198764801025391e+00 9.419853240251541138e-02
-6.295042991638183594e+00 -1.570515275001525879e+00 7.926586084067821503e-03
-9.287462234497070312e+00 -1.557000398635864258e+00 1.906823515892028809e-01
-8.564343452453613281e+00 -1.755962848663330078e+00 9.308066219091415405e-02
-6.172406196594238281e+00 -1.499749422073364258e+00 7.760430220514535904e-03
-9.367907524108886719e+00 -1.511450290679931641e+00 1.921399533748626709e-01
-8.765228271484375000e+00 -1.741176605224609375e+00 9.514605253934860229e-02
-6.221391677856445312e+00 -1.471283793449401855e+00 7.810520939528942108e-03
-9.436285018920898438e+00 -1.463132977485656738e+00 1.933546215295791626e-01
-8.828772544860839844e+00 -1.697556853294372559e+00 9.572095423936843872e-02
-6.316062927246093750e+00 -1.452808856964111328e+00 7.918033748865127563e-03
-9.565731048583984375e+00 -1.423154830932617188e+00 1.958244442939758301e-01
-8.938314437866210938e+00 -1.661813139915466309e+00 9.679622948169708252e-02
-6.490762710571289062e+00 -1.451117515563964844e+00 8.125727996230125427e-03
-9.634660720825195312e+00 -1.373038172721862793e+00 1.970593482255935669e-01
-8.954249382019042969e+00 -1.607997894287109375e+00 9.686011075973510742e-02
-6.479022026062011719e+00 -1.406807661056518555e+00 8.100070990622043610e-03
-9.659745216369628906e+00 -1.316189885139465332e+00 1.974035054445266724e-01
-8.921580314636230469e+00 -1.545685291290283203e+00 9.640231728553771973e-02
-6.486553668975830078e+00 -1.366820454597473145e+00 8.098849095404148102e-03
-9.699365615844726562e+00 -1.261018753051757812e+00 1.980513185262680054e-01
-8.943718910217285156e+00 -1.493054866790771484e+00 9.654072672128677368e-02
-6.782867431640625000e+00 -1.385846972465515137e+00 8.458038792014122009e-03
-9.719820022583007812e+00 -1.203077435493469238e+00 1.983145028352737427e-01
-9.000101089477539062e+00 -1.445761680603027344e+00 9.705173969268798828e-02
-6.773585796356201172e+00 -1.340706944465637207e+00 8.436047472059726715e-03
-9.907737731933593750e+00 -1.164658665657043457e+00 2.019989937543869019e-01
-9.007814407348632812e+00 -1.390358448028564453e+00 9.704110026359558105e-02
-6.240524768829345703e+00 -1.195453524589538574e+00 7.762873545289039612e-03
-9.979284286499023438e+00 -1.111034750938415527e+00 2.033148705959320068e-01
-9.047828674316406250e+00 -1.339748263359069824e+00 9.738177806138992310e-02
-6.274291038513183594e+00 -1.162057042121887207e+00 7.795860990881919861e-03
-1.007142543792724609e+01 -1.058771610260009766e+00 2.050559073686599731e-01
-9.067759513854980469e+00 -1.285891413688659668e+00 9.750953316688537598e-02
-6.810897350311279297e+00 -1.218265295028686523e+00 8.453151211142539978e-03
-1.003793525695800781e+01 -9.930175542831420898e-01 2.042461335659027100e-01
-9.162676811218261719e+00 -1.242048621177673340e+00 9.844641387462615967e-02
-6.536409378051757812e+00 -1.127822399139404297e+00 8.103736676275730133e-03
-9.965191841125488281e+00 -9.241139888763427734e-01 2.026468068361282349e-01
-9.192934036254882812e+00 -1.188753485679626465e+00 9.869127720594406128e-02
-6.222605705261230469e+00 -1.034400224685668945e+00 7.706673815846443176e-03
-9.976651191711425781e+00 -8.634686470031738281e-01 2.027682960033416748e-01
-9.233798980712890625e+00 -1.136477470397949219e+00 9.905324876308441162e-02
-6.607029438018798828e+00 -1.056685447692871094e+00 8.174597285687923431e-03
-1.004753589630126953e+01 -8.075230717658996582e-01 2.041044235229492188e-01
-9.287278175354003906e+00 -1.085253238677978516e+00 9.955362975597381592e-02
-7.299338340759277344e+00 -1.121519446372985840e+00 9.022478014230728149e-03
-1.003535175323486328e+01 -7.445996999740600586e-01 2.037602663040161133e-01
-9.347431182861328125e+00 -1.034185051918029785e+00 1.001285240054130554e-01
-7.218033790588378906e+00 -1.063734531402587891e+00 8.913744240999221802e-03
-1.010257339477539062e+01 -6.872850656509399414e-01 2.050356566905975342e-01
-9.370508193969726562e+00 -9.785764813423156738e-01 1.003095135092735291e-01
-7.202640533447265625e+00 -1.016351580619812012e+00 8.886865340173244476e-03
-4.056877136230468750e+00 -1.041296049952507019e-01 1.204449608922004700e-01
-1.006967830657958984e+01 -6.229996085166931152e-01 2.042866200208663940e-01
-9.371360778808593750e+00 -9.205728769302368164e-01 1.002562865614891052e-01
-6.727101325988769531e+00 -9.071860909461975098e-01 8.293104358017444611e-03
-4.030456542968750000e+00 -7.870817929506301880e-02 1.196439638733863831e-01
-1.003637695312500000e+01 -5.591438412666320801e-01 2.035375833511352539e-01
-9.446534156799316406e+00 -8.694693446159362793e-01 1.010015234351158142e-01
-7.125306129455566406e+00 -9.164069890975952148e-01 8.776910603046417236e-03
-4.026865959167480469e+00 -5.392274633049964905e-02 1.195253059267997742e-01
-1.011550903320312500e+01 -5.013122558593750000e-01 2.050761431455612183e-01
-9.469623565673828125e+00 -8.130297660827636719e-01 1.011931523680686951e-01
-7.228068828582763672e+00 -8.845741748809814453e-01 8.896639570593833923e-03
-1.033914279937744141e+01 -4.488177895545959473e-01 2.095501720905303955e-01
-9.482408523559570312e+00 -7.555453777313232422e-01 1.012783274054527283e-01
-7.133034706115722656e+00 -8.285533785820007324e-01 8.773244917392730713e-03
-1.065741825103759766e+01 -3.971343040466308594e-01 2.159474194049835205e-01
-9.487863540649414062e+00 -6.974214911460876465e-01 1.012889742851257324e-01
-7.203588962554931641e+00 -7.919830083847045898e-01 8.853878825902938843e-03
-4.073193073272705078e+00 -1.267599463462829590e-01 8.251632750034332275e-02
-9.673542022705078125e+00 -6.514194607734680176e-01 1.032265946269035339e-01
-7.028279781341552734e+00 -7.290916442871093750e-01 8.632745593786239624e-03
-4.063899040222167969e+00 -1.015152409672737122e-01 8.231388032436370850e-02
-9.663383483886718750e+00 -5.911965966224670410e-01 1.030775457620620728e-01
-7.057502746582031250e+00 -6.883801221847534180e-01 8.663289248943328857e-03
-1.284408092498779297e+01 2.108802646398544312e-01 3.785601139068603516e+00
-1.288519477844238281e+01 2.093058079481124878e-01 3.272854328155517578e+00
-1.323061943054199219e+01 2.126070708036422729e-01 2.841596841812133789e+00
-4.051450252532958984e+00 -7.633287459611892700e-02 8.205069601535797119e-02
-9.708764076232910156e+00 -5.341994166374206543e-01 1.035246998071670532e-01
-7.318523883819580078e+00 -6.685332059860229492e-01 8.978495374321937561e-03
-1.307174015045166016e+01 2.948559820652008057e-01 3.853160858154296875e+00
-1.319581890106201172e+01 -1.952743530273437500e-01 3.209826231002807617e+00
-1.321831417083740234e+01 2.935458421707153320e-01 2.839287281036376953e+00
-4.038846015930175781e+00 -5.130710825324058533e-02 8.178751915693283081e-02
-9.730834960937500000e+00 -4.755448102951049805e-01 1.037269756197929382e-01
-7.364336490631103516e+00 -6.271790266036987305e-01 9.029808454215526581e-03
-1.306489086151123047e+01 3.749195337295532227e-01 3.851747512817382812e+00
-1.258809852600097656e+01 3.590383529663085938e-01 3.198270082473754883e+00
-1.116947078704833984e+01 -7.334874570369720459e-02 2.261708527803421021e-01
-9.838468551635742188e+00 -4.203099906444549561e-01 1.048448383808135986e-01
-7.266363143920898438e+00 -5.739488601684570312e-01 8.905191905796527863e-03
-1.294059753417968750e+01 4.508356451988220215e-01 3.815847635269165039e+00
-1.091176319122314453e+01 -4.701640456914901733e-03 2.209477871656417847e-01
-9.830869674682617188e+00 -3.595688641071319580e-01 1.047383770346641541e-01
-7.390428066253662109e+00 -5.381398797035217285e-01 9.053020738065242767e-03
-1.301330280303955078e+01 5.333322286605834961e-01 3.838179111480712891e+00
-1.265207290649414062e+01 4.568240419030189514e-02 3.077245473861694336e+00
-1.329761600494384766e+01 5.403349399566650391e-01 2.857973814010620117e+00
-1.297392177581787109e+01 5.430595874786376953e-01 3.853941857814788818e-01
-1.111454105377197266e+01 6.340964883565902710e-02 2.250574082136154175e-01
-4.059890270233154297e+00 -1.235532686114311218e-01 4.324530437588691711e-02
-7.424522399902343750e+00 -4.948445260524749756e-01 9.090894833207130432e-03
-1.303661346435546875e+01 6.144347786903381348e-01 3.846094131469726562e+00
-1.294960308074951172e+01 1.216975748538970947e-01 3.669413089752197266e+00
-1.308280277252197266e+01 6.143233180046081543e-01 3.326269626617431641e+00
-1.273705673217773438e+01 1.241465806961059570e-01 3.098042249679565430e+00
-4.074250221252441406e+00 -1.011067479848861694e-01 1.914830356836318970e-01
-1.113193798065185547e+01 1.318190842866897583e-01 2.254218012094497681e-01
-4.041578769683837891e+00 -9.817853569984436035e-02 4.304302111268043518e-02
-7.478325843811035156e+00 -4.523585438728332520e-01 9.153203107416629791e-03
-1.287455177307128906e+01 6.859931945800781250e-01 3.799452543258666992e+00
-1.293418216705322266e+01 2.009283751249313354e-01 3.665323734283447266e+00
-1.287359905242919922e+01 6.836892366409301758e-01 3.274085044860839844e+00
-1.294396781921386719e+01 2.055997997522354126e-01 3.148617029190063477e+00
-4.079787254333496094e+00 -7.619898021221160889e-02 1.917176693677902222e-01
-1.112692070007324219e+01 2.000489979982376099e-01 2.253408282995223999e-01
-4.077097415924072266e+00 -7.401324808597564697e-02 4.341564327478408813e-02
-7.483956336975097656e+00 -4.066266119480133057e-01 9.156867861747741699e-03
-1.311235332489013672e+01 7.793762087821960449e-01 3.870969295501708984e+00
-1.290384960174560547e+01 2.796618342399597168e-01 3.657145261764526367e+00
-1.261083030700683594e+01 7.473577260971069336e-01 3.208362102508544922e+00
-4.062199592590332031e+00 -5.093899369239807129e-02 1.908729076385498047e-01
-1.314331817626953125e+01 7.927274703979492188e-01 3.907934427261352539e-01
-1.136336612701416016e+01 2.740558683872222900e-01 2.301589995622634888e-01
-4.085473537445068359e+00 -4.909137263894081116e-02 4.350081086158752441e-02
-7.507286071777343750e+00 -3.617089092731475830e-01 9.182523936033248901e-03
-1.272924709320068359e+01 8.350161910057067871e-01 3.759312391281127930e+00
-1.276435947418212891e+01 3.550080358982086182e-01 3.618160963058471680e+00
-1.254604339599609375e+01 8.207992911338806152e-01 3.193100690841674805e+00
-1.286373710632324219e+01 3.622657954692840576e-01 3.129946947097778320e+00
-1.312566757202148438e+01 -1.161210611462593079e-01 3.059388637542724609e+00
-1.312717533111572266e+01 8.565177321434020996e-01 2.825010061264038086e+00
-1.311968326568603516e+01 8.698272109031677246e-01 8.664068579673767090e-01
-1.304345798492431641e+01 8.670600652694702148e-01 3.879751563072204590e-01
-1.136047172546386719e+01 3.437447845935821533e-01 2.301387637853622437e-01
-1.002925872802734375e+01 -5.896848812699317932e-02 1.067824661731719971e-01
-7.709187507629394531e+00 -3.240373730659484863e-01 9.426870383322238922e-03
-1.228664779663085938e+01 8.817282319068908691e-01 3.630129337310791016e+00
-1.246096992492675781e+01 4.231027662754058838e-01 3.532832384109497070e+00
-1.289557075500488281e+01 9.231641888618469238e-01 3.283438920974731445e+00
-1.285447502136230469e+01 4.409562051296234131e-01 3.128292560577392578e+00
-1.314463710784912109e+01 -3.563144803047180176e-02 3.063701391220092773e+00
-1.291882610321044922e+01 9.225626587867736816e-01 2.781338453292846680e+00
-1.306468772888183594e+01 9.352708458900451660e-01 2.314266681671142578e+00
-1.305900859832763672e+01 9.371553063392639160e-01 1.823735117912292480e+00
-1.305061149597167969e+01 9.411317706108093262e-01 1.340612411499023438e+00
-1.307926559448242188e+01 9.477875232696533203e-01 8.641054630279541016e-01
-1.298306083679199219e+01 9.430938959121704102e-01 3.863435089588165283e-01
-1.142209243774414062e+01 4.157724380493164062e-01 2.314344048500061035e-01
-1.010242748260498047e+01 2.589709358289837837e-03 1.075596511363983154e-01
-7.709032058715820312e+00 -2.766568362712860107e-01 9.424426592886447906e-03
-1.307952976226806641e+01 1.019332766532897949e+00 3.866163969039916992e+00
-1.292727851867675781e+01 5.183656811714172363e-01 3.665868997573852539e+00
-1.295730495452880859e+01 1.007532238960266113e+00 3.300669670104980469e+00
-1.284570217132568359e+01 5.195858478546142578e-01 3.126874685287475586e+00
-1.306864452362060547e+01 4.476300999522209167e-02 3.045995950698852539e+00
-1.279887294769287109e+01 9.929655790328979492e-01 2.756773233413696289e+00
-1.294383430480957031e+01 1.006484746932983398e+00 2.293909788131713867e+00
-1.301647663116455078e+01 1.014418840408325195e+00 1.818630337715148926e+00
-1.300392913818359375e+01 1.018007874488830566e+00 1.336433529853820801e+00
-1.297870159149169922e+01 1.020591259002685547e+00 8.578591346740722656e-01
-1.295610332489013672e+01 1.021089553833007812e+00 3.857205212116241455e-01
-1.144929409027099609e+01 4.871242642402648926e-01 2.320417463779449463e-01
-1.010822105407714844e+01 6.461533904075622559e-02 1.076235249638557434e-01
-4.065199375152587891e+00 -1.209186017513275146e-01 4.968777298927307129e-03
-1.256738853454589844e+01 1.057038903236389160e+00 3.716628313064575195e+00
-1.297888851165771484e+01 1.089368700981140137e+00 3.307808160781860352e+00
-1.267047309875488281e+01 5.903906822204589844e-01 3.085044384002685547e+00
-1.320933341979980469e+01 1.263000220060348511e-01 3.078909873962402344e+00
-1.282274150848388672e+01 1.074008941650390625e+00 2.763281822204589844e+00
-1.291190147399902344e+01 1.083746194839477539e+00 2.289386034011840820e+00
-1.299026870727539062e+01 1.092607140541076660e+00 1.815871119499206543e+00
-1.296869087219238281e+01 1.095351338386535645e+00 1.333477616310119629e+00
-1.297318935394287109e+01 1.100292205810546875e+00 8.579248785972595215e-01
-4.084949970245361328e+00 -9.784995019435882568e-02 1.534020006656646729e-01
-1.295557022094726562e+01 1.101075291633605957e+00 3.858985006809234619e-01
-1.181757259368896484e+01 5.754560232162475586e-01 2.395726740360260010e-01
-1.021861934661865234e+01 1.280275136232376099e-01 1.088052615523338318e-01
-4.046870231628417969e+00 -9.552437067031860352e-02 4.945564083755016327e-03
-1.247086620330810547e+01 1.126022696495056152e+00 3.690056800842285156e+00
-1.254715156555175781e+01 6.574311256408691406e-01 3.560094118118286133e+00
-1.249509143829345703e+01 1.126011610031127930e+00 3.186208248138427734e+00
-1.267340373992919922e+01 6.684824228286743164e-01 3.086698532104492188e+00
-1.319272899627685547e+01 2.071039974689483643e-01 3.075277805328369141e+00
-1.275943183898925781e+01 1.147587895393371582e+00 2.751104116439819336e+00
-1.363704395294189453e+01 7.240849733352661133e-01 2.793292284011840820e+00
-1.290304660797119141e+01 1.162775039672851562e+00 2.289037942886352539e+00
-1.297049617767333984e+01 1.171135425567626953e+00 1.814077615737915039e+00
-1.297559642791748047e+01 1.176162362098693848e+00 1.334904670715332031e+00
-1.299103736877441406e+01 1.182134151458740234e+00 8.595686554908752441e-01
-4.066489696502685547e+00 -7.244513183832168579e-02 1.526892036199569702e-01
-1.296847915649414062e+01 1.182363629341125488e+00 3.864918649196624756e-01
-1.179684829711914062e+01 6.470255851745605469e-01 2.392285168170928955e-01
-1.023763656616210938e+01 1.910986155271530151e-01 1.090181916952133179e-01
-4.059378147125244141e+00 -7.090100646018981934e-02 4.960224963724613190e-03
-1.249522972106933594e+01 1.205561161041259766e+00 3.699384927749633789e+00
-1.299718761444091797e+01 7.610069513320922852e-01 3.689041376113891602e+00
-1.229403018951416016e+01 1.183983445167541504e+00 3.136731624603271484e+00
-1.290283203125000000e+01 7.600017786026000977e-01 3.143654108047485352e+00
-1.334310150146484375e+01 2.913659214973449707e-01 3.110688447952270508e+00
-1.274923038482666016e+01 1.225576043128967285e+00 2.750474214553833008e+00
-1.290449142456054688e+01 1.242774248123168945e+00 2.290603876113891602e+00
-1.299067115783691406e+01 1.253362178802490234e+00 1.817940711975097656e+00
-1.298595809936523438e+01 1.257482886314392090e+00 1.336739301681518555e+00
-1.300638198852539062e+01 1.264043331146240234e+00 8.610809445381164551e-01
-4.047872543334960938e+00 -4.727054387331008911e-02 1.519764065742492676e-01
-1.298286628723144531e+01 1.264045357704162598e+00 3.871444761753082275e-01
-1.206110191345214844e+01 7.357737421989440918e-01 2.446742653846740723e-01
-1.025826263427734375e+01 2.544574737548828125e-01 1.092524081468582153e-01
-4.021739006042480469e+00 -4.556132853031158447e-02 4.913798999041318893e-03
-1.269752025604248047e+01 1.303762435913085938e+00 3.761573553085327148e+00
-1.303067779541015625e+01 8.432270884513854980e-01 3.699945926666259766e+00
-1.293327426910400391e+01 3.550467789173126221e-01 3.529769897460937500e+00
-1.230292415618896484e+01 1.261075973510742188e+00 3.140916109085083008e+00
-1.258764553070068359e+01 8.189705014228820801e-01 3.068028450012207031e+00
-1.317459201812744141e+01 3.685749769210815430e-01 3.071873188018798828e+00
-1.277745819091796875e+01 1.307463288307189941e+00 2.758242845535278320e+00
-1.293482780456542969e+01 1.325847387313842773e+00 2.297389507293701172e+00
-1.301229286193847656e+01 1.336082816123962402e+00 1.822079539299011230e+00
-1.304627704620361328e+01 1.344174385070800781e+00 1.343772172927856445e+00
-1.304189300537109375e+01 8.668131232261657715e-01 1.214830040931701660e+00
-1.303113460540771484e+01 1.347211480140686035e+00 8.632507324218750000e-01
-1.312680053710937500e+01 8.770588636398315430e-01 7.424486279487609863e-01
-1.296591758728027344e+01 1.342756271362304688e+00 3.868775069713592529e-01
-1.207032585144042969e+01 8.107034564018249512e-01 2.449576854705810547e-01
-1.027849674224853516e+01 3.180766701698303223e-01 1.094866320490837097e-01
-8.259882926940917969e+00 -4.288862645626068115e-02 1.009149104356765747e-02
-1.273314666748046875e+01 1.386424541473388672e+00 3.774576902389526367e+00
-1.299742698669433594e+01 9.211933612823486328e-01 3.692039966583251953e+00
-1.315840339660644531e+01 4.420414865016937256e-01 3.591885089874267578e+00
-1.276035213470458984e+01 1.387133240699768066e+00 3.259808301925659180e+00
-1.250775432586669922e+01 8.908758759498596191e-01 3.049831151962280273e+00
-1.279252243041992188e+01 1.388371348381042480e+00 2.763281822204589844e+00
-1.295983123779296875e+01 9.276223182678222656e-01 2.657625436782836914e+00
-1.293428039550781250e+01 1.406040430068969727e+00 2.298781633377075195e+00
-1.310106468200683594e+01 9.423280954360961914e-01 2.188604593276977539e+00
-1.305111217498779297e+01 1.421045660972595215e+00 1.828701734542846680e+00
-1.308428764343261719e+01 9.457123875617980957e-01 1.699129104614257812e+00
-1.305558395385742188e+01 1.426144003868103027e+00 1.345606684684753418e+00
-1.304526615142822266e+01 9.474695324897766113e-01 1.215662956237792969e+00
-1.302756977081298828e+01 9.507557749748229980e-01 7.371522188186645508e-01
-1.209802913665771484e+01 8.871632814407348633e-01 2.456257492303848267e-01
-1.029733657836914062e+01 3.819166421890258789e-01 1.097102016210556030e-01
-8.164990425109863281e+00 7.704230956733226776e-03 9.975426830351352692e-03
-1.249665069580078125e+01 1.438314557075500488e+00 3.707017183303833008e+00
-1.298577404022216797e+01 1.000483274459838867e+00 3.690404415130615234e+00
-1.289613246917724609e+01 5.124670863151550293e-01 3.521084308624267578e+00
-1.269960403442382812e+01 1.459427833557128906e+00 3.246515989303588867e+00
-1.276168346405029297e+01 9.876995682716369629e-01 3.113167524337768555e+00
-1.241199874877929688e+01 4.997378587722778320e-01 2.895273923873901367e+00
-1.308305644989013672e+01 4.695311188697814941e-02 2.924428462982177734e+00
-1.282941532135009766e+01 1.472076892852783203e+00 2.773149967193603516e+00
-1.286305522918701172e+01 1.000062346458435059e+00 2.638988733291625977e+00
-1.297530364990234375e+01 1.491110920906066895e+00 2.307655096054077148e+00
-1.295047569274902344e+01 1.011407017707824707e+00 2.164443969726562500e+00
-1.300408840179443359e+01 1.020161151885986328e+00 1.689495444297790527e+00
-1.300545787811279297e+01 1.024836421012878418e+00 1.212516427040100098e+00
-1.299262714385986328e+01 1.028388977050781250e+00 7.355182766914367676e-01
-1.221394920349121094e+01 9.710455536842346191e-01 2.480955719947814941e-01
-1.039569854736328125e+01 4.494550824165344238e-01 1.107854768633842468e-01
-8.301785469055175781e+00 5.877340584993362427e-02 1.014280412346124649e-02
-1.254662895202636719e+01 1.522127866744995117e+00 3.724543094635009766e+00
-1.226412010192871094e+01 1.020618915557861328e+00 3.487032651901245117e+00
-1.311825752258300781e+01 6.019343137741088867e-01 3.582673072814941406e+00
-1.267501449584960938e+01 1.535458683967590332e+00 3.242577314376831055e+00
-1.278346443176269531e+01 1.068331956863403320e+00 3.120021104812622070e+00
-1.241745376586914062e+01 5.762934088706970215e-01 2.897316932678222656e+00
-1.301421070098876953e+01 1.265640258789062500e-01 2.909158468246459961e+00
-1.295214843750000000e+01 1.566737055778503418e+00 2.801704645156860352e+00
-1.279126548767089844e+01 1.073480248451232910e+00 2.625562191009521484e+00
-1.293517971038818359e+01 1.090105175971984863e+00 2.162964582443237305e+00
-1.297386741638183594e+01 1.097926497459411621e+00 1.686412692070007324e+00
-1.297015285491943359e+01 1.102172255516052246e+00 1.209832668304443359e+00
-1.295523357391357422e+01 1.105459451675415039e+00 7.337716221809387207e-01
-1.222569179534912109e+01 1.047507047653198242e+00 2.484599798917770386e-01
-1.046365547180175781e+01 5.167351961135864258e-01 1.115413606166839600e-01
-8.386260986328125000e+00 1.108343750238418579e-01 1.024665124714374542e-02
-1.244570827484130859e+01 1.587433099746704102e+00 3.697406291961669922e+00
-1.226337623596191406e+01 1.096364974975585938e+00 3.488668680191040039e+00
-1.266439342498779297e+01 1.613079786300659180e+00 3.242331504821777344e+00
-1.272053718566894531e+01 1.141711831092834473e+00 3.106313943862915039e+00
-1.246425724029541016e+01 6.551327705383300781e-01 2.909120321273803711e+00
-1.290349578857421875e+01 1.641245841979980469e+00 2.793306112289428711e+00
-1.277663230895996094e+01 1.151242494583129883e+00 2.623959302902221680e+00
-1.293217658996582031e+01 1.169808864593505859e+00 2.163622140884399414e+00
-1.298762702941894531e+01 1.179395437240600586e+00 1.689110040664672852e+00
-1.298892784118652344e+01 1.184085130691528320e+00 1.212238788604736328e+00
-1.297008132934570312e+01 1.186932206153869629e+00 7.350111603736877441e-01
-1.228872585296630859e+01 1.128904938697814941e+00 2.498770803213119507e-01
-1.050621414184570312e+01 5.834799408912658691e-01 1.120311021804809570e-01
-8.251448631286621094e+00 1.596965044736862183e-01 1.008293963968753815e-02
-1.200789928436279297e+01 1.606528878211975098e+00 3.570202112197875977e+00
-1.226695346832275391e+01 1.172598004341125488e+00 3.491667270660400391e+00
-1.301164531707763672e+01 7.571536898612976074e-01 3.555826663970947266e+00
-1.260572338104248047e+01 2.663221359252929688e-01 3.314844846725463867e+00
-1.277616214752197266e+01 1.225773930549621582e+00 3.121675252914428711e+00
-1.254264163970947266e+01 7.364518642425537109e-01 2.928414583206176758e+00
-1.277712917327880859e+01 1.230367898941040039e+00 2.625562191009521484e+00
-1.292181015014648438e+01 1.248852491378784180e+00 2.163128852844238281e+00
-1.299495220184326172e+01 1.260500073432922363e+00 1.691036820411682129e+00
-1.298637294769287109e+01 1.264243721961975098e+00 1.212701559066772461e+00
-1.301919269561767578e+01 1.272026658058166504e+00 7.382227778434753418e-01
-1.230246353149414062e+01 1.206334829330444336e+00 2.503022253513336182e-01
-1.053237819671630859e+01 6.497810482978820801e-01 1.123504862189292908e-01
-8.255311965942382812e+00 2.104508727788925171e-01 1.008904818445444107e-02
-1.222010231018066406e+01 1.711306810379028320e+00 3.636348009109497070e+00
-1.219731140136718750e+01 1.241511821746826172e+00 3.473947286605834961e+00
-1.275258922576904297e+01 8.206219673156738281e-01 3.486341953277587891e+00
-1.296639251708984375e+01 3.535496592521667480e-01 3.410193920135498047e+00
-1.256013488769531250e+01 1.756690025329589844e+00 3.220916032791137695e+00
-1.282736587524414062e+01 1.310166478157043457e+00 3.136091470718383789e+00
-1.284887981414794922e+01 8.335739374160766602e-01 3.001051902770996094e+00
-1.278688240051269531e+01 1.310541868209838867e+00 2.629169464111328125e+00
-1.298062801361083984e+01 1.334977865219116211e+00 2.174305438995361328e+00
-1.301755428314208984e+01 1.343367695808410645e+00 1.695018768310546875e+00
-1.308335494995117188e+01 1.354773879051208496e+00 1.222511291503906250e+00
-1.304035949707031250e+01 8.734266757965087891e-01 1.090591907501220703e+00
-1.305781650543212891e+01 1.356736540794372559e+00 7.408709526062011719e-01
-1.312278079986572266e+01 8.835484981536865234e-01 6.179551482200622559e-01
-1.223616027832031250e+01 1.275681972503662109e+00 2.491077929735183716e-01
-1.065289878845214844e+01 7.228562235832214355e-01 1.136812716722488403e-01
-8.608688354492187500e+00 2.723249197006225586e-01 1.052276324480772018e-02
-1.208029365539550781e+01 1.767371296882629395e+00 3.597904205322265625e+00
-1.217894172668457031e+01 1.315193414688110352e+00 3.470948457717895508e+00
-1.278003406524658203e+01 9.011621475219726562e-01 3.495290756225585938e+00
-1.290985012054443359e+01 4.312949180603027344e-01 3.395955085754394531e+00
-1.231894779205322266e+01 1.800090909004211426e+00 3.161839008331298828e+00
-1.278141021728515625e+01 1.384767293930053711e+00 3.126874685287475586e+00
-1.263951873779296875e+01 8.979051709175109863e-01 2.953383684158325195e+00
-1.283942604064941406e+01 4.401595294475555420e-01 2.871637821197509766e+00
-1.281756019592285156e+01 1.393210649490356445e+00 2.637185096740722656e+00
-1.297527408599853516e+01 9.308616518974304199e-01 2.533332586288452148e+00
-1.298003673553466797e+01 1.415455698966979980e+00 2.175620317459106445e+00
-1.306096076965332031e+01 9.393002390861511230e-01 2.055257320404052734e+00
-1.302878284454345703e+01 1.425373554229736328e+00 1.697587728500366211e+00
-1.308802509307861328e+01 9.527278542518615723e-01 1.576397657394409180e+00
-1.300650215148925781e+01 1.427530646324157715e+00 1.216125726699829102e+00
-1.302581024169921875e+01 9.527701139450073242e-01 1.089843511581420898e+00
-1.305335521697998047e+01 9.593658447265625000e-01 6.149514913558959961e-01
-1.219530868530273438e+01 1.347115159034729004e+00 2.484397292137145996e-01
-1.068017292022705078e+01 7.905696630477905273e-01 1.140219494700431824e-01
-8.573878288269042969e+00 3.238959610462188721e-01 1.048244629055261612e-02
-1.224464702606201172e+01 1.868226766586303711e+00 3.650199413299560547e+00
-1.204063892364501953e+01 1.375050783157348633e+00 3.433872699737548828e+00
-1.278003501892089844e+01 9.800045490264892578e-01 3.496869802474975586e+00
-1.283448219299316406e+01 5.076334476470947266e-01 3.376885414123535156e+00
-1.232491874694824219e+01 1.878273129463195801e+00 3.166270017623901367e+00
-1.269930553436279297e+01 1.454761981964111328e+00 3.108913660049438477e+00
-1.252307605743408203e+01 9.668961763381958008e-01 2.927506446838378906e+00
-1.253127098083496094e+01 5.065938830375671387e-01 2.803359031677246094e+00
-1.284672832489013672e+01 1.476193308830261230e+00 2.645000457763671875e+00
-1.289885997772216797e+01 1.004969477653503418e+00 2.519569873809814453e+00
-1.298108196258544922e+01 1.013654947280883789e+00 2.043628215789794922e+00
-1.297899532318115234e+01 1.024888038635253906e+00 1.563993453979492188e+00
-1.298395538330078125e+01 1.029840469360351562e+00 1.086849927902221680e+00
-1.299245643615722656e+01 1.035078525543212891e+00 6.123701930046081543e-01
-1.207161808013916016e+01 1.408478260040283203e+00 2.460913658142089844e-01
-1.078575992584228516e+01 8.649597167968750000e-01 1.152036935091018677e-01
-8.394900321960449219e+00 3.687312602996826172e-01 1.026619970798492432e-02
-1.208137798309326172e+01 1.919244170188903809e+00 3.604970932006835938e+00
-1.251340675354003906e+01 1.506879448890686035e+00 3.571271181106567383e+00
-1.299491405487060547e+01 1.076725482940673828e+00 3.557405948638916016e+00
-1.271325778961181641e+01 5.809883475303649902e-01 3.345865011215209961e+00
-1.234475135803222656e+01 1.958874702453613281e+00 3.174393177032470703e+00
-1.262357807159423828e+01 1.524616956710815430e+00 3.092606782913208008e+00
-1.257028675079345703e+01 1.048169136047363281e+00 2.939991235733032227e+00
-1.349693775177001953e+01 6.286053657531738281e-01 3.020193338394165039e+00
-1.291523742675781250e+01 1.564416408538818359e+00 2.661031961441040039e+00
-1.284158897399902344e+01 1.079819560050964355e+00 2.509629964828491211e+00
-1.321530246734619141e+01 1.605443954467773438e+00 2.218189239501953125e+00
-1.296477508544921875e+01 1.092456817626953125e+00 2.042077779769897461e+00
-1.296553707122802734e+01 1.103916764259338379e+00 1.563158631324768066e+00
-1.295256996154785156e+01 1.107366919517517090e+00 1.084771037101745605e+00
-1.298387050628662109e+01 1.114608407020568848e+00 6.122763156890869141e-01
-1.246662712097167969e+01 1.532158732414245605e+00 2.543308734893798828e-01
-1.077925395965576172e+01 9.310376048088073730e-01 1.151930540800094604e-01
-8.772003173828125000e+00 4.392382502555847168e-01 1.073045656085014343e-02
-1.310473155975341797e+01 2.164334058761596680e+00 3.914219141006469727e+00
-1.238461303710937500e+01 1.568520903587341309e+00 3.537194013595581055e+00
-1.270554733276367188e+01 1.131285667419433594e+00 3.480025291442871094e+00
-1.277126789093017578e+01 6.621894836425781250e-01 3.362137794494628906e+00
-1.242047882080078125e+01 2.049098491668701172e+00 3.197039127349853516e+00
-1.266796588897705078e+01 1.608900785446166992e+00 3.105841159820556641e+00
-1.267808055877685547e+01 1.135531187057495117e+00 2.966776132583618164e+00
-1.324723625183105469e+01 6.984604597091674805e-01 2.965221166610717773e+00
-1.285231781005859375e+01 1.160182118415832520e+00 2.513070583343505859e+00
-1.295881080627441406e+01 1.172075510025024414e+00 2.042232751846313477e+00
-1.295357608795166016e+01 1.182999610900878906e+00 1.562562227249145508e+00
-1.294950008392333984e+01 1.187185406684875488e+00 1.085103631019592285e+00
-1.298474502563476562e+01 1.194987416267395020e+00 6.126518249511718750e-01
-1.249367904663085938e+01 1.613361358642578125e+00 2.550798952579498291e-01
-1.084104442596435547e+01 1.003427147865295410e+00 1.159169971942901611e-01
-8.978812217712402344e+00 5.048428177833557129e-01 1.098701916635036469e-02
-1.284728622436523438e+01 2.202878713607788086e+00 3.841288566589355469e+00
-1.255978107452392578e+01 1.669070005416870117e+00 3.590081691741943359e+00
-1.275599002838134766e+01 1.214711427688598633e+00 3.495817184448242188e+00
-1.263855075836181641e+01 7.330915331840515137e-01 3.328320741653442383e+00
-1.260969829559326172e+01 1.680183053016662598e+00 3.094024896621704102e+00
-1.259040832519531250e+01 1.205596089363098145e+00 2.947935819625854492e+00
-1.319106769561767578e+01 7.766906619071960449e-01 2.953659772872924805e+00
-1.291837310791015625e+01 1.725902199745178223e+00 2.665841579437255859e+00
-1.283909511566162109e+01 1.238455295562744141e+00 2.511923789978027344e+00
-1.296317481994628906e+01 1.252707600593566895e+00 2.044093370437622070e+00
-1.296781349182128906e+01 1.264578938484191895e+00 1.565186262130737305e+00
-1.295883274078369141e+01 1.268269896507263184e+00 1.086517333984375000e+00
-1.298412704467773438e+01 1.275321245193481445e+00 6.129803657531738281e-01
-1.315642547607421875e+01 8.161341547966003418e-01 4.948706030845642090e-01
-1.260243511199951172e+01 1.706085920333862305e+00 2.575092315673828125e-01
-1.085259532928466797e+01 1.071696400642395020e+00 1.161086261272430420e-01
-8.939616203308105469e+00 5.576848387718200684e-01 1.094303838908672333e-02
-1.235471439361572266e+01 2.196538686752319336e+00 3.697971582412719727e+00
-1.216907882690429688e+01 1.693199634552001953e+00 3.481307744979858398e+00
-1.275789451599121094e+01 1.293931245803833008e+00 3.498449325561523438e+00
-1.302856159210205078e+01 8.359546661376953125e-01 3.432314872741699219e+00
-1.249232959747314453e+01 1.742621898651123047e+00 3.067792415618896484e+00
-1.268159961700439453e+01 1.292901992797851562e+00 2.971088886260986328e+00
-1.319481849670410156e+01 8.581849336624145508e-01 2.955622911453247070e+00
-1.285273647308349609e+01 1.319416403770446777e+00 2.516129255294799805e+00
-1.297686481475830078e+01 1.334447741508483887e+00 2.047504663467407227e+00
-1.304572772979736328e+01 1.353035211563110352e+00 1.575562715530395508e+00
-1.309948348999023438e+01 8.795397281646728516e-01 1.451772093772888184e+00
-1.302316379547119141e+01 1.355289816856384277e+00 1.092587709426879883e+00
-1.308823680877685547e+01 8.856687545776367188e-01 9.702440500259399414e-01
-1.300685596466064453e+01 1.358182311058044434e+00 6.144352555274963379e-01
-1.306044483184814453e+01 8.906580209732055664e-01 4.914566576480865479e-01
-1.263825511932373047e+01 1.789970397949218750e+00 2.584607303142547607e-01
-1.097111988067626953e+01 1.151417255401611328e+00 1.174500659108161926e-01
-8.679627418518066406e+00 5.949518084526062012e-01 1.062905322760343552e-02
-1.216893386840820312e+01 1.769358634948730469e+00 3.484306573867797852e+00
-1.281094074249267578e+01 9.009540677070617676e-01 3.376376628875732422e+00
-1.276216411590576172e+01 1.860163331031799316e+00 3.136800527572631836e+00
-1.277122116088867188e+01 1.381267309188842773e+00 2.994014978408813477e+00
-1.292939281463623047e+01 9.206238985061645508e-01 2.897378683090209961e+00
-1.287562370300292969e+01 1.401653647422790527e+00 2.522245883941650391e+00
-1.302075481414794922e+01 9.385503530502319336e-01 2.414802312850952148e+00
-1.302146530151367188e+01 1.419829726219177246e+00 2.055877447128295898e+00
-1.306473445892333984e+01 9.508891701698303223e-01 1.931999206542968750e+00
-1.302928447723388672e+01 1.432188868522644043e+00 1.574608564376831055e+00
-1.307203197479248047e+01 9.583013057708740234e-01 1.449354052543640137e+00
-1.303780078887939453e+01 9.626554250717163086e-01 9.669248461723327637e-01
-1.299793052673339844e+01 9.665546417236328125e-01 4.893182516098022461e-01
-1.257461547851562500e+01 1.859731078147888184e+00 2.573877871036529541e-01
-1.103341579437255859e+01 1.226446032524108887e+00 1.181953027844429016e-01
-8.893206596374511719e+00 6.644399762153625488e-01 1.089539006352424622e-02
-1.280659675598144531e+01 1.942388772964477539e+00 3.670230627059936523e+00
-1.283786869049072266e+01 1.461413741111755371e+00 3.525032281875610352e+00
-1.294017696380615234e+01 9.898709058761596680e-01 3.411973714828491211e+00
-1.238642978668212891e+01 1.883085012435913086e+00 3.047231674194335938e+00
-1.270928764343261719e+01 1.453517675399780273e+00 2.981530427932739258e+00
-1.284371376037597656e+01 9.937664866447448730e-01 2.879490852355957031e+00
-1.292918872833251953e+01 1.487812161445617676e+00 2.534479618072509766e+00
-1.293828582763671875e+01 1.012442946434020996e+00 2.400614738464355469e+00
-1.299454879760742188e+01 1.025973677635192871e+00 1.922515034675598145e+00
-1.298763179779052734e+01 1.032270431518554688e+00 1.440671324729919434e+00
-1.298591995239257812e+01 1.038977146148681641e+00 9.635319113731384277e-01
-1.296685409545898438e+01 1.044284820556640625e+00 4.883803725242614746e-01
-1.257976627349853516e+01 1.939442276954650879e+00 2.577319443225860596e-01
-1.108626365661621094e+01 1.301233291625976562e+00 1.188447326421737671e-01
-8.811216354370117188e+00 7.127065658569335938e-01 1.080009527504444122e-02
-1.331712436676025391e+01 2.103492498397827148e+00 3.820169687271118164e+00
-1.265720272064208984e+01 1.519573450088500977e+00 3.477919578552246094e+00
-1.246061038970947266e+01 1.030127882957458496e+00 3.287129878997802734e+00
-1.270979881286621094e+01 1.532639026641845703e+00 2.983800411224365234e+00
-1.273136806488037109e+01 1.063698530197143555e+00 2.855713367462158203e+00
-1.290635395050048828e+01 1.089660882949829102e+00 2.395885467529296875e+00
-1.297716617584228516e+01 1.104764342308044434e+00 1.920910120010375977e+00
-1.297015953063964844e+01 1.111008524894714355e+00 1.439462423324584961e+00
-1.298128795623779297e+01 1.118808865547180176e+00 9.636793732643127441e-01
-1.296816635131835938e+01 1.124518990516662598e+00 4.886805117130279541e-01
-1.272458839416503906e+01 2.041779279708862305e+00 2.609508037567138672e-01
-1.114753913879394531e+01 1.377818942070007324e+00 1.195899769663810730e-01
-8.714028358459472656e+00 7.586911916732788086e-01 1.068647485226392746e-02
-1.319763469696044922e+01 2.167700290679931641e+00 3.789636850357055664e+00
-1.265529823303222656e+01 1.598174929618835449e+00 3.480025291442871094e+00
-1.249258899688720703e+01 1.109989047050476074e+00 3.297300338745117188e+00
-1.258421707153320312e+01 1.595893025398254395e+00 2.956561565399169922e+00
-1.276056575775146484e+01 1.145023822784423828e+00 2.863784551620483398e+00
-1.286123180389404297e+01 1.165371537208557129e+00 2.388791561126708984e+00
-1.295930576324462891e+01 1.183380246162414551e+00 1.919304966926574707e+00
-1.297101593017578125e+01 1.191298246383666992e+00 1.440341591835021973e+00
-1.298212337493896484e+01 1.199173450469970703e+00 9.642695188522338867e-01
-1.294908237457275391e+01 1.202959656715393066e+00 4.882303178310394287e-01
-1.118944740295410156e+01 1.452758908271789551e+00 1.201329380273818970e-01
-8.960120201110839844e+00 8.355429768562316895e-01 1.099435053765773773e-02
-1.376926422119140625e+01 2.348445177078247070e+00 3.957840919494628906e+00
-1.236694717407226562e+01 1.638914108276367188e+00 3.403434276580810547e+00
