-7.645426783710718155e-03 -7.191941142082214355e-01 7.369138300418853760e-02
-2.686263434588909149e-02 -7.521890997886657715e-01 2.233868278563022614e-02
-1.219746191054582596e-02 -7.058520317077636719e-01 6.561396270990371704e-02
-3.788070380687713623e-02 -7.779186367988586426e-01 1.577041670680046082e-02
-4.529853165149688721e-02 -6.815524101257324219e-01 6.348544359207153320e-02
-5.330217257142066956e-02 -7.252417206764221191e-01 3.416657820343971252e-02
-1.103832647204399109e-01 -7.192587852478027344e-01 2.159702777862548828e-02
-6.828981637954711914e-02 -7.378044128417968750e-01 7.888914085924625397e-03
-1.210624352097511292e-01 -6.988086700439453125e-01 3.332180157303810120e-02
-1.372892737388610840e+00 -6.868122577667236328e+00 8.556998334825038910e-03
-1.370158672332763672e+00 -6.642148017883300781e+00 8.285774849355220795e-03
-1.413176655769348145e+00 -6.644374847412109375e+00 8.299212902784347534e-03
-1.458627939224243164e+00 -6.657069206237792969e+00 8.326091803610324860e-03
-1.486466169357299805e+00 -6.590439319610595703e+00 8.254009298980236053e-03
-1.521904230117797852e+00 -6.559763431549072266e+00 8.227131329476833344e-03
-1.585323095321655273e+00 -6.647573947906494141e+00 8.349304087460041046e-03
-1.632982373237609863e+00 -6.665888786315917969e+00 8.384734392166137695e-03
-1.664096951484680176e+00 -6.616951465606689453e+00 8.335865102708339691e-03
-1.713910460472106934e+00 -6.642442703247070312e+00 8.381068706512451172e-03
-1.738521575927734375e+00 -6.570897102355957031e+00 8.304100483655929565e-03
-1.786396503448486328e+00 -6.588095188140869141e+00 8.339530788362026215e-03
-1.844985008239746094e+00 -6.642529964447021484e+00 8.422608487308025360e-03
-1.907590389251708984e+00 -6.708033084869384766e+00 8.520347066223621368e-03
-1.892549633979797363e+00 -6.503208637237548828e+00 8.274778723716735840e-03
-1.928707838058471680e+00 -6.479013919830322266e+00 8.258895948529243469e-03
-1.971337914466857910e+00 -6.476624488830566406e+00 8.271113969385623932e-03
-2.023219823837280273e+00 -6.503555774688720703e+00 8.321204222738742828e-03
-1.975547194480895996e+00 -6.215596199035644531e+00 7.968124933540821075e-03
-2.022293090820312500e+00 -6.229989528656005859e+00 8.002332411706447601e-03
-2.179391860961914062e+00 -6.576273441314697266e+00 8.464147336781024933e-03
-2.146331310272216797e+00 -6.345849037170410156e+00 8.184370584785938263e-03
-2.252425909042358398e+00 -6.527291297912597656e+00 8.436047472059726715e-03
-2.306378126144409180e+00 -6.552966117858886719e+00 8.487360551953315735e-03
-2.336409568786621094e+00 -6.510454177856445312e+00 8.450708352029323578e-03
-2.349516391754150391e+00 -6.422742843627929688e+00 8.355412632226943970e-03
-2.378402233123779297e+00 -6.380095481872558594e+00 8.318761363625526428e-03
-2.433481931686401367e+00 -6.407449722290039062e+00 8.373738266527652740e-03
-2.472390890121459961e+00 -6.391465187072753906e+00 8.372517302632331848e-03
-2.527320623397827148e+00 -6.416182518005371094e+00 8.425051346421241760e-03
-2.538727521896362305e+00 -6.330942630767822266e+00 8.333421312272548676e-03
-2.625516653060913086e+00 -6.432829856872558594e+00 8.488581515848636627e-03
-2.620445966720581055e+00 -6.309470653533935547e+00 8.346861228346824646e-03
-2.658332347869873047e+00 -6.291430950164794922e+00 8.344417437911033630e-03
-2.702018976211547852e+00 -6.286944866180419922e+00 8.360300213098526001e-03
-2.731733322143554688e+00 -6.250088691711425781e+00 8.333421312272548676e-03
-2.790743112564086914e+00 -6.279814720153808594e+00 8.395729586482048035e-03
-2.788875818252563477e+00 -6.173263549804687500e+00 8.276000618934631348e-03
-2.797491788864135742e+00 -6.092421054840087891e+00 8.190480060875415802e-03
-2.809450149536132812e+00 -6.020769596099853516e+00 8.117175661027431488e-03
-2.862190961837768555e+00 -6.036849975585937500e+00 8.162379264831542969e-03
-2.887028217315673828e+00 -5.993948459625244141e+00 8.128170855343341827e-03
-2.936496257781982422e+00 -6.002170562744140625e+00 8.163601160049438477e-03
-3.082731723785400391e+00 -6.204343795776367188e+00 8.464147336781024933e-03
-3.095517396926879883e+00 -6.135314941406250000e+00 8.395729586482048035e-03
-3.113955974578857422e+00 -6.078824996948242188e+00 8.344417437911033630e-03
-3.227784633636474609e+00 -6.206879615783691406e+00 8.547225035727024078e-03
-2.899828910827636719e+00 -5.493621826171875000e+00 7.589388173073530197e-03
-3.109151363372802734e+00 -5.803634166717529297e+00 8.043871261179447174e-03
-3.290857553482055664e+00 -6.053287506103515625e+00 8.417720906436443329e-03
-3.334217071533203125e+00 -6.044364452362060547e+00 8.433603681623935699e-03
-3.378078937530517578e+00 -6.036008834838867188e+00 8.450708352029323578e-03
-3.470841884613037109e+00 -6.113434791564941406e+00 8.588762953877449036e-03
-3.508786916732788086e+00 -6.092889785766601562e+00 8.589984849095344543e-03
-3.482557535171508789e+00 -5.962444782257080078e+00 8.436047472059726715e-03
-3.544049501419067383e+00 -5.983123302459716797e+00 8.495911955833435059e-03
-3.436519145965576172e+00 -5.721236705780029297e+00 8.153827860951423645e-03
-3.477801322937011719e+00 -5.710291862487792969e+00 8.168488740921020508e-03
-3.683000564575195312e+00 -5.964523315429687500e+00 8.564328774809837341e-03
-3.722182035446166992e+00 -5.946050643920898438e+00 8.570437319576740265e-03
-3.676619768142700195e+00 -5.793914794921875000e+00 8.383513428270816803e-03
-3.812179803848266602e+00 -5.926839351654052734e+00 8.609533309936523438e-03
-4.902785301208496094e+00 -6.957631111145019531e+00 9.062136709690093994e-02
-3.890525341033935547e+00 -5.967840671539306641e+00 8.703606203198432922e-03
-3.903366565704345703e+00 -5.907979488372802734e+00 8.651072159409523010e-03
-3.848857879638671875e+00 -5.748473644256591797e+00 8.451929315924644470e-03
-4.995748043060302734e+00 -6.819422721862792969e+00 9.000388532876968384e-02
-4.020487785339355469e+00 -5.925835609436035156e+00 8.748809807002544403e-03
-4.049407958984375000e+00 -5.890341758728027344e+00 8.732927963137626648e-03
-5.143341064453125000e+00 -6.843132972717285156e+00 9.114304929971694946e-02
-4.088903427124023438e+00 -5.870307922363281250e+00 8.740258403122425079e-03
-3.941493988037109375e+00 -5.585289478302001953e+00 8.351747877895832062e-03
-4.032104015350341797e+00 -5.639907836914062500e+00 8.470255881547927856e-03
-4.195677280426025391e+00 -5.793240070343017578e+00 8.739036507904529572e-03
-4.227595806121826172e+00 -5.762548923492431641e+00 8.731706067919731140e-03
-4.254524230957031250e+00 -5.725263595581054688e+00 8.714601397514343262e-03
-4.273938179016113281e+00 -5.678277015686035156e+00 8.682836778461933136e-03
-4.273535728454589844e+00 -5.605820655822753906e+00 8.611976169049739838e-03
-4.180737018585205078e+00 -5.414855003356933594e+00 8.357856422662734985e-03
-5.866759777069091797e+00 -6.968775749206542969e+00 9.698786586523056030e-02
-4.511399269104003906e+00 -5.769590854644775391e+00 8.947952650487422943e-03
-5.886056900024414062e+00 -6.905250549316406250e+00 9.660459309816360474e-02
-4.415727615356445312e+00 -5.576383113861083984e+00 8.690167218446731567e-03
-5.901528835296630859e+00 -6.837967395782470703e+00 9.616809338331222534e-02
-4.462372303009033203e+00 -5.564786911010742188e+00 8.714601397514343262e-03
-6.053912639617919922e+00 -6.928127288818359375e+00 9.795667231082916260e-02
-4.492020606994628906e+00 -5.531867504119873047e+00 8.706049993634223938e-03
-6.131425380706787109e+00 -6.930544376373291016e+00 9.852093458175659180e-02
-4.620512485504150391e+00 -5.619289875030517578e+00 8.888088166713714600e-03
-6.179172039031982422e+00 -6.898750305175781250e+00 9.860610216856002808e-02
-4.652985095977783203e+00 -5.588527679443359375e+00 8.884422481060028076e-03
-6.228102684020996094e+00 -6.868113517761230469e+00 9.871256351470947266e-02
-4.685898780822753906e+00 -5.558343410491943359e+00 8.881978690624237061e-03
-6.247135639190673828e+00 -6.804725170135498047e+00 9.835059940814971924e-02
-4.716669559478759766e+00 -5.525683403015136719e+00 8.875870145857334137e-03
-6.307150840759277344e+00 -6.786040782928466797e+00 9.863804280757904053e-02
-4.671365737915039062e+00 -5.405090808868408203e+00 8.728041313588619232e-03
-6.361690044403076172e+00 -6.761049747467041016e+00 9.884031862020492554e-02
-4.779513835906982422e+00 -5.462118625640869141e+00 8.867317810654640198e-03
-6.383054256439208984e+00 -6.700891017913818359e+00 9.853157401084899902e-02
-4.759889125823974609e+00 -5.372808456420898438e+00 8.769580163061618805e-03
-3.062237977981567383e+00 -2.747589111328125000e+00 1.221062690019607544e-01
-6.426826953887939453e+00 -6.664478778839111328e+00 9.857416898012161255e-02
-4.786756515502929688e+00 -5.336801052093505859e+00 8.758584037423133850e-03
-3.056597232818603516e+00 -2.708858728408813477e+00 1.212162747979164124e-01
-7.298090934753417969e+00 -6.954357624053955078e+00 2.041246592998504639e-01
-6.573772907257080078e+00 -6.733676433563232422e+00 1.001923978328704834e-01
-4.831513404846191406e+00 -5.320655345916748047e+00 8.780575357377529144e-03
-3.058870792388916016e+00 -2.677544355392456055e+00 1.206526234745979309e-01
-7.318784236907958984e+00 -6.888889312744140625e+00 2.035173326730728149e-01
-6.640974044799804688e+00 -6.719529151916503906e+00 1.005863174796104431e-01
-4.561545372009277344e+00 -4.961838245391845703e+00 8.234461769461631775e-03
-3.125148057937622070e+00 -2.701871395111083984e+00 1.226105988025665283e-01
-7.340414047241210938e+00 -6.824790477752685547e+00 2.029504776000976562e-01
-6.715319633483886719e+00 -6.711877822875976562e+00 1.010866984724998474e-01
-4.788798332214355469e+00 -5.145307064056396484e+00 8.587541989982128143e-03
-7.391724586486816406e+00 -6.788413524627685547e+00 2.032136470079421997e-01
-6.789108753204345703e+00 -6.702863216400146484e+00 1.015764251351356506e-01
-5.010922908782958984e+00 -5.318159580230712891e+00 8.927182294428348541e-03
-8.234818458557128906e+00 -6.944730758666992188e+00 3.197131156921386719e-01
-7.418428897857666016e+00 -6.729496479034423828e+00 2.028087675571441650e-01
-6.610336780548095703e+00 -6.446746826171875000e+00 9.830800443887710571e-02
-4.921290874481201172e+00 -5.159236431121826172e+00 8.710936643183231354e-03
-8.301854133605957031e+00 -6.914542675018310547e+00 3.206624686717987061e-01
-3.066335678100585938e+00 -2.747464179992675781e+00 8.336658775806427002e-02
-6.808199882507324219e+00 -6.558689594268798828e+00 1.006501913070678711e-01
-4.929931163787841797e+00 -5.105204582214355469e+00 8.670618757605552673e-03
-3.098098516464233398e+00 -2.743768692016601562e+00 2.335470318794250488e-01
-8.440619468688964844e+00 -6.942845344543457031e+00 3.243707418441772461e-01
-3.062172651290893555e+00 -2.710045099258422852e+00 8.279974758625030518e-02
-6.786742210388183594e+00 -6.458199977874755859e+00 9.974525868892669678e-02
-4.996815204620361328e+00 -5.111327648162841797e+00 8.732927963137626648e-03
-3.112621307373046875e+00 -2.722735643386840820e+00 2.333780229091644287e-01
-8.460561752319335938e+00 -6.872647285461425781e+00 3.235104084014892578e-01
-3.105089664459228516e+00 -2.714234590530395508e+00 8.350829780101776123e-02
-6.816770076751708984e+00 -6.407532691955566406e+00 9.960686415433883667e-02
-4.994318962097167969e+00 -5.046454906463623047e+00 8.674284443259239197e-03
-8.476061820983886719e+00 -6.799339294433593750e+00 3.225017488002777100e-01
-3.089144468307495117e+00 -2.667036533355712891e+00 8.263779431581497192e-02
-6.865483283996582031e+00 -6.374429702758789062e+00 9.974525868892669678e-02
-5.070487022399902344e+00 -5.060927391052246094e+00 8.752475492656230927e-03
-8.502735137939453125e+00 -6.735410690307617188e+00 3.219380974769592285e-01
-7.711133956909179688e+00 -6.575318336486816406e+00 2.051976174116134644e-01
-6.942788124084472656e+00 -6.367329120635986328e+00 1.002988666296005249e-01
-5.094323635101318359e+00 -5.022699356079101562e+00 8.740258403122425079e-03
-8.604526519775390625e+00 -6.730532169342041016e+00 3.242224156856536865e-01
-7.743687152862548828e+00 -6.521439552307128906e+00 2.049951702356338501e-01
-3.056219100952148438e+00 -2.768568754196166992e+00 4.390537366271018982e-02
-5.208148002624511719e+00 -5.072279930114746094e+00 8.881978690624237061e-03
-8.723187446594238281e+00 -6.737486839294433594e+00 3.271296918392181396e-01
-7.777406215667724609e+00 -6.468687534332275391e+00 2.048332095146179199e-01
-3.085817575454711914e+00 -2.761099338531494141e+00 4.408636316657066345e-02
-5.204581260681152344e+00 -5.006949424743652344e+00 8.823335170745849609e-03
-3.107748985290527344e+00 -2.749473810195922852e+00 1.949560046195983887e-01
-8.767542839050292969e+00 -6.686259746551513672e+00 3.272483348846435547e-01
-7.835493087768554688e+00 -6.436074733734130859e+00 2.053190767765045166e-01
-3.099704027175903320e+00 -2.739464282989501953e+00 4.404377564787864685e-02
-5.148217678070068359e+00 -4.892258167266845703e+00 8.676728233695030212e-03
-3.097482204437255859e+00 -2.706691026687622070e+00 1.932664364576339722e-01
-8.794031143188476562e+00 -6.621514797210693359e+00 3.267143666744232178e-01
-7.851542949676513672e+00 -6.368980884552001953e+00 2.047117501497268677e-01
-3.109674930572509766e+00 -2.714475154876708984e+00 4.394796118140220642e-02
-5.280214786529541016e+00 -4.956392765045166016e+00 8.847770281136035919e-03
-8.816043853759765625e+00 -6.553715705871582031e+00 3.260320425033569336e-01
-7.911543369293212891e+00 -6.337562084197998047e+00 2.052583545446395874e-01
-3.092192173004150391e+00 -2.665961027145385742e+00 4.346887394785881042e-02
-5.314193248748779297e+00 -4.927299976348876953e+00 8.853878825902938843e-03
-8.844809532165527344e+00 -6.491218566894531250e+00 3.256167173385620117e-01
-7.973020076751708984e+00 -6.306885719299316406e+00 2.058454304933547974e-01
-7.119154930114746094e+00 -6.062090396881103516e+00 9.955362975597381592e-02
-5.290492534637451172e+00 -4.845295906066894531e+00 8.764692582190036774e-03
-8.889328002929687500e+00 -6.440343856811523438e+00 3.257946968078613281e-01
-8.011568069458007812e+00 -6.257845401763916016e+00 2.058454304933547974e-01
-7.129431247711181641e+00 -5.995767116546630859e+00 9.918099641799926758e-02
-3.034561395645141602e+00 -2.745155096054077148e+00 4.999320022761821747e-03
-3.075813770294189453e+00 -2.750275850296020508e+00 1.549026370048522949e-01
-8.927052497863769531e+00 -6.384515762329101562e+00 3.257353603839874268e-01
-8.034772872924804688e+00 -6.196968078613281250e+00 2.054607868194580078e-01
-7.145318031311035156e+00 -5.934659481048583984e+00 9.889355301856994629e-02
-3.060296535491943359e+00 -2.734479427337646484e+00 5.013980902731418610e-03
-3.100121259689331055e+00 -2.737966537475585938e+00 1.552778035402297974e-01
-9.395580291748046875e+00 -6.632842540740966797e+00 3.413398265838623047e-01
-8.069463729858398438e+00 -6.145128250122070312e+00 2.053798139095306396e-01
-7.166134834289550781e+00 -5.878021240234375000e+00 9.868062287569046021e-02
-3.061272382736206055e+00 -2.701754331588745117e+00 4.988324362784624100e-03
-3.118368864059448242e+00 -2.720206737518310547e+00 1.553528308868408203e-01
-9.339329719543457031e+00 -6.507637023925781250e+00 3.378392159938812256e-01
-7.939203739166259766e+00 -5.969323635101318359e+00 2.011284828186035156e-01
-7.220715045928955078e+00 -5.849045753479003906e+00 9.893613308668136597e-02
-3.082315206527709961e+00 -2.686862468719482422e+00 4.995654802769422531e-03
-7.998159408569335938e+00 -5.937182903289794922e+00 2.016953229904174805e-01
-7.291606903076171875e+00 -5.832738399505615234e+00 9.941522032022476196e-02
-3.103290557861328125e+00 -2.671813964843750000e+00 5.002985242754220963e-03
-9.622767448425292969e+00 -6.531189918518066406e+00 3.451667428016662598e-01
-8.098953247070312500e+00 -5.935274124145507812e+00 2.033148705959320068e-01
-7.334320545196533203e+00 -5.793466567993164062e+00 9.951103478670120239e-02
-5.564285278320312500e+00 -4.731497764587402344e+00 8.923517540097236633e-03
-8.101197242736816406e+00 -5.860855102539062500e+00 2.024646103382110596e-01
-7.393384456634521484e+00 -5.766805171966552734e+00 9.983043372631072998e-02
-5.593212604522705078e+00 -4.697267055511474609e+00 8.923517540097236633e-03
-8.127243041992187500e+00 -5.804064273834228516e+00 2.022216767072677612e-01
-7.472993850708007812e+00 -5.755499362945556641e+00 1.004266217350959778e-01
-5.372544765472412109e+00 -4.456018447875976562e+00 8.527677506208419800e-03
-8.236248016357421875e+00 -5.805931091308593750e+00 2.040436863899230957e-01
-7.517719745635986328e+00 -5.716801166534423828e+00 1.005543768405914307e-01
-5.435370922088623047e+00 -4.452117443084716797e+00 8.583877235651016235e-03
-8.319316864013671875e+00 -5.788403987884521484e+00 2.052178531885147095e-01
-7.575046062469482422e+00 -5.687376022338867188e+00 1.008524745702743530e-01
-5.559771537780761719e+00 -4.497295856475830078e+00 8.736592717468738556e-03
-8.386820793151855469e+00 -5.759321689605712891e+00 2.060073912143707275e-01
-7.577667713165283203e+00 -5.616971015930175781e+00 1.004266217350959778e-01
-5.521630287170410156e+00 -4.410670757293701172e+00 8.633967489004135132e-03
-8.460900306701660156e+00 -5.734115123748779297e+00 2.069588750600814819e-01
-7.711245536804199219e+00 -5.643003463745117188e+00 1.017361208796501160e-01
-5.702477455139160156e+00 -4.498093605041503906e+00 8.873427286744117737e-03
-8.597313880920410156e+00 -5.749901294708251953e+00 2.094286978244781494e-01
-7.792737483978271484e+00 -5.629544258117675781e+00 1.023536026477813721e-01
-5.729181289672851562e+00 -4.462404727935791016e+00 8.872205391526222229e-03
-8.710871696472167969e+00 -5.748806953430175781e+00 2.113316655158996582e-01
-7.877609729766845703e+00 -5.617618560791015625e+00 1.030136793851852417e-01
-5.618527412414550781e+00 -4.321090698242187500e+00 8.659623563289642334e-03
-8.826412200927734375e+00 -5.747625350952148438e+00 2.132751494646072388e-01
-7.828526496887207031e+00 -5.510468959808349609e+00 1.019277498126029968e-01
-5.637767791748046875e+00 -4.281092166900634766e+00 8.648628368973731995e-03
-8.921235084533691406e+00 -5.731729507446289062e+00 2.147125154733657837e-01
-7.977980136871337891e+00 -5.542775630950927734e+00 1.034288778901100159e-01
-5.699133872985839844e+00 -4.272812366485595703e+00 8.702384307980537415e-03
-9.060102462768554688e+00 -5.742717266082763672e+00 2.172025591135025024e-01
-8.083587646484375000e+00 -5.542916774749755859e+00 1.043551042675971985e-01
-5.573332309722900391e+00 -4.125319004058837891e+00 8.471477776765823364e-03
-9.174855232238769531e+00 -5.736843585968017578e+00 2.191055566072463989e-01
-8.144774436950683594e+00 -5.511706352233886719e+00 1.047064363956451416e-01
-5.705924510955810547e+00 -4.169513702392578125e+00 8.633967489004135132e-03
-9.260939598083496094e+00 -5.711930751800537109e+00 2.203202098608016968e-01
-8.233324050903320312e+00 -5.498278617858886719e+00 1.054090857505798340e-01
-5.999033451080322266e+00 -4.327485084533691406e+00 9.037138894200325012e-03
-9.383790969848632812e+00 -5.708519458770751953e+00 2.224053740501403809e-01
-8.347896575927734375e+00 -5.501027107238769531e+00 1.064417809247970581e-01
-6.029546737670898438e+00 -4.293494701385498047e+00 9.043247438967227936e-03
-9.571247100830078125e+00 -5.742391586303710938e+00 2.260088920593261719e-01
-8.441013336181640625e+00 -5.488402843475341797e+00 1.071976721286773682e-01
-6.045959949493408203e+00 -4.249516487121582031e+00 9.028586558997631073e-03
-9.643301963806152344e+00 -5.705446720123291016e+00 2.268794178962707520e-01
-8.567954063415527344e+00 -5.496438026428222656e+00 1.083794087171554565e-01
-6.068634033203125000e+00 -4.210059165954589844e+00 9.023698978126049042e-03
-8.608277320861816406e+00 -5.448040485382080078e+00 1.084645837545394897e-01
-5.981310844421386719e+00 -4.095345020294189453e+00 8.856322616338729858e-03
-8.642392158508300781e+00 -5.395648002624511719e+00 1.084752231836318970e-01
-6.002183914184570312e+00 -4.055768013000488281e+00 8.850214071571826935e-03
-8.704285621643066406e+00 -5.360345363616943359e+00 1.088372021913528442e-01
-6.134283542633056641e+00 -4.090430259704589844e+00 9.007817134261131287e-03
-8.860935211181640625e+00 -5.382106304168701172e+00 1.103809177875518799e-01
-6.181821823120117188e+00 -4.067554950714111328e+00 9.040803648531436920e-03
-8.737670898437500000e+00 -5.234114646911621094e+00 1.084432974457740784e-01
-5.862780570983886719e+00 -3.806288719177246094e+00 8.539894595742225647e-03
-9.007244110107421875e+00 -5.320770740509033203e+00 1.113816797733306885e-01
-5.910445213317871094e+00 -3.785885810852050781e+00 8.575324900448322296e-03
-9.161553382873535156e+00 -5.336366653442382812e+00 1.128828004002571106e-01
-6.166882514953613281e+00 -3.896987915039062500e+00 8.912522345781326294e-03
-9.159440040588378906e+00 -5.260133266448974609e+00 1.124569550156593323e-01
-6.216984748840332031e+00 -3.875474214553833008e+00 8.950395509600639343e-03
-9.157606124877929688e+00 -5.184619426727294922e+00 1.120417416095733643e-01
-6.220202922821044922e+00 -3.824683904647827148e+00 8.921074680984020233e-03
-8.945631980895996094e+00 -4.992375850677490234e+00 1.090714260935783386e-01
-6.283740997314453125e+00 -3.810817003250122070e+00 8.978495374321937561e-03
-9.132049560546875000e+00 -5.023176193237304688e+00 1.109664663672447205e-01
-6.331893444061279297e+00 -3.787074565887451172e+00 9.013925679028034210e-03
-8.951719284057617188e+00 -4.852676868438720703e+00 1.084113568067550659e-01
-6.356733798980712891e+00 -3.749167442321777344e+00 9.016368538141250610e-03
-8.986617088317871094e+00 -4.800485610961914062e+00 1.084752231836318970e-01
-6.370974540710449219e+00 -3.705065488815307617e+00 9.004151448607444763e-03
-9.227386474609375000e+00 -4.856562614440917969e+00 1.110197007656097412e-01
-6.364960193634033203e+00 -3.649489641189575195e+00 8.963834494352340698e-03
-9.229493141174316406e+00 -4.785583972930908203e+00 1.106896623969078064e-01
-6.326294422149658203e+00 -3.575920820236206055e+00 8.878313004970550537e-03
-9.269370079040527344e+00 -4.734320640563964844e+00 1.108174175024032593e-01
-6.347243309020996094e+00 -3.536549568176269531e+00 8.877092041075229645e-03
-9.321470260620117188e+00 -4.689039230346679688e+00 1.110942214727401733e-01
-6.418785572052001953e+00 -3.524974346160888672e+00 8.946730755269527435e-03
-9.402932167053222656e+00 -4.657943725585937500e+00 1.117223501205444336e-01
-6.553743839263916016e+00 -3.546922922134399414e+00 9.104333817958831787e-03
-9.602095603942871094e+00 -4.683449268341064453e+00 1.137451604008674622e-01
-6.384793758392333984e+00 -3.405001640319824219e+00 8.840439841151237488e-03
-9.567552566528320312e+00 -4.594144821166992188e+00 1.129999086260795593e-01
-6.463106155395507812e+00 -3.395995140075683594e+00 8.919851854443550110e-03
-9.820670127868652344e+00 -4.641750812530517578e+00 1.156508475542068481e-01
-6.607264518737792969e+00 -3.420172929763793945e+00 9.089672937989234924e-03
-9.847152709960937500e+00 -4.580561161041259766e+00 1.156295463442802429e-01
-6.686923503875732422e+00 -3.409547090530395508e+00 9.170306846499443054e-03
-9.957812309265136719e+00 -4.557925701141357422e+00 1.165983676910400391e-01
-6.736315250396728516e+00 -3.382813215255737305e+00 9.209402836859226227e-03
-9.981033325195312500e+00 -4.494687080383300781e+00 1.165451332926750183e-01
-6.756048202514648438e+00 -3.340972900390625000e+00 9.208180941641330719e-03
-9.936198234558105469e+00 -4.401366233825683594e+00 1.157040819525718689e-01
-6.297207355499267578e+00 -3.066125392913818359e+00 8.556998334825038910e-03
-9.997852325439453125e+00 -4.355491638183593750e+00 1.161086261272430420e-01
-6.718987464904785156e+00 -3.220641374588012695e+00 9.103111922740936279e-03
-1.018892002105712891e+01 -4.364542961120605469e+00 1.180143281817436218e-01
-6.716012477874755859e+00 -3.168686151504516602e+00 9.072568267583847046e-03
-1.026342868804931641e+01 -4.322123050689697266e+00 1.185679286718368530e-01
-6.902215480804443359e+00 -3.204908370971679688e+00 9.297367185354232788e-03
-9.658715248107910156e+00 -3.997870206832885742e+00 1.112965047359466553e-01
-6.918112277984619141e+00 -3.160834789276123047e+00 9.292480535805225372e-03
-1.003226089477539062e+01 -4.080564498901367188e+00 1.153101548552513123e-01
-6.926431655883789062e+00 -3.113406658172607422e+00 9.277819655835628510e-03
-1.029388999938964844e+01 -4.113550662994384766e+00 1.180249676108360291e-01
-6.942661285400390625e+00 -3.069635152816772461e+00 9.274153970181941986e-03
-1.032359123229980469e+01 -4.052137851715087891e+00 1.180782020092010498e-01
-6.950360774993896484e+00 -3.022192955017089844e+00 9.259493090212345123e-03
-1.046675491333007812e+01 -4.034390926361083984e+00 1.194302812218666077e-01
-6.963256835937500000e+00 -2.977130651473999023e+00 9.252163581550121307e-03
-1.088691139221191406e+01 -4.119793415069580078e+00 1.239336729049682617e-01
-6.957424163818359375e+00 -2.924274444580078125e+00 9.220398031175136566e-03
-1.090542316436767578e+01 -4.050477981567382812e+00 1.238591447472572327e-01
-6.950281620025634766e+00 -2.871220588684082031e+00 9.187411516904830933e-03
-1.079008674621582031e+01 -3.932469606399536133e+00 1.222728490829467773e-01
-7.145668506622314453e+00 -2.900738000869750977e+00 9.421983733773231506e-03
-1.088839721679687500e+01 -3.892782449722290039e+00 1.231139004230499268e-01
-7.171692371368408203e+00 -2.860172271728515625e+00 9.432978928089141846e-03
-1.073562049865722656e+01 -3.764031410217285156e+00 1.211230456829071045e-01
-7.173278331756591797e+00 -2.809913396835327148e+00 9.412209503352642059e-03
-1.092021751403808594e+01 -3.753671169281005859e+00 1.229435577988624573e-01
-7.251050949096679688e+00 -2.789181947708129883e+00 9.491622447967529297e-03
-1.073456859588623047e+01 -3.616362333297729492e+00 1.206013709306716919e-01
-7.286738872528076172e+00 -2.751703500747680664e+00 9.516056627035140991e-03
-1.127596378326416016e+01 -3.721869468688964844e+00 1.264249086380004883e-01
-7.320363521575927734e+00 -2.713196516036987305e+00 9.538047946989536285e-03
-1.083617877960205078e+01 -3.503123521804809570e+00 1.212508007884025574e-01
-7.350970745086669922e+00 -2.673355340957641602e+00 9.556373581290245056e-03
-1.150001335144042969e+01 -3.639943599700927734e+00 1.284264177083969116e-01
-7.362526416778564453e+00 -2.626520156860351562e+00 9.550265036523342133e-03
-1.198060894012451172e+01 -3.711338996887207031e+00 1.335366368293762207e-01
-7.531416416168212891e+00 -2.634790182113647461e+00 9.748185984790325165e-03
-1.153711605072021484e+01 -3.496516466140747070e+00 1.283518821001052856e-01
-7.394203662872314453e+00 -2.535973072052001953e+00 9.550265036523342133e-03
-1.166956520080566406e+01 -3.458621263504028320e+00 1.295868605375289917e-01
-7.522423267364501953e+00 -2.528469562530517578e+00 9.695651009678840637e-03
-1.166751670837402344e+01 -3.380274772644042969e+00 1.293313503265380859e-01
-7.416218757629394531e+00 -2.442228794097900391e+00 9.539269842207431793e-03
-1.215371227264404297e+01 -3.440442562103271484e+00 1.344841569662094116e-01
-7.489119529724121094e+00 -2.415401697158813477e+00 9.613795205950737000e-03
-1.236735153198242188e+01 -3.419094085693359375e+00 1.366134285926818848e-01
-7.216768264770507812e+00 -2.278770923614501953e+00 9.246054105460643768e-03
-1.115720367431640625e+01 -3.010966777801513672e+00 1.230393722653388977e-01
-7.563100814819335938e+00 -2.337193489074707031e+00 9.671216830611228943e-03
-1.278937053680419922e+01 -3.367383956909179688e+00 1.408080756664276123e-01
-7.580170631408691406e+00 -2.291611194610595703e+00 9.674881584942340851e-03
-1.102091503143310547e+01 -2.829561710357666016e+00 1.211443394422531128e-01
-7.631488800048828125e+00 -2.256113767623901367e+00 9.722528979182243347e-03
-1.168702411651611328e+01 -2.924263477325439453e+00 1.282667070627212524e-01
-7.694184303283691406e+00 -2.223403692245483398e+00 9.784838184714317322e-03
-1.240423488616943359e+01 -3.022966384887695312e+00 1.359320580959320068e-01
-7.651863574981689453e+00 -2.160391807556152344e+00 9.713976643979549408e-03
-1.243033313751220703e+01 -2.948644876480102539e+00 1.360172331333160400e-01
-7.829824447631835938e+00 -2.158852577209472656e+00 9.922893717885017395e-03
-1.289833831787109375e+01 -2.976185798645019531e+00 1.409358233213424683e-01
-7.720287322998046875e+00 -2.077763795852661133e+00 9.767733514308929443e-03
-1.165184497833251953e+01 -2.613372087478637695e+00 1.271382123231887817e-01
-7.794792175292968750e+00 -2.046606779098510742e+00 9.845923632383346558e-03
-1.300814342498779297e+01 -2.833855628967285156e+00 1.417449414730072021e-01
-7.807203292846679688e+00 -1.998740315437316895e+00 9.845923632383346558e-03
-1.435383796691894531e+01 -3.034886598587036133e+00 1.562026292085647583e-01
-7.819320201873779297e+00 -1.950798630714416504e+00 9.845923632383346558e-03
-1.464254951477050781e+01 -3.002188444137573242e+00 1.591410040855407715e-01
-7.768952846527099609e+00 -1.887672662734985352e+00 9.767733514308929443e-03
-7.969181060791015625e+00 -1.884614825248718262e+00 1.000474859029054642e-02
-1.488941001892089844e+01 -2.862869262695312500e+00 1.614299714565277100e-01
-7.711619377136230469e+00 -1.773812174797058105e+00 9.667551144957542419e-03
-8.195673942565917969e+00 -1.832278609275817871e+00 1.026009116321802139e-02
-8.230215072631835938e+00 -1.787048816680908203e+00 1.028941106051206589e-02
-8.250810623168945312e+00 -1.738577365875244141e+00 1.030162908136844635e-02
-8.344601631164550781e+00 -1.704934000968933105e+00 1.040547620505094528e-02
-8.448098182678222656e+00 -1.672146081924438477e+00 1.052154041826725006e-02
-8.480788230895996094e+00 -1.624605298042297363e+00 1.054964028298854828e-02
-8.512229919433593750e+00 -1.576544046401977539e+00 1.057651918381452560e-02
-7.395294189453125000e+00 -5.082129836082458496e-01 2.200048714876174927e-01
-8.530602455139160156e+00 -1.525869011878967285e+00 1.058751437813043594e-02
-8.387061119079589844e+00 -1.447142481803894043e+00 1.039814669638872147e-02
-8.560522079467773438e+00 -1.423038244247436523e+00 1.060217525810003281e-02
-8.634263992309570312e+00 -1.380908250808715820e+00 1.068280916661024094e-02
-8.592166900634765625e+00 -1.320158362388610840e+00 1.062050182372331619e-02
-7.402131080627441406e+00 -5.492208600044250488e-01 1.502947062253952026e-01
-8.593180656433105469e+00 -1.266392350196838379e+00 1.061194948852062225e-02
-7.398379325866699219e+00 -5.033168792724609375e-01 1.501529961824417114e-01
-8.928541183471679688e+00 -1.259890317916870117e+00 1.101634092628955841e-02
-7.399333000183105469e+00 -4.577883481979370117e-01 1.501125097274780273e-01
-8.938085556030273438e+00 -1.205349326133728027e+00 1.101878471672534943e-02
-8.940355300903320312e+00 -1.149845838546752930e+00 1.101267710328102112e-02
-9.062381744384765625e+00 -1.109058141708374023e+00 1.115439645946025848e-02
-8.977630615234375000e+00 -1.042816519737243652e+00 1.104199700057506561e-02
-7.379671096801757812e+00 -5.424552559852600098e-01 7.878267765045166016e-02
-9.090219497680664062e+00 -9.994046092033386230e-01 1.117272302508354187e-02
-7.374878883361816406e+00 -4.966267049312591553e-01 7.869750261306762695e-02
-9.086234092712402344e+00 -9.425773620605468750e-01 1.116050500422716141e-02
-7.392758369445800781e+00 -4.522818922996520996e-01 7.885720580816268921e-02
-9.149573326110839844e+00 -8.924381136894226074e-01 1.123136654496192932e-02
-9.167822837829589844e+00 -8.374631404876708984e-01 1.124724838882684708e-02
-9.259474754333496094e+00 -7.885772585868835449e-01 1.135353837162256241e-02
-9.326944351196289062e+00 -7.367081046104431152e-01 1.143050845712423325e-02
-7.352528572082519531e+00 -5.353801846504211426e-01 9.006595239043235779e-03
-7.342703819274902344e+00 -4.893913269042968750e-01 8.990712463855743408e-03
-7.368526935577392578e+00 -4.457168579101562500e-01 9.018812328577041626e-03
-9.258337974548339844e+00 -5.030342936515808105e-01 1.132788229733705521e-02
-9.243270874023437500e+00 -4.453504979610443115e-01 1.130589190870523453e-02
-9.345741271972656250e+00 -3.928259909152984619e-01 1.142806373536586761e-02
-9.270025253295898438e+00 -3.326767981052398682e-01 1.133276894688606262e-02
-9.261897087097167969e+00 -2.754934132099151611e-01 1.132055278867483139e-02
-9.248416900634765625e+00 -2.183043211698532104e-01 1.130222622305154800e-02
-9.254582405090332031e+00 -1.616403162479400635e-01 1.130833476781845093e-02
-9.483384132385253906e+00 -1.074350103735923767e-01 1.158688962459564209e-02
-9.525864601135253906e+00 -4.946210980415344238e-02 1.163820177316665649e-02
-9.445988655090332031e+00 8.912941440939903259e-03 1.154046319425106049e-02
-9.472756385803222656e+00 6.706342101097106934e-02 1.157345063984394073e-02
-9.703145980834960938e+00 1.282385587692260742e-01 1.185567025095224380e-02
-9.700177192687988281e+00 1.877348423004150391e-01 1.185322646051645279e-02
-9.724833488464355469e+00 2.479130625724792480e-01 1.188499201089143753e-02
-9.391296386718750000e+00 2.970817387104034424e-01 1.147937774658203125e-02
-9.809995651245117188e+00 3.705928325653076172e-01 1.199372578412294388e-02
-9.848497390747070312e+00 4.325779676437377930e-01 1.204381696879863739e-02
-9.851650238037109375e+00 4.932991266250610352e-01 1.205114647746086121e-02
-9.869404792785644531e+00 5.549172759056091309e-01 1.207680348306894302e-02
-9.950649261474609375e+00 6.207566857337951660e-01 1.218065060675144196e-02
-9.950644493103027344e+00 6.820746064186096191e-01 1.218553818762302399e-02
-9.853529930114746094e+00 7.361887693405151367e-01 1.207191683351993561e-02
-9.918599128723144531e+00 8.022785782814025879e-01 1.215743739157915115e-02
-9.969279289245605469e+00 8.679802417755126953e-01 1.222585514187812805e-02
-9.909003257751464844e+00 9.240275621414184570e-01 1.215865928679704666e-02
-1.027730083465576172e+01 1.022018074989318848e+00 1.261802949011325836e-02
-9.894928932189941406e+00 1.045346617698669434e+00 1.215621642768383026e-02
-1.005826854705810547e+01 1.125049352645874023e+00 1.236513163894414902e-02
-9.973713874816894531e+00 1.177598595619201660e+00 1.226983685046434402e-02
-1.031660461425781250e+01 1.282315492630004883e+00 1.270110812038183212e-02
-1.029168510437011719e+01 1.343392491340637207e+00 1.268033869564533234e-02
-1.031495285034179688e+01 1.410852193832397461e+00 1.271943282335996628e-02
-1.007248020172119141e+01 1.440701246261596680e+00 1.243110466748476028e-02
-1.019894886016845703e+01 1.522707700729370117e+00 1.259848196059465408e-02
-1.046015644073486328e+01 1.627380490303039551e+00 1.293323654681444168e-02
-1.044602584838867188e+01 1.690893054008483887e+00 1.292834989726543427e-02
-1.052124881744384766e+01 1.769385218620300293e+00 1.303463988006114960e-02
-1.054861354827880859e+01 1.840612769126892090e+00 1.308228727430105209e-02
-1.051350498199462891e+01 1.901032924652099609e+00 1.305296644568443298e-02
-1.085058212280273438e+01 2.030815124511718750e+00 1.348667964339256287e-02
-1.055614566802978516e+01 2.042826175689697266e+00 1.313604414463043213e-02
-1.089840888977050781e+01 3.010941028594970703e+00 2.289443463087081909e-01
-1.054831504821777344e+01 2.108539104461669922e+00 1.314215268939733505e-02
-1.087395668029785156e+01 3.076122760772705078e+00 2.288228720426559448e-01
-1.062332248687744141e+01 2.191405296325683594e+00 1.325210742652416229e-02
-1.093930339813232422e+01 2.326655149459838867e+00 1.366383116692304611e-02
-1.092384433746337891e+01 2.393519401550292969e+00 1.366260927170515060e-02
-1.101528167724609375e+01 2.484484195709228516e+00 1.379577815532684326e-02
-1.094332981109619141e+01 2.538917779922485352e+00 1.372491661459207535e-02
-1.089217090606689453e+01 3.017275810241699219e+00 1.203352138400077820e-01
-1.105497264862060547e+01 2.636405944824218750e+00 1.388496439903974533e-02
-1.088980579376220703e+01 3.088690757751464844e+00 1.205162033438682556e-01
-1.146109294891357422e+01 2.807692050933837891e+00 1.441641617566347122e-02
-1.089377307891845703e+01 2.739674806594848633e+00 1.372369565069675446e-02
-1.144126892089843750e+01 2.952123641967773438e+00 1.443596463650465012e-02
-1.128952980041503906e+01 2.986972808837890625e+00 1.426736544817686081e-02
-1.117640590667724609e+01 3.030540943145751953e+00 1.414763648062944412e-02
-1.086468887329101562e+01 3.017704010009765625e+00 1.377623062580823898e-02
-1.084212017059326172e+01 3.083217382431030273e+00 1.377134304493665695e-02
-1.089309024810791016e+01 3.170083284378051758e+00 1.386052928864955902e-02
-1.224016094207763672e+01 3.643717288970947266e+00 1.560271717607975006e-02
-1.222713947296142578e+01 3.721664428710937500e+00 1.561493333429098129e-02
-1.290971565246582031e+01 4.016139984130859375e+00 1.651779189705848694e-02
-1.253602504730224609e+01 3.984413862228393555e+00 1.607063971459865570e-02
-1.190070724487304688e+01 3.863043069839477539e+00 1.528628915548324585e-02
-1.250611972808837891e+01 4.144556045532226562e+00 1.609629578888416290e-02
-1.279684638977050781e+01 4.328226566314697266e+00 1.650435477495193481e-02
-1.276626777648925781e+01 4.405360221862792969e+00 1.649946719408035278e-02
-1.304084587097167969e+01 4.589848518371582031e+00 1.689041964709758759e-02
-1.300961303710937500e+01 4.668766021728515625e+00 1.688675582408905029e-02
-1.297132968902587891e+01 4.745068073272705078e+00 1.687453687191009521e-02
-1.263838005065917969e+01 4.711395263671875000e+00 1.647869683802127838e-02
-1.302898025512695312e+01 4.948269367218017578e+00 1.702725328505039215e-02
-1.409777736663818359e+01 6.047503471374511719e+00 1.633250117301940918e-01
-1.321941184997558594e+01 5.113624572753906250e+00 1.731680519878864288e-02
-1.406498813629150391e+01 6.135891437530517578e+00 1.633782386779785156e-01
-1.350319862365722656e+01 5.318881034851074219e+00 1.773096993565559387e-02
-1.386291790008544922e+01 5.559072971343994141e+00 1.824776269495487213e-02
-1.126009559631347656e+01 4.757753372192382812e+00 1.493443083018064499e-02
-1.410818767547607422e+01 6.063452243804931641e+00 1.876088976860046387e-02
-1.407071781158447266e+01 6.149904251098632812e+00 1.876088976860046387e-02
-4.050530433654785156e+00 2.920830965042114258e+00 1.482125669717788696e-01
-4.071275711059570312e+00 2.973930358886718750e+00 1.496365368366241455e-01
-4.048130035400390625e+00 2.995287895202636719e+00 1.494585424661636353e-01
-4.042752742767333984e+00 2.957358121871948242e+00 1.014246270060539246e-01
-7.356615543365478516e+00 5.521370410919189453e+00 1.862488240003585815e-01
-7.256536006927490234e+00 5.516187191009521484e+00 1.845685392618179321e-01
-4.053736209869384766e+00 2.931619882583618164e+00 5.326347798109054565e-02
-4.000179290771484375e+00 2.930436849594116211e+00 5.279503762722015381e-02
-4.007016658782958984e+00 2.973398447036743164e+00 5.312507599592208862e-02
-7.258788585662841797e+00 5.455750465393066406e+00 9.667912125587463379e-02
-4.060115337371826172e+00 2.902672767639160156e+00 6.097655277699232101e-03
-4.060856342315673828e+00 2.941021442413330078e+00 6.125755608081817627e-03
-4.053215980529785156e+00 2.973572969436645508e+00 6.141637917608022690e-03
-4.038907051086425781e+00 3.001368999481201172e+00 6.147746462374925613e-03
-7.327350616455078125e+00 5.515166282653808594e+00 1.120448764413595200e-02
-7.269514560699462891e+00 5.541834354400634766e+00 1.116783637553453445e-02
-1.006642803549766541e-01 7.098573446273803711e-01 7.633402477949857712e-03
-5.422414094209671021e-02 6.717427372932434082e-01 3.803239017724990845e-02
-1.114685609936714172e-01 7.254860401153564453e-01 8.967499597929418087e-04
-5.385679006576538086e-02 7.258555889129638672e-01 1.473795063793659210e-02
-3.733497485518455505e-02 7.428567409515380859e-01 6.913065165281295776e-02
-8.341301581822335720e-04 7.388153076171875000e-01 6.866792589426040649e-02
-6.960586644709110260e-03 7.428182959556579590e-01 2.026637047529220581e-01
