-1.180067539215087891e+01 -3.726187944412231445e+00 1.511891186237335205e-02
-1.182140541076660156e+01 -3.653119564056396484e+00 1.511646714061498642e-02
-8.848897933959960938e+00 -2.329875230789184570e+00 9.742435812950134277e-02
-1.181488132476806641e+01 -3.571834564208984375e+00 1.507981587201356888e-02
-8.863026618957519531e+00 -2.275535583496093750e+00 9.742435812950134277e-02
-1.171670436859130859e+01 -3.463834762573242188e+00 1.492709945887327194e-02
-1.177808666229248047e+01 -3.403537034988403320e+00 1.497841253876686096e-02
-1.172079658508300781e+01 -3.309195280075073242e+00 1.487945299595594406e-02
-1.181029033660888672e+01 -3.256353378295898438e+00 1.496741641312837601e-02
-8.854912757873535156e+00 -2.383126258850097656e+00 1.120326574891805649e-02
-8.865500450134277344e+00 -2.327732801437377930e+00 1.119837909936904907e-02
-8.877678871154785156e+00 -2.272795200347900391e+00 1.119593624025583267e-02
-1.193613147735595703e+01 -2.977879047393798828e+00 1.502972561866044998e-02
-1.198721694946289062e+01 -2.912611722946166992e+00 1.507126353681087494e-02
-1.192311763763427734e+01 -2.819673061370849609e+00 1.496863923966884613e-02
-1.190998363494873047e+01 -2.739511966705322266e+00 1.493076514452695847e-02
-1.197633934020996094e+01 -2.677509069442749023e+00 1.499307341873645782e-02
-1.199840736389160156e+01 -2.605246543884277344e+00 1.500040385872125626e-02
-1.152686786651611328e+01 -2.428894996643066406e+00 1.439198199659585953e-02
-1.199420261383056641e+01 -2.450604915618896484e+00 1.495642121881246567e-02
-1.182753372192382812e+01 -2.341043233871459961e+00 1.473040133714675903e-02
-1.185640811920166016e+01 -2.271249055862426758e+00 1.474872697144746780e-02
-1.189961910247802734e+01 -2.203919887542724609e+00 1.478537917137145996e-02
-1.190602684020996094e+01 -2.129631280899047852e+00 1.477682683616876602e-02
-1.192478370666503906e+01 -2.057557582855224609e+00 1.478415820747613907e-02
-1.212954330444335938e+01 -2.016326189041137695e+00 1.502239517867565155e-02
-1.193333625793457031e+01 -1.908540368080139160e+00 1.476461067795753479e-02
-1.190330791473388672e+01 -1.828904390335083008e+00 1.471329666674137115e-02
-1.187473392486572266e+01 -1.750000715255737305e+00 1.466442737728357315e-02
-1.193376827239990234e+01 -1.683952450752258301e+00 1.472429372370243073e-02
-1.202712154388427734e+01 -1.621922612190246582e+00 1.482691802084445953e-02
-1.221636867523193359e+01 -1.571183800697326660e+00 1.504805125296115875e-02
-1.191807556152343750e+01 -1.458539128303527832e+00 1.466931495815515518e-02
-1.206189155578613281e+01 -1.401075601577758789e+00 1.483547035604715347e-02
-1.207125568389892578e+01 -1.327148079872131348e+00 1.483669225126504898e-02
-1.208215522766113281e+01 -1.253364801406860352e+00 1.484035700559616089e-02
-1.208165645599365234e+01 -1.178429961204528809e+00 1.483058370649814606e-02
-1.208666801452636719e+01 -1.104094147682189941e+00 1.482813991606235504e-02
-1.179130840301513672e+01 -1.004199266433715820e+00 1.445795595645904541e-02
-1.183313655853271484e+01 -9.346649646759033203e-01 1.450193859636783600e-02
-1.212588787078857422e+01 -8.829561471939086914e-01 1.485379692167043686e-02
-1.191355991363525391e+01 -7.940389513969421387e-01 1.458745915442705154e-02
-1.230350303649902344e+01 -7.442299723625183105e-01 1.505904644727706909e-02
-1.238272762298583984e+01 -6.727921366691589355e-01 1.515067741274833679e-02
-1.230771350860595703e+01 -5.929985642433166504e-01 1.505415979772806168e-02
-1.236407470703125000e+01 -5.196944475173950195e-01 1.511891186237335205e-02
-1.235803508758544922e+01 -4.434973299503326416e-01 1.510791573673486710e-02
-1.252944946289062500e+01 -3.726861774921417236e-01 1.531438902020454407e-02
-1.255249500274658203e+01 -2.962954342365264893e-01 1.534004509449005127e-02
-1.243409538269042969e+01 -2.171736210584640503e-01 1.519343722611665726e-02
-1.208421611785888672e+01 -1.368992179632186890e-01 1.476461067795753479e-02
-1.206182861328125000e+01 -6.262985616922378540e-02 1.473650988191366196e-02
-1.244098567962646484e+01 1.173892803490161896e-02 1.519954577088356018e-02
-1.243967914581298828e+01 8.806808292865753174e-02 1.519832387566566467e-02
-1.250489902496337891e+01 1.652670502662658691e-01 1.527895778417587280e-02
-8.412958145141601562e+00 1.073061227798461914e+00 1.181378602981567383e+00
-8.726446151733398438e+00 1.120786190032958984e+00 2.611222863197326660e-01
-1.238467216491699219e+01 2.396899014711380005e-01 1.513357274234294891e-02
-8.455300331115722656e+00 1.131229043006896973e+00 1.188276767730712891e+00
-8.382637977600097656e+00 1.124486207962036133e+00 8.665618300437927246e-01
-8.685724258422851562e+00 1.169773578643798828e+00 2.601136565208435059e-01
-1.241795730590820312e+01 3.165682554244995117e-01 1.517633348703384399e-02
-8.468797683715820312e+00 1.185973048210144043e+00 1.191174030303955078e+00
-8.397253036499023438e+00 1.178942561149597168e+00 8.688040971755981445e-01
-8.466998100280761719e+00 1.191748499870300293e+00 5.634241104125976562e-01
-8.632852554321289062e+00 1.216629505157470703e+00 2.587489783763885498e-01
-1.147425270080566406e+01 3.629733920097351074e-01 1.402546279132366180e-02
-8.494812965393066406e+00 1.241294026374816895e+00 1.516861677169799805e+00
-8.482921600341796875e+00 1.241068482398986816e+00 1.194209098815917969e+00
-8.422341346740722656e+00 1.235208511352539062e+00 8.721675872802734375e-01
-8.465450286865234375e+00 1.244549512863159180e+00 5.638186931610107422e-01
-8.627202987670898438e+00 1.269867897033691406e+00 2.588083148002624512e-01
-1.251206684112548828e+01 4.726691246032714844e-01 1.529728434979915619e-02
-8.505533218383789062e+00 1.296212673187255859e+00 1.520167589187622070e+00
-8.478083610534667969e+00 1.293543577194213867e+00 1.194622993469238281e+00
-8.453938484191894531e+00 1.292879343032836914e+00 8.762445449829101562e-01
-8.454694747924804688e+00 1.296015501022338867e+00 5.636214017868041992e-01
-1.249194717407226562e+01 5.486868619918823242e-01 1.527651492506265640e-02
-8.469215393066406250e+00 1.343901634216308594e+00 1.515121698379516602e+00
-8.487594604492187500e+00 1.348336696624755859e+00 1.197106361389160156e+00
-8.456653594970703125e+00 1.346448063850402832e+00 8.773657679557800293e-01
-8.485998153686523438e+00 1.354157805442810059e+00 5.662514567375183105e-01
-8.830734252929687500e+00 1.085304498672485352e+00 1.801552474498748779e-01
-1.246237754821777344e+01 6.240254044532775879e-01 1.524475030601024628e-02
-8.428746223449707031e+00 1.390552759170532227e+00 1.509379982948303223e+00
-8.505545616149902344e+00 1.404747843742370605e+00 1.200831413269042969e+00
-8.418349266052246094e+00 1.078135371208190918e+00 1.099270343780517578e+00
-8.461972236633300781e+00 1.400586009025573730e+00 8.787927031517028809e-01
-8.536593437194824219e+00 1.415998458862304688e+00 5.701965689659118652e-01
-8.609269142150878906e+00 1.429597616195678711e+00 2.590159773826599121e-01
-8.789203643798828125e+00 1.134986877441406250e+00 1.794466823339462280e-01
-1.216877174377441406e+01 6.842015385627746582e-01 1.489044819027185440e-02
-8.555337905883789062e+00 1.466953635215759277e+00 1.209109187126159668e+00
-8.433198928833007812e+00 1.132673501968383789e+00 1.102096199989318848e+00
-8.490475654602050781e+00 1.458882808685302734e+00 8.826658725738525391e-01
-8.553310394287109375e+00 1.472753524780273438e+00 5.719060301780700684e-01
-8.590485572814941406e+00 1.480698466300964355e+00 2.587193250656127930e-01
-8.758296012878417969e+00 1.185675978660583496e+00 1.789608150720596313e-01
-1.240787029266357422e+01 7.740468382835388184e-01 1.518854964524507523e-02
-8.585498809814453125e+00 1.203748226165771484e+00 1.444551467895507812e+00
-8.468318939208984375e+00 1.190333008766174316e+00 1.107619404792785645e+00
-8.485280990600585938e+00 1.511649847030639648e+00 8.830735087394714355e-01
-8.386634826660156250e+00 1.181836724281311035e+00 7.871825098991394043e-01
-8.533308029174804688e+00 1.523279190063476562e+00 5.711827874183654785e-01
-8.509823799133300781e+00 1.202225923538208008e+00 4.850116074085235596e-01
-8.581238746643066406e+00 1.533380746841430664e+00 2.587193250656127930e-01
-8.732047080993652344e+00 1.236729741096496582e+00 1.785761713981628418e-01
-1.234203052520751953e+01 8.459940552711486816e-01 1.511402428150177002e-02
-8.531103134155273438e+00 1.249543428421020508e+00 1.436662077903747559e+00
-8.497159957885742188e+00 1.247601628303527832e+00 1.112372159957885742e+00
-8.340806961059570312e+00 1.227619290351867676e+00 7.835732102394104004e-01
-8.520856857299804688e+00 1.575065732002258301e+00 5.709855556488037109e-01
-8.491420745849609375e+00 1.252815485000610352e+00 4.843917787075042725e-01
-8.571668624877929688e+00 1.586005449295043945e+00 2.587193250656127930e-01
-1.244330978393554688e+01 9.296795129776000977e-01 1.524475030601024628e-02
-8.525225639343261719e+00 1.302163600921630859e+00 1.436990857124328613e+00
-8.472680091857910156e+00 1.297164320945739746e+00 1.110188484191894531e+00
-8.468935012817382812e+00 1.299616694450378418e+00 7.963443994522094727e-01
-8.477653503417968750e+00 1.303983688354492188e+00 4.840537309646606445e-01
-1.211741638183593750e+01 9.801327586174011230e-01 1.485257409512996674e-02
-8.491746902465820312e+00 1.350421071052551270e+00 1.432717442512512207e+00
-8.489045143127441406e+00 1.353029608726501465e+00 1.113399744033813477e+00
-8.494231224060058594e+00 1.356896877288818359e+00 7.994908094406127930e-01
-8.478364944458007812e+00 1.357397556304931641e+00 4.845608174800872803e-01
-8.776714324951171875e+00 1.084788680076599121e+00 9.415595233440399170e-02
-1.211217117309570312e+01 1.054552197456359863e+00 1.485379692167043686e-02
-8.462864875793457031e+00 1.399121284484863281e+00 1.429265975952148438e+00
-8.486454010009765625e+00 1.406064629554748535e+00 1.114170432090759277e+00
-8.423582077026367188e+00 1.083195328712463379e+00 1.020239472389221191e+00
-8.495568275451660156e+00 1.410621881484985352e+00 8.004162907600402832e-01
-8.540787696838378906e+00 1.421193957328796387e+00 4.886176288127899170e-01
-8.601434707641601562e+00 1.434371471405029297e+00 1.765719801187515259e-01
-8.785758972167968750e+00 1.140681028366088867e+00 9.432628750801086426e-02
-1.245694732666015625e+01 1.161626696586608887e+00 1.528506726026535034e-02
-8.472682952880859375e+00 1.134871721267700195e+00 1.341693162918090820e+00
-8.553900718688964844e+00 1.471221923828125000e+00 1.124189496040344238e+00
-8.419728279113769531e+00 1.135259032249450684e+00 1.020597219467163086e+00
-8.499509811401367188e+00 1.464921832084655762e+00 8.016194105148315430e-01
-8.549615859985351562e+00 1.476631045341491699e+00 4.896318316459655762e-01
-8.611189842224121094e+00 1.490361452102661133e+00 1.769566237926483154e-01
-8.770668029785156250e+00 1.193489313125610352e+00 9.424111247062683105e-02
-1.209632682800292969e+01 1.202909708023071289e+00 1.485135219991207123e-02
-8.456753730773925781e+00 1.185603141784667969e+00 1.340297460556030273e+00
-8.442098617553710938e+00 1.191061377525329590e+00 1.024175405502319336e+00
-8.522706985473632812e+00 1.522825837135314941e+00 8.046733736991882324e-01
-8.497592926025390625e+00 1.201916337013244629e+00 7.161400914192199707e-01
-8.528600692749023438e+00 1.526951193809509277e+00 4.889556765556335449e-01
-8.499507904052734375e+00 1.205213546752929688e+00 4.033345878124237061e-01
-8.613692283630371094e+00 1.545289158821105957e+00 1.771995574235916138e-01
-1.202010059356689453e+01 1.269859671592712402e+00 1.476705353707075119e-02
-8.461050033569335938e+00 1.239188432693481445e+00 1.342158198356628418e+00
-8.467045783996582031e+00 1.247614979743957520e+00 1.028111338615417480e+00
-8.466398239135742188e+00 1.250539183616638184e+00 7.141443490982055664e-01
-8.519071578979492188e+00 1.579252958297729492e+00 4.889556765556335449e-01
-8.486022949218750000e+00 1.256464958190917969e+00 4.030529856681823730e-01
-8.590287208557128906e+00 1.595556616783142090e+00 1.769161373376846313e-01
-1.210053157806396484e+01 1.353482961654663086e+00 1.487578731030225754e-02
-8.511881828308105469e+00 1.300030469894409180e+00 1.351461529731750488e+00
-8.464137077331542969e+00 1.300297975540161133e+00 1.028707623481750488e+00
-8.468415260314941406e+00 1.303981184959411621e+00 7.149759531021118164e-01
-8.472230911254882812e+00 1.307596445083618164e+00 4.027714133262634277e-01
-1.197580623626708984e+01 1.413986086845397949e+00 1.473284512758255005e-02
-8.535941123962402344e+00 1.357353687286376953e+00 1.356578350067138672e+00
-8.431488990783691406e+00 1.348289012908935547e+00 1.025725960731506348e+00
-8.449431419372558594e+00 1.354183197021484375e+00 7.140612602233886719e-01
-8.492649078369140625e+00 1.364150524139404297e+00 4.041323959827423096e-01
-8.739739418029785156e+00 1.086317062377929688e+00 1.075977738946676254e-02
-8.545970916748046875e+00 1.412765145301818848e+00 1.359524488449096680e+00
-8.448522567749023438e+00 1.404230833053588867e+00 1.028826951980590820e+00
-8.483230590820312500e+00 1.413042902946472168e+00 7.176368832588195801e-01
-8.538309097290039062e+00 1.425280570983886719e+00 4.067136943340301514e-01
-8.609612464904785156e+00 1.441817164421081543e+00 9.294226765632629395e-02
-8.801329612731933594e+00 1.148853659629821777e+00 1.084407791495323181e-02
-8.496247291564941406e+00 1.458157181739807129e+00 1.353012204170227051e+00
-8.469911575317382812e+00 1.141931295394897461e+00 1.260519623756408691e+00
-8.472034454345703125e+00 1.461613893508911133e+00 1.032762885093688965e+00
-8.384964942932128906e+00 1.134949088096618652e+00 9.356450438499450684e-01
-8.514661788940429688e+00 1.472028851509094238e+00 7.210463285446166992e-01
-8.541213989257812500e+00 1.479689955711364746e+00 4.072768688201904297e-01
-8.604186058044433594e+00 1.173798561096191406e+00 3.260120749473571777e-01
-8.605529785156250000e+00 1.495473623275756836e+00 9.299550205469131470e-02
-8.795105934143066406e+00 1.202971458435058594e+00 1.084529981017112732e-02
-8.450990676879882812e+00 1.192221999168395996e+00 1.258768796920776367e+00
-8.383747100830078125e+00 1.187213063240051270e+00 9.363044500350952148e-01
-8.513317108154296875e+00 1.525652527809143066e+00 7.217115759849548340e-01
-8.508007049560546875e+00 1.209353804588317871e+00 6.355932354927062988e-01
-8.536890029907226562e+00 1.532952666282653809e+00 4.075115323066711426e-01
-8.569122314453125000e+00 1.222618699073791504e+00 3.249616622924804688e-01
-8.577493667602539062e+00 1.544880270957946777e+00 9.279321879148483276e-02
-1.205628871917724609e+01 1.724452257156372070e+00 1.487945299595594406e-02
-8.446452140808105469e+00 1.244486331939697266e+00 1.259206414222717285e+00
-8.456932067871093750e+00 1.250555038452148438e+00 9.453169703483581543e-01
-8.458724021911621094e+00 1.569497585296630859e+00 7.178863883018493652e-01
-8.471818923950195312e+00 1.257289409637451172e+00 6.334541440010070801e-01
-8.527322769165039062e+00 1.585305213928222656e+00 4.075115323066711426e-01
-8.544656753540039062e+00 1.272672057151794434e+00 3.243238627910614014e-01
-8.579648971557617188e+00 1.599681138992309570e+00 9.292097389698028564e-02
-1.191492843627929688e+01 1.778904199600219727e+00 1.471818424761295319e-02
-8.490613937377929688e+00 1.298203825950622559e+00 1.588829278945922852e+00
-8.422035217285156250e+00 1.293735980987548828e+00 1.256726145744323730e+00
-8.467763900756835938e+00 1.305299401283264160e+00 9.474052190780639648e-01
-8.448175430297851562e+00 1.306808710098266602e+00 6.322740316390991211e-01
-8.520887374877929688e+00 1.322624802589416504e+00 3.237236440181732178e-01
-1.188600254058837891e+01 1.849212050437927246e+00 1.469619292765855789e-02
-8.453355789184570312e+00 1.345639467239379883e+00 1.583372592926025391e+00
-8.444220542907714844e+00 1.350230455398559570e+00 1.261249184608459473e+00
-8.453706741333007812e+00 1.356287240982055664e+00 9.467457532882690430e-01
-8.450828552246093750e+00 1.360364556312561035e+00 6.330853700637817383e-01
-8.517543792724609375e+00 1.375679731369018555e+00 3.239112198352813721e-01
-1.198005771636962891e+01 1.939206004142761230e+00 1.482691802084445953e-02
-8.439118385314941406e+00 1.396519541740417480e+00 1.582281112670898438e+00
-8.481644630432128906e+00 1.409641027450561523e+00 1.268106937408447266e+00
-8.450127601623535156e+00 1.408949971199035645e+00 9.472952485084533691e-01
-8.513142585754394531e+00 1.424038767814636230e+00 6.383961439132690430e-01
-8.578914642333984375e+00 1.439658761024475098e+00 3.265748322010040283e-01
-1.191172218322753906e+01 2.003224611282348633e+00 1.475727930665016174e-02
-8.426514625549316406e+00 1.447608828544616699e+00 1.581553578376770020e+00
-8.564476966857910156e+00 1.477465987205505371e+00 1.281822681427001953e+00
-8.449158668518066406e+00 1.462128400802612305e+00 9.481745958328247070e-01
-8.558286666870117188e+00 1.485628604888916016e+00 6.424528956413269043e-01
-8.583702087402343750e+00 1.494670748710632324e+00 3.271000683307647705e-01
-1.066057777404785156e+01 2.665454626083374023e+00 2.225065976381301880e-01
-8.566561698913574219e+00 1.494767308235168457e+00 1.062416564673185349e-02
-8.445898056030273438e+00 1.514996767044067383e+00 9.488340020179748535e-01
-8.573548316955566406e+00 1.542528152465820312e+00 6.442969441413879395e-01
-8.569452285766601562e+00 1.546423912048339844e+00 3.269124627113342285e-01
-8.545419692993164062e+00 1.545167326927185059e+00 1.060950476676225662e-02
-8.509998321533203125e+00 1.585061788558959961e+00 6.402401328086853027e-01
-8.548995971679687500e+00 1.596957445144653320e+00 3.264997899532318115e-01
-8.518085479736328125e+00 1.594260692596435547e+00 1.058751437813043594e-02
-8.475261688232421875e+00 1.637064337730407715e+00 3.240612745285034180e-01
-1.183050060272216797e+01 2.289439678192138672e+00 1.472184900194406509e-02
-5.284670352935791016e+00 1.667676329612731934e+00 1.644696593284606934e-01
-1.181623077392578125e+01 2.361987113952636719e+00 1.472184900194406509e-02
-5.276241302490234375e+00 1.700684428215026855e+00 1.645290106534957886e-01
-1.066875553131103516e+01 2.605817794799804688e+00 1.169283986091613770e-01
-1.184460830688476562e+01 2.443335056304931641e+00 1.477560587227344513e-02
-5.139428138732910156e+00 1.691466569900512695e+00 1.605833768844604492e-01
-1.065062618255615234e+01 2.670744657516479492e+00 1.169071123003959656e-01
-1.178439903259277344e+01 2.506396532058715820e+00 1.471940521150827408e-02
-1.060789108276367188e+01 2.729317903518676758e+00 1.166196539998054504e-01
-1.160664653778076172e+01 2.543128013610839844e+00 1.451659947633743286e-02
-1.144742584228515625e+01 2.581953763961791992e+00 1.433700416237115860e-02
-1.173237228393554688e+01 2.721980333328247070e+00 1.471451856195926666e-02
-1.172128582000732422e+01 2.795309305191040039e+00 1.472184900194406509e-02
-5.295340061187744141e+00 1.710858583450317383e+00 1.126805394887924194e-01
-1.067630004882812500e+01 2.615436553955078125e+00 1.342925895005464554e-02
-1.063677597045898438e+01 2.675042390823364258e+00 1.339993719011545181e-02
-1.060176467895507812e+01 2.735511064529418945e+00 1.337672397494316101e-02
-6.763123035430908203e+00 2.592015266418457031e+00 1.279710769653320312e+00
-1.140167140960693359e+01 3.016643047332763672e+00 1.440908666700124741e-02
-6.668199539184570312e+00 2.602671861648559570e+00 1.264747381210327148e+00
-6.593718528747558594e+00 2.574927330017089844e+00 9.860227108001708984e-01
-1.137039947509765625e+01 3.083143472671508789e+00 1.439320296049118042e-02
-6.596280574798583984e+00 2.621353864669799805e+00 1.254133820533752441e+00
-6.538219451904296875e+00 2.599601984024047852e+00 9.800903201103210449e-01
-6.612268924713134766e+00 2.631717443466186523e+00 7.291675806045532227e-01
-6.609331607818603516e+00 2.633221387863159180e+00 4.688077867031097412e-01
-1.139077281951904297e+01 3.163825273513793945e+00 1.444329507648944855e-02
-6.532605171203613281e+00 2.641250610351562500e+00 1.513180732727050781e+00
-6.564553260803222656e+00 2.655500888824462891e+00 1.251175999641418457e+00
-6.493684768676757812e+00 2.628151893615722656e+00 9.758134484291076660e-01
-6.551740646362304688e+00 2.654310464859008789e+00 7.242752313613891602e-01
-6.595824718475341797e+00 2.674850940704345703e+00 4.690050780773162842e-01
-6.654915332794189453e+00 2.700166940689086914e+00 2.131519764661788940e-01
-5.250236511230468750e+00 1.700271844863891602e+00 5.875696986913681030e-02
-1.132112789154052734e+01 3.219434738159179688e+00 1.437976490706205368e-02
-6.468355655670166016e+00 2.661566019058227539e+00 1.502052903175354004e+00
-6.528102397918701172e+00 2.687482833862304688e+00 1.247348189353942871e+00
-6.471025943756103516e+00 2.665306568145751953e+00 9.748477339744567871e-01
-6.514177322387695312e+00 2.685739994049072266e+00 7.219309210777282715e-01
-6.590356349945068359e+00 2.719839811325073242e+00 4.697940945625305176e-01
-6.629906654357910156e+00 2.737516403198242188e+00 2.128849774599075317e-01
-1.132420539855957031e+01 3.295545578002929688e+00 1.440908666700124741e-02
-6.469038009643554688e+00 2.708379030227661133e+00 1.506042122840881348e+00
-6.474249839782714844e+00 2.711889266967773438e+00 1.240214467048645020e+00
-6.440847873687744141e+00 2.699219465255737305e+00 9.727782607078552246e-01
-6.503996849060058594e+00 2.728353261947631836e+00 7.226443886756896973e-01
-6.579063892364501953e+00 2.762544155120849609e+00 4.701886177062988281e-01
-6.608377456665039062e+00 2.776209592819213867e+00 2.127366513013839722e-01
-1.129993724822998047e+01 3.363826274871826172e+00 1.440420001745223999e-02
-6.478384017944335938e+00 2.759131431579589844e+00 1.512130975723266602e+00
-6.437557697296142578e+00 2.743071079254150391e+00 1.236386775970458984e+00
-6.697161197662353516e+00 2.569332599639892578e+00 1.195218801498413086e+00
-6.407764911651611328e+00 2.731697797775268555e+00 9.702949523925781250e-01
-6.468834400177001953e+00 2.760401010513305664e+00 7.206059098243713379e-01
-1.117002487182617188e+01 3.399902820587158203e+00 1.426492258906364441e-02
-6.412473201751708984e+00 2.778995275497436523e+00 1.234820723533630371e+00
-6.672082901000976562e+00 2.606787681579589844e+00 1.193575263023376465e+00
-6.396335124969482422e+00 2.773327589035034180e+00 9.711227416992187500e-01
-6.420748233795166016e+00 2.786575555801391602e+00 7.171404957771301270e-01
-6.435757637023925781e+00 2.795759677886962891e+00 4.623641967773437500e-01
-5.257462501525878906e+00 1.635567069053649902e+00 6.726846564561128616e-03
-6.384487628936767578e+00 2.813524007797241211e+00 1.232732892036437988e+00
-6.608301639556884766e+00 2.628718852996826172e+00 1.185028553009033203e+00
-6.390072822570800781e+00 2.817317247390747070e+00 9.727782607078552246e-01
-6.600606918334960938e+00 2.628326892852783203e+00 9.202117919921875000e-01
-6.399888992309570312e+00 2.824313640594482422e+00 7.167328000068664551e-01
-6.577236652374267578e+00 2.621681451797485352e+00 6.580830812454223633e-01
-6.414831161499023438e+00 2.833583354949951172e+00 4.621011614799499512e-01
-6.621991634368896484e+00 2.642199993133544922e+00 4.023545086383819580e-01
-6.493986606597900391e+00 2.869903087615966797e+00 2.107193320989608765e-01
-5.243515968322753906e+00 1.666583895683288574e+00 6.721959915012121201e-03
-1.441050052642822266e+01 6.456318378448486328e+00 4.010329723358154297e+00
-6.362610816955566406e+00 2.850632429122924805e+00 1.231862902641296387e+00
-6.542675495147705078e+00 2.649225711822509766e+00 1.176153063774108887e+00
-6.391645908355712891e+00 2.864980459213256836e+00 9.756755232810974121e-01
-6.494284629821777344e+00 2.632270574569702148e+00 9.076237082481384277e-01
-6.389699935913085938e+00 2.866787195205688477e+00 7.175481915473937988e-01
-6.559180736541748047e+00 2.661240339279174805e+00 6.578979492187500000e-01
-6.410067081451416016e+00 2.878613471984863281e+00 4.630216956138610840e-01
-6.593629360198974609e+00 2.677897930145263672e+00 4.016220271587371826e-01
-6.466226100921630859e+00 2.905189514160156250e+00 2.103930115699768066e-01
-6.667590141296386719e+00 2.710647583007812500e+00 1.457397043704986572e-01
-5.243654251098632812e+00 1.702122449874877930e+00 6.735398899763822556e-03
-1.440148639678955078e+01 6.558677673339843750e+00 4.018945217132568359e+00
-6.534637451171875000e+00 2.690089941024780273e+00 1.445441961288452148e+00
-6.344103813171386719e+00 2.889210700988769531e+00 1.231688976287841797e+00
-6.514441013336181641e+00 2.684435367584228516e+00 1.174016475677490234e+00
-6.390169143676757812e+00 2.911536455154418945e+00 9.781588315963745117e-01
-6.447757244110107422e+00 2.659590005874633789e+00 9.033849239349365234e-01
-6.377419948577880859e+00 2.908416271209716797e+00 7.181597352027893066e-01
-6.544569492340087891e+00 2.702196836471557617e+00 6.580830812454223633e-01
-6.412253856658935547e+00 2.927006483078002930e+00 4.644682109355926514e-01
-6.591837882995605469e+00 2.724407196044921875e+00 4.025235772132873535e-01
-6.437367439270019531e+00 2.939827919006347656e+00 2.100370228290557861e-01
-6.642517566680908203e+00 2.748068332672119141e+00 1.455575078725814819e-01
-5.214126110076904297e+00 1.727973222732543945e+00 6.710963789373636246e-03
-6.527045249938964844e+00 2.733920097351074219e+00 1.447445988655090332e+00
-6.330724239349365234e+00 2.930150985717773438e+00 1.232558846473693848e+00
-6.464189052581787109e+00 2.710244894027709961e+00 1.167935132980346680e+00
-6.410284519195556641e+00 2.690275669097900391e+00 9.004305601119995117e-01
-6.518685817718505859e+00 2.738446235656738281e+00 6.571575999259948730e-01
-6.585120677947998047e+00 2.769059658050537109e+00 4.031433463096618652e-01
-6.393821239471435547e+00 2.967489242553710938e+00 2.092063724994659424e-01
-6.595121383666992188e+00 2.775974750518798828e+00 1.448894441127777100e-01
-1.118836021423339844e+01 3.784194707870483398e+00 1.442985609173774719e-02
-6.509245395660400391e+00 2.773533582687377930e+00 1.447245478630065918e+00
-6.425662040710449219e+00 2.740569829940795898e+00 1.163990497589111328e+00
-6.688039779663085938e+00 2.565749406814575195e+00 1.124305605888366699e+00
-6.387271881103515625e+00 2.726832151412963867e+00 8.995313644409179688e-01
-6.458726406097412109e+00 2.760002851486206055e+00 6.528080701828002930e-01
-1.115358638763427734e+01 3.848859310150146484e+00 1.441519521176815033e-02
-1.448995590209960938e+01 6.923775672912597656e+00 4.078514099121093750e+00
-6.484014511108398438e+00 2.809915304183959961e+00 1.445441961288452148e+00
-6.405105590820312500e+00 2.778375387191772461e+00 1.163333177566528320e+00
-6.678611755371093750e+00 2.609254598617553711e+00 1.125391006469726562e+00
-6.416813373565673828e+00 2.786115646362304688e+00 9.060823321342468262e-01
-6.412447452545166016e+00 2.786880731582641602e+00 6.498466134071350098e-01
-6.481063842773437500e+00 2.819391727447509766e+00 3.988611698150634766e-01
-1.118352794647216797e+01 3.936147928237915039e+00 1.448483392596244812e-02
-6.472030639648437500e+00 2.852018117904663086e+00 1.446644306182861328e+00
-6.708618164062500000e+00 2.667182922363281250e+00 1.405920386314392090e+00
-6.408694744110107422e+00 2.826779842376708984e+00 1.167113423347473145e+00
-6.613824844360351562e+00 2.630832433700561523e+00 1.117173075675964355e+00
-6.420463562011718750e+00 2.834648609161376953e+00 9.090366363525390625e-01
-6.589360237121582031e+00 2.627763509750366211e+00 8.521873950958251953e-01
-6.392494678497314453e+00 2.824967145919799805e+00 6.495689749717712402e-01
-6.608199596405029297e+00 2.637950181961059570e+00 5.937343835830688477e-01
-6.422554016113281250e+00 2.840930938720703125e+00 3.963256776332855225e-01
-6.633139610290527344e+00 2.650590896606445312e+00 3.356115520000457764e-01
-1.122034454345703125e+01 4.026649951934814453e+00 1.456424593925476074e-02
-6.647541999816894531e+00 2.690253019332885742e+00 1.396553874015808105e+00
-6.381328582763671875e+00 2.861609935760498047e+00 1.165305376052856445e+00
-6.558182716369628906e+00 2.655421495437622070e+00 1.110505700111389160e+00
-6.401140213012695312e+00 2.873178243637084961e+00 9.087797403335571289e-01
-6.511475086212158203e+00 2.643125772476196289e+00 8.441963195800781250e-01
-6.376857280731201172e+00 2.864953517913818359e+00 6.497540473937988281e-01
-6.583580017089843750e+00 2.675071716308593750e+00 5.929859876632690430e-01
-6.402269363403320312e+00 2.879056930541992188e+00 3.961566388607025146e-01
-6.641733646392822266e+00 2.701402425765991211e+00 3.368787169456481934e-01
-6.470307350158691406e+00 2.912368774414062500e+00 1.436747610569000244e-01
-6.688013076782226562e+00 2.724307775497436523e+00 7.688762992620468140e-02
-1.094561672210693359e+01 4.004037857055664062e+00 1.423926558345556259e-02
-6.463927745819091797e+00 2.656941413879394531e+00 1.628889441490173340e+00
-6.581899642944335938e+00 2.710805654525756836e+00 1.386231780052185059e+00
-6.321465015411376953e+00 2.881482124328613281e+00 1.157580494880676270e+00
-6.519844532012939453e+00 2.686578750610351562e+00 1.106784343719482422e+00
-6.316624164581298828e+00 2.881938934326171875e+00 8.992745280265808105e-01
-6.451086997985839844e+00 2.664834499359130859e+00 8.384712934494018555e-01
-6.361875057220458984e+00 2.905267953872680664e+00 6.500316858291625977e-01
-6.569804668426513672e+00 2.716559648513793945e+00 5.932354331016540527e-01
-6.389931678771972656e+00 2.920776844024658203e+00 3.964947164058685303e-01
-6.625033378601074219e+00 2.742104530334472656e+00 3.368787169456481934e-01
-6.441405773162841797e+00 2.947023868560791016e+00 1.434318423271179199e-01
-6.651772975921630859e+00 2.757252454757690430e+00 7.666406035423278809e-02
-1.093114852905273438e+01 4.074965476989746094e+00 1.425270456820726395e-02
-6.456488132476806641e+00 2.700310945510864258e+00 1.631159424781799316e+00
-6.546131610870361328e+00 2.743173837661743164e+00 1.382217526435852051e+00
-6.300980567932128906e+00 2.918972015380859375e+00 1.157087445259094238e+00
-6.459505558013916016e+00 2.708198308944702148e+00 1.099341630935668945e+00
-6.425461769104003906e+00 2.700520515441894531e+00 8.372786045074462891e-01
-6.556686878204345703e+00 2.758365869522094727e+00 5.935680866241455078e-01
-6.628336429595947266e+00 2.791232109069824219e+00 3.379112184047698975e-01
-6.404163360595703125e+00 2.977639913558959961e+00 1.430066972970962524e-01
-6.623673439025878906e+00 2.793352365493774414e+00 7.653630524873733521e-02
-1.100596904754638672e+01 4.179951190948486328e+00 1.438343059271574020e-02
-1.406557655334472656e+01 6.609108924865722656e+00 3.779852628707885742e+00
-6.453240394592285156e+00 2.745595693588256836e+00 1.634564280509948730e+00
-6.503894329071044922e+00 2.772511005401611328e+00 1.376865386962890625e+00
-6.420049190521240234e+00 2.738093376159667969e+00 1.095465302467346191e+00
-6.667545795440673828e+00 2.564481019973754883e+00 1.053618788719177246e+00
-6.410596370697021484e+00 2.740676164627075195e+00 8.375171422958374023e-01
-6.535057544708251953e+00 2.796584606170654297e+00 5.931522846221923828e-01
-1.093161582946777344e+01 4.228643417358398438e+00 1.431990042328834534e-02
-6.431803226470947266e+00 2.783206462860107422e+00 1.633429288864135742e+00
-6.460643291473388672e+00 2.801043033599853516e+00 1.371321916580200195e+00
-6.708535671234130859e+00 2.622210979461669922e+00 1.332361102104187012e+00
-6.395876884460449219e+00 2.774289369583129883e+00 1.094224810600280762e+00
-6.600100517272949219e+00 2.585139274597167969e+00 1.045447826385498047e+00
-6.409138202667236328e+00 2.786689519882202148e+00 8.395447731018066406e-01
-6.433710098266601562e+00 2.800044059753417969e+00 5.855019092559814453e-01
-1.103479194641113281e+01 4.346580982208251953e+00 1.448972057551145554e-02
-6.431659221649169922e+00 2.835484504699707031e+00 1.368836879730224609e+00
-6.658515930175781250e+00 2.649871587753295898e+00 1.325631141662597656e+00
-6.423024654388427734e+00 2.833016872406005859e+00 1.101822614669799805e+00
-6.580438137054443359e+00 2.624122142791748047e+00 1.044864177703857422e+00
-6.388286590576171875e+00 2.824356794357299805e+00 8.390676379203796387e-01
-6.579486370086669922e+00 2.627736330032348633e+00 7.834227681159973145e-01
-6.389980792999267578e+00 2.827773094177246094e+00 5.830904245376586914e-01
-6.614991188049316406e+00 2.645933389663696289e+00 5.269442200660705566e-01
-6.434273242950439453e+00 2.850059986114501953e+00 3.306367397308349609e-01
-6.490697860717773438e+00 2.879119634628295898e+00 7.559943199157714844e-02
-1.078794097900390625e+01 4.325997829437255859e+00 1.420016959309577942e-02
-6.484976291656494141e+00 2.620429754257202148e+00 1.563432693481445312e+00
-6.377416133880615234e+00 2.858434915542602539e+00 1.360999703407287598e+00
-6.600207805633544922e+00 2.673694610595703125e+00 1.317264080047607422e+00
-6.340618133544921875e+00 2.843270778656005859e+00 1.090658664703369141e+00
-6.539463043212890625e+00 2.654403448104858398e+00 1.040924549102783203e+00
-6.365402698516845703e+00 2.861059188842773438e+00 8.383520245552062988e-01
-6.542982101440429688e+00 2.659823179244995117e+00 7.810047864913940430e-01
-6.364330291748046875e+00 2.863248109817504883e+00 5.823419690132141113e-01
-6.596784114837646484e+00 2.685720205307006836e+00 5.267966389656066895e-01
-6.425772190093994141e+00 2.893587589263916016e+00 3.311060667037963867e-01
-6.657778739929199219e+00 2.714617490768432617e+00 2.699259817600250244e-01
-6.457413196563720703e+00 2.911903619766235352e+00 7.541844248771667480e-02
-6.655960083007812500e+00 2.716585874557495117e+00 8.783018216490745544e-03
-6.475093841552734375e+00 2.662769556045532227e+00 1.564959645271301270e+00
-1.266567611694335938e+01 6.932548999786376953e+00 3.100687265396118164e+00
-6.351717948913574219e+00 2.893849849700927734e+00 1.359279394149780273e+00
-6.552768707275390625e+00 2.701399803161621094e+00 1.311079740524291992e+00
-6.295185565948486328e+00 2.869420528411865234e+00 1.085851907730102539e+00
-6.490136146545410156e+00 2.680881977081298828e+00 1.035671830177307129e+00
-6.338696956634521484e+00 2.895936965942382812e+00 8.371593356132507324e-01
-6.507251262664794922e+00 2.691941022872924805e+00 7.786967158317565918e-01
-6.377455234527587891e+00 2.916335582733154297e+00 5.851692557334899902e-01
-6.581101894378662109e+00 2.726528406143188477e+00 5.268704295158386230e-01
-6.404263496398925781e+00 2.931298017501831055e+00 3.309183120727539062e-01
-6.624383449554443359e+00 2.748524427413940430e+00 2.692507207393646240e-01
-6.443060874938964844e+00 2.953137397766113281e+00 7.546103000640869141e-02
-6.632701873779296875e+00 2.754690170288085938e+00 8.774465881288051605e-03
-1.376785850524902344e+01 6.992577552795410156e+00 3.755747318267822266e+00
-6.465835571289062500e+00 2.705463409423828125e+00 1.566704750061035156e+00
-6.512493610382080078e+00 2.731667041778564453e+00 1.306350469589233398e+00
-6.264911174774169922e+00 2.902179479598999023e+00 1.083681106567382812e+00
-6.433434963226318359e+00 2.703788995742797852e+00 1.029251813888549805e+00
-6.479617595672607422e+00 2.727191209793090820e+00 7.773778438568115234e-01
-6.578033447265625000e+00 2.772668361663818359e+00 5.279768109321594238e-01
-6.353551387786865234e+00 2.955372095108032227e+00 3.292287588119506836e-01
-6.599107742309570312e+00 2.785621404647827148e+00 2.689130604267120361e-01
-1.475587463378906250e+01 6.873136520385742188e+00 1.733112484216690063e-01
-6.625807285308837891e+00 2.799617052078247070e+00 8.787905797362327576e-03
-6.435644149780273438e+00 2.739352941513061523e+00 1.563432693481445312e+00
-6.472999095916748047e+00 2.761927843093872070e+00 1.301803231239318848e+00
-1.254036235809326172e+01 6.477328777313232422e+00 2.351813316345214844e+00
-6.411265850067138672e+00 2.740879535675048828e+00 1.028376340866088867e+00
-6.435350418090820312e+00 2.755162239074707031e+00 7.740805745124816895e-01
-1.424614429473876953e+01 6.742393970489501953e+00 1.678071022033691406e-01
-1.086135673522949219e+01 4.668021202087402344e+00 1.444329507648944855e-02
-6.412445545196533203e+00 2.776075839996337891e+00 1.561905622482299805e+00
-6.438791751861572266e+00 2.794156074523925781e+00 1.298347234725952148e+00
-1.256677532196044922e+01 6.588963985443115234e+00 2.364304304122924805e+00
-6.404307365417480469e+00 2.784506082534790039e+00 1.029981374740600586e+00
-6.408299446105957031e+00 2.790232419967651367e+00 7.728716135025024414e-01
-6.432899951934814453e+00 2.804951429367065430e+00 5.190517902374267578e-01
-1.103959369659423828e+01 4.825087547302246094e+00 1.471940521150827408e-02
-1.396584701538085938e+01 6.769500255584716797e+00 3.617333173751831055e+00
-6.416128158569335938e+00 2.831229209899902344e+00 1.297255873680114746e+00
-1.268459129333496094e+01 6.750286102294921875e+00 2.394217729568481445e+00
-6.369909763336181641e+00 2.816149234771728516e+00 1.027209043502807617e+00
-6.395602226257324219e+00 2.831512212753295898e+00 7.734211087226867676e-01
-6.411010265350341797e+00 2.842349290847778320e+00 5.186830163002014160e-01
-6.459949970245361328e+00 2.868095159530639648e+00 2.653490900993347168e-01
-6.479028701782226562e+00 2.879273414611816406e+00 8.662067353725433350e-03
-1.261281013488769531e+01 6.800352096557617188e+00 3.485150098800659180e+00
-6.394149303436279297e+00 2.868531942367553711e+00 1.296346426010131836e+00
-1.283040428161621094e+01 6.929236412048339844e+00 2.429719448089599609e+00
-1.290364646911621094e+01 6.366699695587158203e+00 2.258379697799682617e+00
-6.348900794982910156e+00 2.853558778762817383e+00 1.026625394821166992e+00
-6.382640361785888672e+00 2.872741222381591797e+00 7.739706635475158691e-01
-6.390721321105957031e+00 2.880403518676757812e+00 5.184617042541503906e-01
-6.438586711883544922e+00 2.906034231185913086e+00 2.651990056037902832e-01
-6.451215744018554688e+00 2.914445400238037109e+00 8.648628368973731995e-03
-6.373744010925292969e+00 2.906487941741943359e+00 1.295800805091857910e+00
-1.262675094604492188e+01 6.919659137725830078e+00 2.399148702621459961e+00
-1.267090988159179688e+01 6.348836421966552734e+00 2.224422693252563477e+00
-6.333971977233886719e+00 2.893694639205932617e+00 1.027063131332397461e+00
-6.362181663513183594e+00 2.910609960556030273e+00 7.736409902572631836e-01
-6.380180358886718750e+00 2.922884702682495117e+00 5.190517902374267578e-01
-6.413368225097656250e+00 2.942152500152587891e+00 2.648988962173461914e-01
-6.454113006591796875e+00 2.963571786880493164e+00 8.676728233695030212e-03
-1.425215816497802734e+01 6.574859619140625000e+00 4.126456260681152344e+00
-6.364711761474609375e+00 2.949676275253295898e+00 1.297619700431823730e+00
-1.272504901885986328e+01 6.473948001861572266e+00 2.240858316421508789e+00
-6.283794403076171875e+00 2.917506694793701172e+00 1.021810293197631836e+00
-6.372551918029785156e+00 2.970892906188964844e+00 2.639609873294830322e-01
-1.084354686737060547e+01 5.059885501861572266e+00 1.461922377347946167e-02
-1.276057243347167969e+01 6.590894222259521484e+00 2.254193305969238281e+00
-1.086922168731689453e+01 5.153314590454101562e+00 1.469619292765855789e-02
-1.272863960266113281e+01 6.673654556274414062e+00 2.255743741989135742e+00
-1.084280300140380859e+01 5.222513675689697266e+00 1.470352336764335632e-02
-1.068120479583740234e+01 5.225662708282470703e+00 1.452759467065334320e-02
-1.048236846923828125e+01 5.208339214324951172e+00 1.430035289376974106e-02
-1.043146419525146484e+01 5.263100624084472656e+00 1.427469681948423386e-02
-1.057786750793457031e+01 5.418647766113281250e+00 1.452026329934597015e-02
-1.244931411743164062e+01 6.999359607696533203e+00 3.896407127380371094e+00
-1.056393909454345703e+01 5.493600845336914062e+00 1.454714220017194748e-02
-1.272241973876953125e+01 6.684377670288085938e+00 2.119639873504638672e+00
-1.054241275787353516e+01 5.564851760864257812e+00 1.456424593925476074e-02
-1.274332523345947266e+01 6.769773960113525391e+00 3.225466012954711914e+00
-1.046487712860107422e+01 5.606295108795166016e+00 1.450438145548105240e-02
-1.043906593322753906e+01 5.675177097320556641e+00 1.451659947633743286e-02
-1.039091300964355469e+01 5.731877803802490234e+00 1.449827291071414948e-02
-1.047946166992187500e+01 5.864876747131347656e+00 1.467175874859094620e-02
-1.026500511169433594e+01 5.827854633331298828e+00 1.442130375653505325e-02
-1.035470581054687500e+01 5.963091373443603516e+00 1.459845434874296188e-02
-4.731122016906738281e+00 3.500646352767944336e+00 1.746748536825180054e-01
-9.932803153991699219e+00 5.801572799682617188e+00 1.405356265604496002e-02
-4.628767490386962891e+00 3.469064474105834961e+00 1.716785579919815063e-01
-1.019385147094726562e+01 6.038236618041992188e+00 1.447505969554185867e-02
-9.838572502136230469e+00 5.909638881683349609e+00 1.402179710566997528e-02
-9.827749252319335938e+00 5.985501289367675781e+00 1.405845023691654205e-02
-9.872519493103027344e+00 6.096127986907958984e+00 1.417573634535074234e-02
-1.000021457672119141e+01 6.260057449340820312e+00 1.441397331655025482e-02
-4.712957859039306641e+00 3.492221355438232422e+00 1.187741085886955261e-01
-9.867892265319824219e+00 6.261826515197753906e+00 1.427836064249277115e-02
-4.689042568206787109e+00 3.519273281097412109e+00 1.187133789062500000e-01
-9.704810142517089844e+00 6.242194175720214844e+00 1.409754529595375061e-02
-9.870727539062500000e+00 6.434876441955566406e+00 1.439564768224954605e-02
-9.824382781982421875e+00 6.490911006927490234e+00 1.438587345182895660e-02
-9.794342041015625000e+00 6.557746410369873047e+00 1.440053433179855347e-02
-9.745644569396972656e+00 6.612105369567871094e+00 1.438831631094217300e-02
-4.704028606414794922e+00 3.490614891052246094e+00 6.236607208847999573e-02
-9.678521156311035156e+00 6.653650760650634766e+00 1.434922218322753906e-02
-4.680923461914062500e+00 3.518211126327514648e+00 6.234477832913398743e-02
-9.493913650512695312e+00 6.612889766693115234e+00 1.413541845977306366e-02
-9.486658096313476562e+00 6.694658756256103516e+00 1.418551057577133179e-02
-8.967884063720703125e+00 6.411353111267089844e+00 1.346835400909185410e-02
-9.272584915161132812e+00 6.715547084808349609e+00 1.398758962750434875e-02
-4.740174293518066406e+00 3.477548122406005859e+00 7.182552013546228409e-03
-4.705904960632324219e+00 3.497024536132812500e+00 7.163004484027624130e-03
-4.665183544158935547e+00 3.511400699615478516e+00 7.133682724088430405e-03
-4.622077941894531250e+00 3.523590564727783203e+00 7.100696209818124771e-03
-3.458997488021850586e+00 6.837918281555175781e+00 1.067420959472656250e+00
-3.413030147552490234e+00 6.848098278045654297e+00 1.351917386054992676e+00
-3.398868560791015625e+00 6.822666168212890625e+00 1.061764478683471680e+00
-3.381721258163452148e+00 6.794186592102050781e+00 7.775816917419433594e-01
-3.419714689254760742e+00 6.879546642303466797e+00 2.280147671699523926e-01
-3.357497692108154297e+00 6.841506481170654297e+00 1.346523642539978027e+00
-3.337749004364013672e+00 6.804267406463623047e+00 1.055694103240966797e+00
-3.321143865585327148e+00 6.776397705078125000e+00 7.731989622116088867e-01
-3.317085027694702148e+00 6.774098396301269531e+00 4.970152080059051514e-01
-3.375241041183471680e+00 6.895911216735839844e+00 2.278664261102676392e-01
-3.304317235946655273e+00 6.838925361633300781e+00 1.341999769210815430e+00
-3.288182735443115234e+00 6.808565139770507812e+00 1.053210735321044922e+00
-3.255725145339965820e+00 6.747371196746826172e+00 7.675930857658386230e-01
-3.275457382202148438e+00 6.794324398040771484e+00 4.970152080059051514e-01
-3.335468530654907227e+00 6.921894073486328125e+00 2.280444204807281494e-01
-3.255524873733520508e+00 6.844842910766601562e+00 1.339215993881225586e+00
-3.249320983886718750e+00 6.834874629974365234e+00 1.054176568984985352e+00
-3.262064695358276367e+00 6.867862224578857422e+00 7.790086269378662109e-01
-3.228573083877563477e+00 6.803476333618164062e+00 4.962261617183685303e-01
-3.206784248352050781e+00 6.850419521331787109e+00 1.336432099342346191e+00
-3.216136693954467773e+00 6.873522281646728516e+00 1.057073712348937988e+00
-3.225760936737060547e+00 6.900365352630615234e+00 7.804356217384338379e-01
-3.164690494537353516e+00 6.869966983795166016e+00 1.336432099342346191e+00
-3.456693172454833984e+00 6.836139678955078125e+00 1.276412129402160645e+00
-3.175972223281860352e+00 6.897624969482421875e+00 1.057763576507568359e+00
-3.193753957748413086e+00 6.942621707916259766e+00 7.829836606979370117e-01
-3.202762126922607422e+00 6.968609809875488281e+00 5.053656101226806641e-01
-3.094897747039794922e+00 6.825236797332763672e+00 1.609342455863952637e+00
-3.124103784561157227e+00 6.892843723297119141e+00 1.337128043174743652e+00
-3.412483930587768555e+00 6.852805614471435547e+00 1.275590300559997559e+00
-3.139311313629150391e+00 6.929613113403320312e+00 1.059695005416870117e+00
-3.390918731689453125e+00 6.815460681915283203e+00 9.859778881072998047e-01
-3.153965950012207031e+00 6.968431472778320312e+00 7.836971282958984375e-01
-3.395089387893676758e+00 6.829820632934570312e+00 7.088899016380310059e-01
-3.160765409469604492e+00 6.989948749542236328e+00 5.054970979690551758e-01
-3.393032312393188477e+00 6.831664085388183594e+00 4.304703176021575928e-01
-3.402901649475097656e+00 6.857542514801025391e+00 1.550116539001464844e-01
-3.043799638748168945e+00 6.823561191558837891e+00 1.604513287544250488e+00
-3.091375589370727539e+00 6.933468818664550781e+00 1.341303944587707520e+00
-3.362554788589477539e+00 6.857673645019531250e+00 1.272631883621215820e+00
-3.117697715759277344e+00 6.995787620544433594e+00 1.066869139671325684e+00
-3.335074424743652344e+00 6.807639598846435547e+00 9.818674921989440918e-01
-3.329480409622192383e+00 6.802230358123779297e+00 7.038925290107727051e-01
-3.312890529632568359e+00 6.774323940277099609e+00 4.255683720111846924e-01
-3.370416641235351562e+00 6.898055553436279297e+00 1.554570347070693970e-01
-3.006980419158935547e+00 6.853748321533203125e+00 1.607242822647094727e+00
-3.059056758880615234e+00 6.975754261016845703e+00 1.345827579498291016e+00
-3.298114538192749023e+00 6.831984996795654297e+00 1.264085173606872559e+00
-3.287209033966064453e+00 6.815469741821289062e+00 9.800692200660705566e-01
-3.302376508712768555e+00 6.853029251098632812e+00 7.070390582084655762e-01
-3.268662929534912109e+00 6.789126396179199219e+00 4.252302944660186768e-01
-3.348830223083496094e+00 6.961853027343750000e+00 1.564287692308425903e-01
-2.994693040847778320e+00 6.941194534301757812e+00 1.623409748077392578e+00
-3.250205039978027344e+00 6.839620113372802734e+00 1.261784195899963379e+00
-3.245753526687622070e+00 6.836407184600830078e+00 9.801976680755615234e-01
-3.255997657775878906e+00 6.864167213439941406e+00 7.061136364936828613e-01
-3.227371692657470703e+00 6.809957027435302734e+00 4.252866506576538086e-01
-3.202934503555297852e+00 6.842000961303710938e+00 1.545238256454467773e+00
-3.203997850418090820e+00 6.850499153137207031e+00 1.260140538215637207e+00
-3.207943439483642578e+00 6.865178585052490234e+00 9.814821481704711914e-01
-3.225612401962280273e+00 6.909278869628906250e+00 7.087048292160034180e-01
-3.178928852081298828e+00 6.900678157806396484e+00 1.554055571556091309e+00
-3.164378166198730469e+00 6.875405788421630859e+00 1.261126756668090820e+00
-3.465609073638916016e+00 6.853586196899414062e+00 1.205399513244628906e+00
-3.177359580993652344e+00 6.909961700439453125e+00 9.850786924362182617e-01
-3.188976526260375977e+00 6.941607952117919922e+00 7.100004553794860840e-01
-3.191454887390136719e+00 6.953400135040283203e+00 4.317662417888641357e-01
-3.104979991912841797e+00 6.850451469421386719e+00 1.538424849510192871e+00
-3.129456043243408203e+00 6.910866737365722656e+00 1.264085173606872559e+00
-3.421289205551147461e+00 6.870300769805908203e+00 1.204624295234680176e+00
-3.144711732864379883e+00 6.951012611389160156e+00 9.881615042686462402e-01
-3.375432252883911133e+00 6.793064594268798828e+00 9.112262725830078125e-01
-3.154115438461303711e+00 6.978283882141113281e+00 7.117587924003601074e-01
-3.150783777236938477e+00 6.977400779724121094e+00 4.320479631423950195e-01
-3.368544101715087891e+00 6.791095733642578125e+00 3.561677932739257812e-01
-3.416002988815307617e+00 6.895842075347900391e+00 8.193399012088775635e-02
-3.060893058776855469e+00 6.864900112152099609e+00 1.537422895431518555e+00
