-7.502654075622558594e+00 -3.620162487030029297e+00 8.535154461860656738e-01
-6.649352550506591797e+00 -3.511462450027465820e+00 6.988951563835144043e-01
-6.073799610137939453e+00 -3.495146989822387695e+00 5.847535133361816406e-01
-6.442821025848388672e+00 -4.024065017700195312e+00 5.618328452110290527e-01
-7.579010486602783203e+00 -3.653744697570800781e+00 5.544161796569824219e-01
-6.852300643920898438e+00 -3.615578889846801758e+00 4.372316300868988037e-01
-6.421077251434326172e+00 -3.692003726959228516e+00 3.480016291141510010e-01
-6.553787231445312500e+00 -4.088603973388671875e+00 2.899969518184661865e-01
-7.758428573608398438e+00 -3.738571166992187500e+00 2.556043565273284912e-01
-1.128389549255371094e+01 -6.480176925659179688e+00 1.385404020547866821e-01
-6.942554473876953125e+00 -4.327771663665771484e+00 9.994975291192531586e-03
-7.858227729797363281e+00 -3.735826492309570312e+00 2.564156770706176758e+00
-7.021471977233886719e+00 -3.668640136718750000e+00 2.244721174240112305e+00
-6.449059486389160156e+00 -3.680949687957763672e+00 2.025847434997558594e+00
-5.596158981323242188e+00 -3.474711418151855469e+00 1.731794714927673340e+00
-7.684039592742919922e+00 -3.654661178588867188e+00 2.160979747772216797e+00
-6.954642295837402344e+00 -3.630632877349853516e+00 1.908123731613159180e+00
-6.441981792449951172e+00 -3.672439336776733398e+00 1.728311657905578613e+00
-5.595282077789306641e+00 -3.467405319213867188e+00 1.471376299858093262e+00
-7.615540981292724609e+00 -3.623711824417114258e+00 1.811113834381103516e+00
-6.905769824981689453e+00 -3.602051973342895508e+00 1.593132376670837402e+00
-6.425305843353271484e+00 -3.656991481781005859e+00 1.439754247665405273e+00
-5.582224845886230469e+00 -3.452575445175170898e+00 1.214131116867065430e+00
-7.616744041442871094e+00 -3.622654199600219727e+00 1.490240931510925293e+00
-6.882429122924804688e+00 -3.586822271347045898e+00 1.293176770210266113e+00
-6.456321716308593750e+00 -3.673152685165405273e+00 1.165860414505004883e+00
-5.595024585723876953e+00 -3.455093860626220703e+00 9.698662757873535156e-01
-7.621140003204345703e+00 -3.623114109039306641e+00 1.175446152687072754e+00
-6.887350082397460938e+00 -3.586330175399780273e+00 1.005759119987487793e+00
-6.515241622924804688e+00 -3.699151515960693359e+00 9.000148773193359375e-01
-5.518206119537353516e+00 -3.403666496276855469e+00 7.169285416603088379e-01
-7.629859447479248047e+00 -3.623994827270507812e+00 8.654405474662780762e-01
-6.704339027404785156e+00 -3.488059759140014648e+00 7.024118304252624512e-01
-6.430571079254150391e+00 -3.648110389709472656e+00 6.169348955154418945e-01
-5.793226718902587891e+00 -3.569114923477172852e+00 5.032671093940734863e-01
-7.656277179718017578e+00 -3.633267402648925781e+00 5.584270358085632324e-01
-6.951427459716796875e+00 -3.613529443740844727e+00 4.421336054801940918e-01
-6.475762844085693359e+00 -3.670760869979858398e+00 3.497380912303924561e-01
-6.918327331542968750e+00 -4.257275581359863281e+00 3.049657344818115234e-01
-7.816443920135498047e+00 -3.707602739334106445e+00 2.567613720893859863e-01
-1.151488113403320312e+01 -6.519200801849365234e+00 1.408825963735580444e-01
-7.193014621734619141e+00 -4.422846794128417969e+00 1.031628996133804321e-02
-8.039996147155761719e+00 -3.761932134628295898e+00 2.615886688232421875e+00
-7.120841503143310547e+00 -3.665115833282470703e+00 2.269256591796875000e+00
-6.483294963836669922e+00 -3.647932767868041992e+00 2.029532194137573242e+00
-5.694075584411621094e+00 -3.487283945083618164e+00 1.755441308021545410e+00
-7.816924095153808594e+00 -3.659219741821289062e+00 2.191995143890380859e+00
-7.039868354797363281e+00 -3.620331048965454102e+00 1.925375819206237793e+00
-6.484770774841308594e+00 -3.644294023513793945e+00 1.733759522438049316e+00
-5.678071022033691406e+00 -3.470671892166137695e+00 1.487518787384033203e+00
-7.641173362731933594e+00 -3.578574180603027344e+00 1.811953663825988770e+00
-7.029696941375732422e+00 -3.611998081207275391e+00 1.616578459739685059e+00
-6.480152606964111328e+00 -3.635748386383056641e+00 1.447017908096313477e+00
-5.627648830413818359e+00 -3.433109521865844727e+00 1.219406008720397949e+00
-7.709285736083984375e+00 -3.608832597732543945e+00 1.503986239433288574e+00
-7.009610176086425781e+00 -3.598584651947021484e+00 1.312899827957153320e+00
-6.489939689636230469e+00 -3.639750480651855469e+00 1.167876124382019043e+00
-5.575563430786132812e+00 -3.395996570587158203e+00 9.628625512123107910e-01
-7.727554321289062500e+00 -3.615740060806274414e+00 1.188414692878723145e+00
-7.053939819335937500e+00 -3.618232250213623047e+00 1.026824831962585449e+00
-6.497962474822998047e+00 -3.636799335479736328e+00 8.945284485816955566e-01
-5.573801994323730469e+00 -3.390923500061035156e+00 7.214347124099731445e-01
-7.793438911437988281e+00 -3.643252134323120117e+00 8.814427852630615234e-01
-7.031324863433837891e+00 -3.603532314300537109e+00 7.343396544456481934e-01
-6.410215854644775391e+00 -3.584751129150390625e+00 6.128602623939514160e-01
-5.823539733886718750e+00 -3.538679838180541992e+00 5.040047168731689453e-01
-7.761602401733398438e+00 -3.625068426132202148e+00 5.644761323928833008e-01
-7.099660873413085938e+00 -3.635425806045532227e+00 4.501344561576843262e-01
-6.439740180969238281e+00 -3.598311662673950195e+00 3.465936481952667236e-01
-6.951152801513671875e+00 -4.218893051147460938e+00 3.052658438682556152e-01
-7.783796787261962891e+00 -3.633779764175415039e+00 2.549517154693603516e-01
-1.131367015838623047e+01 -6.313929557800292969e+00 1.379442065954208374e-01
-6.952387809753417969e+00 -4.216322422027587891e+00 9.933888912200927734e-03
-8.167482376098632812e+00 -3.760670661926269531e+00 2.649807929992675781e+00
-7.277066707611083984e+00 -3.689222097396850586e+00 2.311784744262695312e+00
-6.557863712310791016e+00 -3.637094020843505859e+00 2.045850515365600586e+00
-5.782420635223388672e+00 -3.492783308029174805e+00 1.776036620140075684e+00
-8.019694328308105469e+00 -3.694319248199462891e+00 2.242456674575805664e+00
-7.178102970123291016e+00 -3.635901689529418945e+00 1.957043886184692383e+00
-6.551309585571289062e+00 -3.628974914550781250e+00 1.745563030242919922e+00
-5.751079082489013672e+00 -3.467005491256713867e+00 1.501043796539306641e+00
-8.037701606750488281e+00 -3.704314708709716797e+00 1.900556683540344238e+00
-7.149631977081298828e+00 -3.618345022201538086e+00 1.639022707939147949e+00
-6.522953987121582031e+00 -3.607319116592407227e+00 1.451605558395385742e+00
-5.748874187469482422e+00 -3.458839893341064453e+00 1.241051197052001953e+00
-7.885122776031494141e+00 -3.632328033447265625e+00 1.533912897109985352e+00
-7.077332019805908203e+00 -3.578652143478393555e+00 1.321446418762207031e+00
-6.527712821960449219e+00 -3.608463048934936523e+00 1.170667052268981934e+00
-5.655659675598144531e+00 -3.397381544113159180e+00 9.730762243270874023e-01
-7.862950801849365234e+00 -3.620450973510742188e+00 1.205798149108886719e+00
-7.100792884826660156e+00 -3.587403297424316406e+00 1.030421376228332520e+00
-6.524501800537109375e+00 -3.599258184432983398e+00 8.951247930526733398e-01
-5.683994770050048828e+00 -3.410353899002075195e+00 7.329750657081604004e-01
-7.860833644866943359e+00 -3.616150856018066406e+00 8.865389227867126465e-01
-6.408526897430419922e+00 -3.532362937927246094e+00 6.106150746345520020e-01
-5.827178955078125000e+00 -3.492115259170532227e+00 5.024557113647460938e-01
-7.967751979827880859e+00 -3.661966323852539062e+00 5.778236985206604004e-01
-7.276055812835693359e+00 -3.669574260711669922e+00 4.598820507526397705e-01
-6.600819110870361328e+00 -3.635350227355957031e+00 3.540558516979217529e-01
-7.002632141113281250e+00 -4.191559314727783203e+00 3.063913583755493164e-01
-7.943100452423095703e+00 -3.648957490921020508e+00 2.594313323497772217e-01
-8.173126220703125000e+00 -4.118420600891113281e+00 1.853175759315490723e-01
-1.152129459381103516e+01 -6.337404251098632812e+00 1.399989426136016846e-01
-6.942082881927490234e+00 -4.152025699615478516e+00 9.882575832307338715e-03
-7.426104068756103516e+00 -3.707678556442260742e+00 2.351859331130981445e+00
-6.650319099426269531e+00 -3.635193824768066406e+00 2.067696094512939453e+00
-5.947486400604248047e+00 -3.542864084243774414e+00 1.820024490356445312e+00
-8.039563179016113281e+00 -3.643841505050659180e+00 2.241718053817749023e+00
-7.270706653594970703e+00 -3.626922130584716797e+00 1.976186633110046387e+00
-6.633289337158203125e+00 -3.621375560760498047e+00 1.761452317237854004e+00
-5.878779888153076172e+00 -3.494988918304443359e+00 1.528747916221618652e+00
-8.045142173767089844e+00 -3.648062944412231445e+00 1.896987557411193848e+00
-7.274289608001708984e+00 -3.625539064407348633e+00 1.662468671798706055e+00
-6.581163406372070312e+00 -3.586956262588500977e+00 1.459633946418762207e+00
-5.869777679443359375e+00 -3.482707977294921875e+00 1.262514472007751465e+00
-7.999645233154296875e+00 -3.625749111175537109e+00 1.551834106445312500e+00
-7.214827537536621094e+00 -3.592759609222412109e+00 1.342977523803710938e+00
-6.586166858673095703e+00 -3.588192462921142578e+00 1.177179455757141113e+00
-5.794710636138916016e+00 -3.432701110839843750e+00 9.933577775955200195e-01
-7.962604522705078125e+00 -3.607285737991333008e+00 1.217662811279296875e+00
-7.242536544799804688e+00 -3.603403329849243164e+00 1.047762036323547363e+00
-6.565653800964355469e+00 -3.569590091705322266e+00 8.977487087249755859e-01
-5.770680904388427734e+00 -3.414385795593261719e+00 7.414379715919494629e-01
-7.997972965240478516e+00 -3.619944334030151367e+00 8.994833827018737793e-01
-6.528155803680419922e+00 -3.546251535415649414e+00 6.199285387992858887e-01
-5.852789402008056641e+00 -3.458831548690795898e+00 5.028245449066162109e-01
-7.968251228332519531e+00 -3.603141307830810547e+00 5.762457251548767090e-01
-7.332414627075195312e+00 -3.641736507415771484e+00 4.620231389999389648e-01
-6.623878955841064453e+00 -3.595256805419921875e+00 3.541027903556823730e-01
-8.103922843933105469e+00 -4.783463954925537109e+00 3.532860577106475830e-01
-2.801759481430053711e+00 -1.266330838203430176e+00 9.125337004661560059e-02
-8.156149864196777344e+00 -4.047306537628173828e+00 1.843660920858383179e-01
-1.150985527038574219e+01 -6.239428520202636719e+00 1.393921077251434326e-01
-7.212912082672119141e+00 -4.254136562347412109e+00 1.023076940327882767e-02
-7.530738353729248047e+00 -3.702368974685668945e+00 2.377757787704467773e+00
-6.783763885498046875e+00 -3.654255628585815430e+00 2.102175235748291016e+00
-6.021649360656738281e+00 -3.537164211273193359e+00 1.836043119430541992e+00
-7.875872135162353516e+00 -3.511558055877685547e+00 2.190025806427001953e+00
-7.465507507324218750e+00 -3.667063951492309570e+00 2.022979974746704102e+00
-6.700840473175048828e+00 -3.605061292648315430e+00 1.773482918739318848e+00
-6.044922828674316406e+00 -3.543743610382080078e+00 1.566268563270568848e+00
-8.027194023132324219e+00 -3.580706596374511719e+00 1.887539267539978027e+00
-7.380830764770507812e+00 -3.622273445129394531e+00 1.681706428527832031e+00
-6.683468818664550781e+00 -3.589701175689697266e+00 1.477411150932312012e+00
-5.970817089080810547e+00 -3.493302822113037109e+00 1.279612302780151367e+00
-8.010048866271972656e+00 -3.571382761001586914e+00 1.549572110176086426e+00
-7.288104534149169922e+00 -3.573610067367553711e+00 1.352510333061218262e+00
-6.680302619934082031e+00 -3.586498260498046875e+00 1.190049052238464355e+00
-6.025807380676269531e+00 -3.519830942153930664e+00 1.029251813888549805e+00
-8.067817687988281250e+00 -3.595451593399047852e+00 1.230355501174926758e+00
-7.371380805969238281e+00 -3.611252069473266602e+00 1.063176035881042480e+00
-6.644319057464599609e+00 -3.559713840484619141e+00 9.055013060569763184e-01
-5.933176994323730469e+00 -3.461557865142822266e+00 7.595727443695068359e-01
-8.096371650695800781e+00 -3.604789733886718750e+00 9.080449938774108887e-01
-7.336141586303710938e+00 -3.590813398361206055e+00 7.591415047645568848e-01
-6.569120883941650391e+00 -3.516475439071655273e+00 6.217579245567321777e-01
-6.018660068511962891e+00 -3.507208108901977539e+00 5.152162909507751465e-01
-8.119671821594238281e+00 -3.611768007278442383e+00 5.855823755264282227e-01
-6.863377571105957031e+00 -3.670910358428955078e+00 3.656950294971466064e-01
-8.054527282714843750e+00 -4.687905788421630859e+00 3.498721122741699219e-01
-2.814043521881103516e+00 -1.251146197319030762e+00 9.140170365571975708e-02
-1.157640933990478516e+01 -5.656278133392333984e+00 2.608900666236877441e-01
-1.162289237976074219e+01 -6.208734989166259766e+00 1.402970403432846069e-01
-7.259625911712646484e+00 -4.221864700317382812e+00 1.026009116321802139e-02
-7.622594356536865234e+00 -3.689625978469848633e+00 2.399566888809204102e+00
-6.859743118286132812e+00 -3.641057491302490234e+00 2.118756771087646484e+00
-6.275060176849365234e+00 -3.634416341781616211e+00 1.906474232673645020e+00
-7.975382328033447266e+00 -3.497420787811279297e+00 2.211687564849853516e+00
-7.566595077514648438e+00 -3.659260749816894531e+00 2.044249534606933594e+00
-6.795114040374755859e+00 -3.602194309234619141e+00 1.792550206184387207e+00
-6.272714138031005859e+00 -3.625751256942749023e+00 1.619495511054992676e+00
-7.843087673187255859e+00 -3.441038131713867188e+00 1.839248418807983398e+00
-7.502599716186523438e+00 -3.625081062316894531e+00 1.704350948333740234e+00
-6.781713962554931641e+00 -3.589027881622314453e+00 1.494232416152954102e+00
-6.150566577911376953e+00 -3.547990560531616211e+00 1.313444256782531738e+00
-7.871284484863281250e+00 -3.451771020889282227e+00 1.518601655960083008e+00
-7.484891891479492188e+00 -3.613303184509277344e+00 1.384889125823974609e+00
-6.804353237152099609e+00 -3.599489212036132812e+00 1.208190441131591797e+00
-6.078153133392333984e+00 -3.500565290451049805e+00 1.034504532814025879e+00
-7.888345718383789062e+00 -3.457611322402954102e+00 1.199727654457092285e+00
-7.522920131683349609e+00 -3.628423690795898438e+00 1.081801056861877441e+00
-6.794229030609130859e+00 -3.586548566818237305e+00 9.229148030281066895e-01
-6.025815486907958984e+00 -3.466222286224365234e+00 7.686951160430908203e-01
-7.910572528839111328e+00 -3.464062690734863281e+00 8.848062753677368164e-01
-7.543714523315429688e+00 -3.635207891464233398e+00 7.782982587814331055e-01
-6.328883171081542969e+00 -3.636146545410156250e+00 5.398522615432739258e-01
-7.912221431732177734e+00 -3.461493492126464844e+00 5.690788030624389648e-01
-7.502492427825927734e+00 -3.612117052078247070e+00 4.699113070964813232e-01
-6.923771858215332031e+00 -3.648753643035888672e+00 3.677131235599517822e-01
-8.025936126708984375e+00 -4.605569839477539062e+00 3.473960757255554199e-01
-2.810677528381347656e+00 -1.229050397872924805e+00 9.104570746421813965e-02
-7.874543666839599609e+00 -3.787857770919799805e+00 1.769363880157470703e-01
-1.173952198028564453e+01 -6.178750514984130859e+00 1.412445604801177979e-01
-7.320095062255859375e+00 -4.197136878967285156e+00 1.030896045267581940e-02
-7.797957420349121094e+00 -3.715624570846557617e+00 2.447547674179077148e+00
-6.974284172058105469e+00 -3.647181749343872070e+00 2.147182226181030273e+00
-6.446737289428710938e+00 -3.681209325790405273e+00 1.951733469963073730e+00
-8.215633392333984375e+00 -3.542833089828491211e+00 2.272241353988647461e+00
-7.684535026550292969e+00 -3.658289194107055664e+00 2.070009469985961914e+00
-6.920678615570068359e+00 -3.614535570144653320e+00 1.819789052009582520e+00
-6.430508136749267578e+00 -3.664504528045654297e+00 1.654398441314697266e+00
-8.041803359985351562e+00 -3.469536781311035156e+00 1.880820512771606445e+00
-7.593711376190185547e+00 -3.611800909042358398e+00 1.719981789588928223e+00
-6.897606849670410156e+00 -3.596358776092529297e+00 1.514876723289489746e+00
-6.432922840118408203e+00 -3.658447504043579102e+00 1.368921518325805664e+00
-7.925773143768310547e+00 -3.417836427688598633e+00 1.525039315223693848e+00
-7.611159801483154297e+00 -3.616842746734619141e+00 1.404119014739990234e+00
-6.875370979309082031e+00 -3.583239316940307617e+00 1.216873645782470703e+00
-6.466865539550781250e+00 -3.671778202056884766e+00 1.096808195114135742e+00
-7.899407863616943359e+00 -3.404832124710083008e+00 1.198210120201110840e+00
-7.619400024414062500e+00 -3.617498874664306641e+00 1.092462420463562012e+00
-6.898908615112304688e+00 -3.587854146957397461e+00 9.341261982917785645e-01
-6.436902046203613281e+00 -3.650310039520263672e+00 8.182635307312011719e-01
-7.904267787933349609e+00 -3.403655529022216797e+00 8.817484974861145020e-01
-7.655839920043945312e+00 -3.631525516510009766e+00 7.875526547431945801e-01
-6.389256477355957031e+00 -3.618870496749877930e+00 5.430977344512939453e-01
-7.962643146514892578e+00 -3.425498247146606445e+00 5.711827874183654785e-01
-7.621052742004394531e+00 -3.611765861511230469e+00 4.759401679039001465e-01
-6.938050746917724609e+00 -3.602058887481689453e+00 3.672907054424285889e-01
-8.067959785461425781e+00 -4.564109325408935547e+00 3.479963243007659912e-01
-2.801636934280395508e+00 -1.204674005508422852e+00 9.051171690225601196e-02
-7.961794376373291016e+00 -3.769847154617309570e+00 1.783737391233444214e-01
-1.194232749938964844e+01 -6.192215442657470703e+00 1.432247757911682129e-01
-7.148965835571289062e+00 -4.040933609008789062e+00 1.003284938633441925e-02
-7.897264480590820312e+00 -3.703656911849975586e+00 2.471537590026855469e+00
-7.097731590270996094e+00 -3.656453609466552734e+00 2.178239822387695312e+00
-6.487744331359863281e+00 -3.652020454406738281e+00 1.957327246665954590e+00
-8.761022567749023438e+00 -3.714435338973999023e+00 2.416733264923095703e+00
-7.775467395782470703e+00 -3.643225908279418945e+00 2.088443279266357422e+00
-7.035388946533203125e+00 -3.619677305221557617e+00 1.844077229499816895e+00
-6.501370429992675781e+00 -3.652223348617553711e+00 1.666832566261291504e+00
-8.216855049133300781e+00 -3.485415220260620117e+00 1.916723728179931641e+00
-7.797626972198486328e+00 -3.650290012359619141e+00 1.761062502861022949e+00
-6.981535911560058594e+00 -3.585808277130126953e+00 1.528448581695556641e+00
-6.472404479980468750e+00 -3.628524065017700195e+00 1.372559309005737305e+00
-8.142427444458007812e+00 -3.452167987823486328e+00 1.562621712684631348e+00
-7.748471736907958984e+00 -3.623982191085815430e+00 1.425321459770202637e+00
-6.991264820098876953e+00 -3.589263200759887695e+00 1.233464479446411133e+00
-6.492726325988769531e+00 -3.633961915969848633e+00 1.097391963005065918e+00
-8.046909332275390625e+00 -3.410014152526855469e+00 1.217386960983276367e+00
-7.733995437622070312e+00 -3.613921880722045898e+00 1.105692744255065918e+00
-6.975580215454101562e+00 -3.573522329330444336e+00 9.415209889411926270e-01
-6.513836860656738281e+00 -3.641299724578857422e+00 8.251877427101135254e-01
-8.111884117126464844e+00 -3.434208631515502930e+00 9.025411009788513184e-01
-7.755570888519287109e+00 -3.620705842971801758e+00 7.955114841461181641e-01
-7.041680812835693359e+00 -3.604282617568969727e+00 6.600928902626037598e-01
-6.446170806884765625e+00 -3.599045038223266602e+00 5.460481047630310059e-01
-8.145259857177734375e+00 -3.444986104965209961e+00 5.827550888061523438e-01
-7.679263591766357422e+00 -3.581817388534545898e+00 4.781939387321472168e-01
-6.989370346069335938e+00 -3.574429035186767578e+00 3.688394725322723389e-01
-8.105414390563964844e+00 -4.519873142242431641e+00 3.484089970588684082e-01
-2.832913637161254883e+00 -1.197580099105834961e+00 9.128303825855255127e-02
-7.885996818542480469e+00 -3.674892187118530273e+00 1.761671006679534912e-01
-1.184562969207763672e+01 -6.050142765045166016e+00 1.416171938180923462e-01
-7.164016246795654297e+00 -3.991637945175170898e+00 1.001940947026014328e-02
-8.045636177062988281e+00 -3.713186740875244141e+00 2.510794401168823242e+00
-7.212088584899902344e+00 -3.659544229507446289e+00 2.206402301788330078e+00
-6.534554958343505859e+00 -3.625751495361328125e+00 1.964700818061828613e+00
-9.001941680908203125e+00 -3.751583337783813477e+00 2.476794481277465820e+00
-7.977682590484619141e+00 -3.678447961807250977e+00 2.136654376983642578e+00
-7.125226497650146484e+00 -3.610779047012329102e+00 1.861782550811767578e+00
-6.549271106719970703e+00 -3.626445531845092773e+00 1.673376917839050293e+00
-8.377959251403808594e+00 -3.493252992630004883e+00 1.949267387390136719e+00
-7.915980815887451172e+00 -3.646647691726684570e+00 1.782705187797546387e+00
-7.153179645538330078e+00 -3.618670463562011719e+00 1.561135530471801758e+00
-6.522948265075683594e+00 -3.604436159133911133e+00 1.378561735153198242e+00
-8.348885536193847656e+00 -3.479420185089111328e+00 1.598115921020507812e+00
-7.847621917724609375e+00 -3.611836671829223633e+00 1.439456224441528320e+00
-7.094264030456542969e+00 -3.587311029434204102e+00 1.247729539871215820e+00
-6.540888786315917969e+00 -3.608391046524047852e+00 1.101769208908081055e+00
-8.199338912963867188e+00 -3.415416717529296875e+00 1.237253665924072266e+00
-7.912802696228027344e+00 -3.638489246368408203e+00 1.128042936325073242e+00
-7.134770393371582031e+00 -3.599978923797607422e+00 9.600079059600830078e-01
-6.512552261352539062e+00 -3.588312387466430664e+00 8.222202062606811523e-01
-8.274243354797363281e+00 -3.443229198455810547e+00 9.182375073432922363e-01
-7.837357521057128906e+00 -3.600484132766723633e+00 8.016194105148315430e-01
-7.059215068817138672e+00 -3.558764934539794922e+00 6.596771478652954102e-01
-6.405225276947021484e+00 -3.524806261062622070e+00 5.407373905181884766e-01
-7.878039360046386719e+00 -3.615843534469604492e+00 4.891810417175292969e-01
-7.114657402038574219e+00 -3.583600997924804688e+00 3.742836117744445801e-01
-8.132119178771972656e+00 -4.469573020935058594e+00 3.483714759349822998e-01
-1.154082679748535156e+01 -4.795491695404052734e+00 3.709170520305633545e-01
-7.998368740081787109e+00 -3.667692422866821289e+00 1.781712919473648071e-01
-1.200937652587890625e+01 -6.041153907775878906e+00 1.431289613246917725e-01
-7.347901344299316406e+00 -4.035212039947509766e+00 1.024176459759473801e-02
-8.240847587585449219e+00 -3.742116928100585938e+00 2.564499855041503906e+00
-7.338828563690185547e+00 -3.667405128479003906e+00 2.238249540328979492e+00
-6.640684604644775391e+00 -3.631527185440063477e+00 1.989873051643371582e+00
-9.171887397766113281e+00 -3.756523370742797852e+00 2.517163753509521484e+00
-8.126638412475585938e+00 -3.686834335327148438e+00 2.170449256896972656e+00
-7.309328556060791016e+00 -3.647881507873535156e+00 1.904002904891967773e+00
-6.604808807373046875e+00 -3.604423999786376953e+00 1.681884527206420898e+00
-8.056887626647949219e+00 -3.651799440383911133e+00 1.809357523918151855e+00
-7.236748218536376953e+00 -3.605350255966186523e+00 1.574516057968139648e+00
-6.589847564697265625e+00 -3.588799476623535156e+00 1.388020157814025879e+00
-8.449358940124511719e+00 -3.460597991943359375e+00 1.613253235816955566e+00
-7.999029636383056641e+00 -3.622210025787353516e+00 1.463123917579650879e+00
-7.193078517913818359e+00 -3.582026958465576172e+00 1.261219501495361328e+00
-6.569859504699707031e+00 -3.571969509124755859e+00 1.102936506271362305e+00
-8.412629127502441406e+00 -3.443840265274047852e+00 1.266225934028625488e+00
-8.028044700622558594e+00 -3.631972551345825195e+00 1.141273260116577148e+00
-7.220743179321289062e+00 -3.587943077087402344e+00 9.685953259468078613e-01
-6.607819080352783203e+00 -3.588126182556152344e+00 8.314524888992309570e-01
-8.380846023559570312e+00 -3.427414178848266602e+00 9.277164340019226074e-01
-7.874727249145507812e+00 -3.559299230575561523e+00 8.031926751136779785e-01
-6.542450428009033203e+00 -3.548195838928222656e+00 5.504737496376037598e-01
-8.531467437744140625e+00 -3.485536336898803711e+00 6.072803139686584473e-01
-7.910996913909912109e+00 -3.572367668151855469e+00 4.898571670055389404e-01
-7.372755050659179688e+00 -3.657060861587524414e+00 3.866736888885498047e-01
-8.123365402221679688e+00 -4.400077819824218750e+00 3.468333482742309570e-01
-1.150155735015869141e+01 -4.696625709533691406e+00 3.687217831611633301e-01
-2.796909093856811523e+00 -1.261824607849121094e+00 6.213017925620079041e-02
-1.203725814819335938e+01 -5.962913513183593750e+00 1.430225074291229248e-01
-7.317995548248291016e+00 -3.960540294647216797e+00 1.016601733863353729e-02
-8.376974105834960938e+00 -3.742103338241577148e+00 2.599667310714721680e+00
-7.486707210540771484e+00 -3.684068679809570312e+00 2.276413440704345703e+00
-6.734357833862304688e+00 -3.629253149032592773e+00 2.011231184005737305e+00
-9.500476837158203125e+00 -3.823200702667236328e+00 2.600855827331542969e+00
-7.897997379302978516e+00 -3.524831771850585938e+00 2.103568077087402344e+00
-7.415482997894287109e+00 -3.644199132919311523e+00 1.925794005393981934e+00
-6.686106681823730469e+00 -3.595724105834960938e+00 1.696936368942260742e+00
-8.890000343322753906e+00 -3.579334259033203125e+00 2.058026552200317383e+00
-8.101512908935546875e+00 -3.612268924713134766e+00 1.814367413520812988e+00
-7.341569900512695312e+00 -3.601514816284179688e+00 1.592484354972839355e+00
-6.681058406829833984e+00 -3.585495948791503906e+00 1.402571558952331543e+00
-8.678722381591796875e+00 -3.492508649826049805e+00 1.652923345565795898e+00
-8.039125442504882812e+00 -3.581088304519653320e+00 1.466411232948303223e+00
-7.328458309173583984e+00 -3.593496084213256836e+00 1.281066417694091797e+00
-6.671879291534423828e+00 -3.574573040008544922e+00 1.116360306739807129e+00
-8.593488693237304688e+00 -3.456466197967529297e+00 1.290231466293334961e+00
-8.083703041076660156e+00 -3.597564458847045898e+00 1.146025896072387695e+00
-7.386209011077880859e+00 -3.613821744918823242e+00 9.877979159355163574e-01
-6.667394161224365234e+00 -3.567677974700927734e+00 8.361784815788269043e-01
-8.610330581665039062e+00 -3.459748983383178711e+00 9.507513046264648438e-01
-7.947368621826171875e+00 -3.533567190170288086e+00 8.083751797676086426e-01
-7.212476253509521484e+00 -3.525700569152832031e+00 6.699053645133972168e-01
-6.550905227661132812e+00 -3.500934839248657227e+00 5.493673682212829590e-01
-2.834043741226196289e+00 -1.258890867233276367e+00 1.750053465366363525e-01
-7.502763271331787109e+00 -3.664358377456665039e+00 3.923055231571197510e-01
-8.118474006652832031e+00 -4.333210945129394531e+00 3.454827666282653809e-01
-1.151624298095703125e+01 -4.620382308959960938e+00 3.682767748832702637e-01
-2.798201799392700195e+00 -1.241800427436828613e+00 6.198846548795700073e-02
-1.201879692077636719e+01 -5.862202167510986328e+00 1.423730850219726562e-01
-7.342159271240234375e+00 -3.915563344955444336e+00 1.016601733863353729e-02
-7.622038841247558594e+00 -3.692744255065917969e+00 2.310629367828369141e+00
-6.880354881286621094e+00 -3.653633594512939453e+00 2.048099517822265625e+00
-9.626511573791503906e+00 -3.805454492568969727e+00 2.628917217254638672e+00
-7.939940929412841797e+00 -3.485287189483642578e+00 2.109003782272338867e+00
-7.531508445739746094e+00 -3.644016027450561523e+00 1.950082182884216309e+00
-6.813247680664062500e+00 -3.610379457473754883e+00 1.723549842834472656e+00
-9.089994430541992188e+00 -3.595198869705200195e+00 2.099178791046142578e+00
-7.840000152587890625e+00 -3.438153982162475586e+00 1.751042962074279785e+00
-7.504949569702148438e+00 -3.624701976776123047e+00 1.623068571090698242e+00
-6.782905578613281250e+00 -3.586723089218139648e+00 1.419305682182312012e+00
-9.013188362121582031e+00 -3.563002109527587891e+00 1.712428569793701172e+00
-7.900125980377197266e+00 -3.461233854293823242e+00 1.437155246734619141e+00
-7.471364021301269531e+00 -3.606873035430908203e+00 1.302154064178466797e+00
-6.768051624298095703e+00 -3.572824478149414062e+00 1.128762722015380859e+00
-8.866007804870605469e+00 -3.503031015396118164e+00 1.327895402908325195e+00
-7.896669864654541016e+00 -3.456434726715087891e+00 1.116482496261596680e+00
-7.487854003906250000e+00 -3.606779813766479492e+00 9.984129667282104492e-01
-6.777961730957031250e+00 -3.573519468307495117e+00 8.472791910171508789e-01
-8.844222068786621094e+00 -3.490854501724243164e+00 9.741939902305603027e-01
-7.943356513977050781e+00 -3.473566293716430664e+00 8.057839274406433105e-01
-6.901406288146972656e+00 -3.633985757827758789e+00 5.768799781799316406e-01
-2.814267635345458984e+00 -1.229486703872680664e+00 1.733150184154510498e-01
-7.682648181915283203e+00 -3.694003343582153320e+00 4.005186557769775391e-01
-8.105992317199707031e+00 -4.262849807739257812e+00 3.438320457935333252e-01
-1.153600692749023438e+01 -4.546334743499755859e+00 3.680097758769989014e-01
-2.795689344406127930e+00 -1.220208287239074707e+00 6.176577880978584290e-02
-7.488209724426269531e+00 -3.934628725051879883e+00 1.033461652696132660e-02
-7.762108802795410156e+00 -3.701972246170043945e+00 2.346161365509033203e+00
-6.994336128234863281e+00 -3.659319877624511719e+00 2.075305938720703125e+00
-8.136921882629394531e+00 -3.512364625930786133e+00 2.155560731887817383e+00
-7.669788360595703125e+00 -3.653013706207275391e+00 1.980044960975646973e+00
-6.904481410980224609e+00 -3.604638338088989258e+00 1.741001248359680176e+00
-9.964926719665527344e+00 -3.870706319808959961e+00 2.295701265335083008e+00
-8.031877517700195312e+00 -3.463696002960205078e+00 1.789117693901062012e+00
-7.617469787597656250e+00 -3.621572971343994141e+00 1.642566084861755371e+00
-6.900713443756103516e+00 -3.595011234283447266e+00 1.439313769340515137e+00
-9.179924011230468750e+00 -3.563941478729248047e+00 1.739919304847717285e+00
-7.949297904968261719e+00 -3.424793481826782227e+00 1.442250370979309082e+00
-7.597750663757324219e+00 -3.610572338104248047e+00 1.320295453071594238e+00
-6.906579971313476562e+00 -3.591939449310302734e+00 1.148168683052062988e+00
-8.973207473754882812e+00 -3.481885671615600586e+00 1.340726017951965332e+00
-7.931393623352050781e+00 -3.413797855377197266e+00 1.118409276008605957e+00
-7.617498874664306641e+00 -3.611811637878417969e+00 1.012725353240966797e+00
-6.922366619110107422e+00 -3.595546007156372070e+00 8.625563979148864746e-01
-9.060258865356445312e+00 -3.512025833129882812e+00 9.955981373786926270e-01
-7.887682914733886719e+00 -3.391721248626708984e+00 7.980101108551025391e-01
-7.431715488433837891e+00 -3.520546197891235352e+00 6.862039566040039062e-01
-6.859835624694824219e+00 -3.558507204055786133e+00 5.715692043304443359e-01
-2.824510574340820312e+00 -1.213377833366394043e+00 1.734840571880340576e-01
-7.735867977142333984e+00 -3.661323308944702148e+00 4.021143615245819092e-01
-8.102715492248535156e+00 -4.197862625122070312e+00 3.425940275192260742e-01
-1.155809211730957031e+01 -4.473300457000732422e+00 3.678317666053771973e-01
-2.791179895401000977e+00 -1.197905302047729492e+00 6.150259822607040405e-02
-8.007149696350097656e+00 -3.784588575363159180e+00 9.429434686899185181e-02
-7.569935321807861328e+00 -3.918488025665283203e+00 1.041402854025363922e-02
-7.876374721527099609e+00 -3.697319507598876953e+00 2.373797178268432617e+00
-7.088870048522949219e+00 -3.653552055358886719e+00 2.096663951873779297e+00
-8.312166213989257812e+00 -3.527663230895996094e+00 2.196209192276000977e+00
-7.779357910156250000e+00 -3.646808385848999023e+00 2.002517223358154297e+00
-7.053178310394287109e+00 -3.627370595932006836e+00 1.772850275039672852e+00
-1.016753959655761719e+01 -3.877777338027954102e+00 2.336853265762329102e+00
-8.179258346557617188e+00 -3.467888593673706055e+00 1.817173004150390625e+00
-7.738231658935546875e+00 -3.620941877365112305e+00 1.663783907890319824e+00
-7.004002571105957031e+00 -3.594354629516601562e+00 1.456229805946350098e+00
-1.053033256530761719e+01 -4.014037132263183594e+00 1.991163730621337891e+00
-8.130019187927246094e+00 -3.443664312362670898e+00 1.471177577972412109e+00
-7.672558784484863281e+00 -3.588579416275024414e+00 1.329443693161010742e+00
-7.010374069213867188e+00 -3.591443538665771484e+00 1.161738395690917969e+00
-1.053265190124511719e+01 -4.012815952301025391e+00 1.570020794868469238e+00
-8.088274002075195312e+00 -3.422652482986450195e+00 1.137548089027404785e+00
-7.736686706542968750e+00 -3.610347986221313477e+00 1.025606632232666016e+00
-7.048710346221923828e+00 -3.606425285339355469e+00 8.755254745483398438e-01
-9.262006759643554688e+00 -3.525013208389282227e+00 1.015371561050415039e+00
-8.073428153991699219e+00 -3.413048028945922852e+00 8.146681785583496094e-01
-7.691621303558349609e+00 -3.586048841476440430e+00 7.081571221351623535e-01
-6.950809001922607422e+00 -3.551743745803833008e+00 5.773224830627441406e-01
-8.169197082519531250e+00 -3.450173616409301758e+00 5.004498958587646484e-01
-7.717441082000732422e+00 -3.594807863235473633e+00 4.000024199485778809e-01
-8.073135375976562500e+00 -4.119904041290283203e+00 3.402680754661560059e-01
-9.598839759826660156e+00 -3.647455453872680664e+00 3.047613501548767090e-01
-2.815058469772338867e+00 -1.187752366065979004e+00 6.186700239777565002e-02
-7.109199523925781250e+00 -3.624858140945434570e+00 9.749406948685646057e-03
-8.002258300781250000e+00 -3.696661949157714844e+00 2.404854774475097656e+00
-7.163759231567382812e+00 -3.636691808700561523e+00 2.112174272537231445e+00
-8.538118362426757812e+00 -3.561891317367553711e+00 2.250092506408691406e+00
-7.958998680114746094e+00 -3.671622753143310547e+00 2.042921543121337891e+00
-7.138855934143066406e+00 -3.616217851638793945e+00 1.788774728775024414e+00
-1.018839550018310547e+01 -3.814289331436157227e+00 2.336223602294921875e+00
-8.343265533447265625e+00 -3.477185010910034180e+00 1.848835229873657227e+00
-7.865509986877441406e+00 -3.621837139129638672e+00 1.686339855194091797e+00
-7.134745121002197266e+00 -3.606315135955810547e+00 1.478784322738647461e+00
-1.056952190399169922e+01 -3.954870700836181641e+00 1.993947744369506836e+00
-8.284858703613281250e+00 -3.449449062347412109e+00 1.495338320732116699e+00
-7.835327148437500000e+00 -3.606281518936157227e+00 1.353787302970886230e+00
-7.110002994537353516e+00 -3.587579250335693359e+00 1.174578428268432617e+00
-1.047080135345458984e+01 -3.915848493576049805e+00 1.557190299034118652e+00
-8.305074691772460938e+00 -3.454465150833129883e+00 1.165036439895629883e+00
-7.903059005737304688e+00 -3.629101514816284180e+00 1.044690012931823730e+00
-7.148816108703613281e+00 -3.602468729019165039e+00 8.851974010467529297e-01
-8.221106529235839844e+00 -3.416172981262207031e+00 8.274392485618591309e-01
-7.889197349548339844e+00 -3.619402170181274414e+00 7.242893576622009277e-01
-7.095405101776123047e+00 -3.570896148681640625e+00 5.875014066696166992e-01
-1.055270481109619141e+01 -3.938083410263061523e+00 7.422022819519042969e-01
-8.364492416381835938e+00 -3.472331762313842773e+00 5.110989809036254883e-01
-7.855583190917968750e+00 -3.600661993026733398e+00 4.060097038745880127e-01
-8.087548255920410156e+00 -4.064905166625976562e+00 3.398178815841674805e-01
-9.612610816955566406e+00 -3.585345745086669922e+00 3.044943511486053467e-01
-2.791315317153930664e+00 -1.277650833129882812e+00 3.268416598439216614e-02
-6.926661968231201172e+00 -3.478400707244873047e+00 9.469631128013134003e-03
-8.186391830444335938e+00 -3.720944404602050781e+00 2.453283548355102539e+00
-7.343377113342285156e+00 -3.671380043029785156e+00 2.158450365066528320e+00
-9.158576965332031250e+00 -3.754922389984130859e+00 2.407487869262695312e+00
-8.036360740661621094e+00 -3.647674798965454102e+00 2.056994915008544922e+00
-7.232519149780273438e+00 -3.608069896697998047e+00 1.806662440299987793e+00
-1.043645191192626953e+01 -3.834309577941894531e+00 2.387663602828979492e+00
-8.587471008300781250e+00 -3.517274141311645508e+00 1.898131966590881348e+00
-8.062825202941894531e+00 -3.652900457382202148e+00 1.723805546760559082e+00
-7.220119953155517578e+00 -3.594018936157226562e+00 1.491880655288696289e+00
-1.063241386413574219e+01 -3.904199361801147461e+00 2.001255273818969727e+00
-8.492105484008789062e+00 -3.474752902984619141e+00 1.528867483139038086e+00
-8.000396728515625000e+00 -3.622934341430664062e+00 1.378441095352172852e+00
-7.224907398223876953e+00 -3.590110301971435547e+00 1.189899086952209473e+00
-1.056808471679687500e+01 -3.878484487533569336e+00 1.568089246749877930e+00
-8.461057662963867188e+00 -3.458601474761962891e+00 1.183918356895446777e+00
-8.047326087951660156e+00 -3.635726451873779297e+00 1.060791373252868652e+00
-7.282968044281005859e+00 -3.614207506179809570e+00 8.990457653999328613e-01
-1.059816360473632812e+01 -3.885326385498046875e+00 1.156536817550659180e+00
-8.464069366455078125e+00 -3.456384658813476562e+00 8.497424721717834473e-01
-8.436251640319824219e+00 -3.807895183563232422e+00 7.723535895347595215e-01
-7.133265972137451172e+00 -3.535263776779174805e+00 5.888291597366333008e-01
-1.058322906494140625e+01 -3.875660896301269531e+00 7.426625490188598633e-01
-8.539098739624023438e+00 -3.483546495437622070e+00 5.204521417617797852e-01
-2.833761453628540039e+00 -1.277892589569091797e+00 1.460527330636978149e-01
-7.776488304138183594e+00 -3.848975658416748047e+00 3.257494866847991943e-01
-9.610024452209472656e+00 -3.517363786697387695e+00 3.037230372428894043e-01
-2.810043573379516602e+00 -1.265426754951477051e+00 3.281192108988761902e-02
-7.590581893920898438e+00 -3.753663063049316406e+00 1.034561172127723694e-02
-8.342937469482421875e+00 -3.730501890182495117e+00 2.493289947509765625e+00
-7.410017490386962891e+00 -3.648038387298583984e+00 2.171417713165283203e+00
-9.294105529785156250e+00 -3.744040250778198242e+00 2.437028884887695312e+00
-7.936760425567626953e+00 -3.543896675109863281e+00 2.025897264480590820e+00
-7.382408618927001953e+00 -3.626445770263671875e+00 1.838511347770690918e+00
-1.059039211273193359e+01 -3.817278385162353516e+00 2.417478084564208984e+00
-8.789758682250976562e+00 -3.537303209304809570e+00 1.938010454177856445e+00
-8.114673614501953125e+00 -3.616545200347900391e+00 1.730113625526428223e+00
-7.344460010528564453e+00 -3.599851846694946289e+00 1.512980222702026367e+00
-1.063763999938964844e+01 -3.832211256027221680e+00 1.997775435447692871e+00
-8.737493515014648438e+00 -3.512726545333862305e+00 1.569135546684265137e+00
-8.030597686767578125e+00 -3.577394485473632812e+00 1.379836559295654297e+00
-7.356101512908935547e+00 -3.599190711975097656e+00 1.207846164703369141e+00
-1.060007095336914062e+01 -3.816586971282958984e+00 1.569331049919128418e+00
-8.671695709228515625e+00 -3.482758522033691406e+00 1.210379004478454590e+00
-8.090351104736328125e+00 -3.595555067062377930e+00 1.063534736633300781e+00
-7.425567150115966797e+00 -3.628361225128173828e+00 9.138833284378051758e-01
-1.063678264617919922e+01 -3.825611114501953125e+00 1.158167719841003418e+00
-8.649608612060546875e+00 -3.470381736755371094e+00 8.662154078483581543e-01
-8.429402351379394531e+00 -3.742714643478393555e+00 7.696094512939453125e-01
-7.429078578948974609e+00 -3.625259876251220703e+00 6.113998293876647949e-01
-1.065470314025878906e+01 -3.827856779098510742e+00 7.460159063339233398e-01
-8.675228118896484375e+00 -3.477145671844482422e+00 5.274388194084167480e-01
-2.854332447052001953e+00 -1.266151428222656250e+00 1.467097848653793335e-01
-7.737078189849853516e+00 -3.770543575286865234e+00 3.231233954429626465e-01
-9.563691139221191406e+00 -3.434010267257690430e+00 3.015870451927185059e-01
-2.815012216567993164e+00 -1.246945858001708984e+00 3.277998417615890503e-02
-7.610773563385009766e+00 -3.705704212188720703e+00 1.034194603562355042e-02
-8.566135406494140625e+00 -3.767405509948730469e+00 2.553036212921142578e+00
-7.534955978393554688e+00 -3.652279615402221680e+00 2.201421022415161133e+00
-9.531033515930175781e+00 -3.771679162979125977e+00 2.493039131164550781e+00
-7.911096572875976562e+00 -3.474375486373901367e+00 2.013866662979125977e+00
-7.532791137695312500e+00 -3.643115758895874023e+00 1.870360255241394043e+00
-9.122895240783691406e+00 -3.606485366821289062e+00 2.006545305252075195e+00
-7.857127189636230469e+00 -3.444132089614868164e+00 1.670665383338928223e+00
-7.499249458312988281e+00 -3.618822097778320312e+00 1.540264010429382324e+00
-1.060895824432373047e+01 -3.748496055603027344e+00 1.988031864166259766e+00
-8.937785148620605469e+00 -3.529700040817260742e+00 1.601185560226440430e+00
-7.872329711914062500e+00 -3.449158191680908203e+00 1.348980665206909180e+00
-7.465392589569091797e+00 -3.596060991287231445e+00 1.222145318984985352e+00
-1.072041606903076172e+01 -3.785773277282714844e+00 1.583679080009460449e+00
-8.815598487854003906e+00 -3.477889537811279297e+00 1.227462887763977051e+00
-7.902108192443847656e+00 -3.453988552093505859e+00 1.035983204841613770e+00
-7.487996578216552734e+00 -3.602119922637939453e+00 9.188292026519775391e-01
-1.069570446014404297e+01 -3.772848129272460938e+00 1.162040829658508301e+00
-8.927341461181640625e+00 -3.518373250961303711e+00 8.918501138687133789e-01
-7.916125297546386719e+00 -3.456825017929077148e+00 7.207968235015869141e-01
-7.406236648559570312e+00 -3.558015108108520508e+00 6.077117919921875000e-01
-1.070245933532714844e+01 -3.771030664443969727e+00 7.477254867553710938e-01
-8.916574478149414062e+00 -3.510534524917602539e+00 5.407924056053161621e-01
-2.854722976684570312e+00 -1.245418190956115723e+00 1.463343203067779541e-01
-7.758265495300292969e+00 -3.722133874893188477e+00 3.230483233928680420e-01
-9.539326667785644531e+00 -3.359327077865600586e+00 3.001630604267120361e-01
-2.806109189987182617e+00 -1.222461104393005371e+00 3.258834779262542725e-02
-7.354725360870361328e+00 -3.525372505187988281e+00 9.964431636035442352e-03
-8.695346832275390625e+00 -3.760729551315307617e+00 2.584620237350463867e+00
-7.682043552398681641e+00 -3.665535688400268555e+00 2.237780809402465820e+00
-9.775888442993164062e+00 -3.799364089965820312e+00 2.550939798355102539e+00
-8.120022773742675781e+00 -3.506856441497802734e+00 2.061534881591796875e+00
-7.624614715576171875e+00 -3.629967689514160156e+00 1.887593626976013184e+00
-1.094678974151611328e+01 -4.250032901763916016e+00 2.401922702789306641e+00
-7.865492343902587891e+00 -3.390417098999023438e+00 1.667989373207092285e+00
-7.616351127624511719e+00 -3.617884159088134766e+00 1.559726595878601074e+00
-1.101884269714355469e+01 -3.817433595657348633e+00 2.060412645339965820e+00
-9.168036460876464844e+00 -3.555759191513061523e+00 1.638495087623596191e+00
-7.896974086761474609e+00 -3.402353048324584961e+00 1.349600911140441895e+00
-7.584752559661865234e+00 -3.596386432647705078e+00 1.238049507141113281e+00
-9.027266502380371094e+00 -3.497538328170776367e+00 1.253923296928405762e+00
-7.928625106811523438e+00 -3.407789468765258789e+00 1.036698818206787109e+00
-7.589908123016357422e+00 -3.593964576721191406e+00 9.286109209060668945e-01
-1.081642818450927734e+01 -3.740965843200683594e+00 1.172640919685363770e+00
-9.114978790283203125e+00 -3.527862787246704102e+00 9.084156751632690430e-01
-7.866679191589355469e+00 -3.377911806106567383e+00 7.143938541412353516e-01
-7.656023025512695312e+00 -3.620364904403686523e+00 6.263731718063354492e-01
-1.072822570800781250e+01 -3.706268072128295898e+00 7.479227185249328613e-01
-9.136299133300781250e+00 -3.532448053359985352e+00 5.527938008308410645e-01
-2.834771156311035156e+00 -1.216064453125000000e+00 1.449263542890548706e-01
-7.705055236816406250e+00 -3.638615846633911133e+00 3.198970258235931396e-01
-9.549365997314453125e+00 -3.297143220901489258e+00 2.998367249965667725e-01
-2.830102205276489258e+00 -1.212307333946228027e+00 3.277998417615890503e-02
-7.491075992584228516e+00 -3.534369468688964844e+00 1.011959090828895569e-02
-8.835449218750000000e+00 -3.757138490676879883e+00 2.619362592697143555e+00
-7.826070785522460938e+00 -3.675477266311645508e+00 2.273123502731323242e+00
-1.005320644378662109e+01 -3.836307525634765625e+00 2.617111921310424805e+00
-8.312605857849121094e+00 -3.529669046401977539e+00 2.104890346527099609e+00
-7.725394248962402344e+00 -3.619969606399536133e+00 1.907008290290832520e+00
-1.083442783355712891e+01 -4.130089759826660156e+00 2.371663093566894531e+00
-7.708777904510498047e+00 -3.603982448577880859e+00 1.574095964431762695e+00
-8.069615364074707031e+00 -3.418182611465454102e+00 1.375495076179504395e+00
-7.659569740295410156e+00 -3.574462890625000000e+00 1.246658205986022949e+00
-9.570411682128906250e+00 -3.640596151351928711e+00 1.326240420341491699e+00
-8.066450119018554688e+00 -3.408542633056640625e+00 1.051965475082397461e+00
-7.780288696289062500e+00 -3.625838518142700195e+00 9.491637349128723145e-01
-1.112275981903076172e+01 -3.770662307739257812e+00 1.203320145606994629e+00
-9.263038635253906250e+00 -3.519970178604125977e+00 9.210016727447509766e-01
-7.729629993438720703e+00 -3.597305297851562500e+00 6.305775642395019531e-01
-1.064754295349121094e+01 -4.041831493377685547e+00 6.427192091941833496e-01
-8.350743293762207031e+00 -3.521803855895996094e+00 4.258150458335876465e-01
-7.809700965881347656e+00 -3.629595994949340820e+00 3.233109414577484131e-01
-9.534385681152343750e+00 -3.226631879806518555e+00 2.987391054630279541e-01
-9.599864006042480469e+00 -3.640296697616577148e+00 2.078901231288909912e-01
-2.820899248123168945e+00 -1.187933802604675293e+00 3.258834779262542725e-02
-7.519877910614013672e+00 -3.491707801818847656e+00 1.012936513870954514e-02
-8.019667625427246094e+00 -3.706508874893188477e+00 2.322705030441284180e+00
-8.520148277282714844e+00 -3.556249618530273438e+00 2.151877403259277344e+00
-7.925593852996826172e+00 -3.654639720916748047e+00 1.950855135917663574e+00
-1.041729164123535156e+01 -3.898039102554321289e+00 2.275073289871215820e+00
-8.424786567687988281e+00 -3.509542226791381836e+00 1.777328014373779297e+00
-7.886182785034179688e+00 -3.628124713897705078e+00 1.605745196342468262e+00
-1.059507560729980469e+01 -3.960348606109619141e+00 1.884704947471618652e+00
-8.354007720947265625e+00 -3.478346824645996094e+00 1.420306086540222168e+00
-7.792838096618652344e+00 -3.578590631484985352e+00 1.264751076698303223e+00
-1.157961940765380859e+01 -3.850974559783935547e+00 1.699844241142272949e+00
-1.054764652252197266e+01 -3.938424110412597656e+00 1.458286404609680176e+00
-8.310939788818359375e+00 -3.451907634735107422e+00 1.081067323684692383e+00
-7.915323734283447266e+00 -3.629820823669433594e+00 9.629021883010864258e-01
-1.138264751434326172e+01 -3.781056404113769531e+00 1.228903174400329590e+00
-1.051405620574951172e+01 -3.921700477600097656e+00 1.042975068092346191e+00
-7.876684188842773438e+00 -3.607110977172851562e+00 6.407564282417297363e-01
-1.137144660949707031e+01 -3.772928953170776367e+00 7.894776463508605957e-01
-1.065623760223388672e+01 -3.970497131347656250e+00 6.417613625526428223e-01
-8.373118400573730469e+00 -3.470880985260009766e+00 4.258619844913482666e-01
-7.863632678985595703e+00 -3.596154451370239258e+00 3.246240019798278809e-01
-9.525542259216308594e+00 -3.158631324768066406e+00 2.978491187095642090e-01
-9.577044486999511719e+00 -3.564584493637084961e+00 2.069184035062789917e-01
-1.416007900238037109e+01 -5.861044883728027344e+00 1.631653159856796265e-01
-2.787801027297973633e+00 -1.273725748062133789e+00 3.744603134691715240e-03
-8.158469200134277344e+00 -3.710078001022338867e+00 2.356267929077148438e+00
-8.742738723754882812e+00 -3.586326837539672852e+00 2.202496290206909180e+00
-8.000303268432617188e+00 -3.629729986190795898e+00 1.963725686073303223e+00
-1.067001056671142578e+01 -3.918136596679687500e+00 2.324971199035644531e+00
-8.579694747924804688e+00 -3.512449741363525391e+00 1.805427312850952148e+00
-8.023857116699218750e+00 -3.631976127624511719e+00 1.629209399223327637e+00
-1.063399410247802734e+01 -3.900698900222778320e+00 1.887334585189819336e+00
-8.446510314941406250e+00 -3.456204175949096680e+00 1.432400465011596680e+00
-8.055363655090332031e+00 -3.639463663101196289e+00 1.303709149360656738e+00
-1.061631011962890625e+01 -3.890008449554443359e+00 1.464452028274536133e+00
-8.434919357299804688e+00 -3.442870855331420898e+00 1.094425678253173828e+00
-7.995430946350097656e+00 -3.607346057891845703e+00 9.699363112449645996e-01
-1.164212703704833984e+01 -3.788092613220214844e+00 1.254384279251098633e+00
-1.059308910369873047e+01 -3.877306222915649414e+00 1.048435211181640625e+00
-8.734947204589843750e+00 -3.561776399612426758e+00 7.871553897857666016e-01
