-5.208183765411376953e+00 -6.105817794799804688e+00 3.012891709804534912e-01
-6.598770618438720703e+00 -6.219726085662841797e+00 2.691321671009063721e-01
-5.126335144042968750e+00 -6.005615234375000000e+00 9.646781720221042633e-03
-6.061569690704345703e+00 -6.567637920379638672e+00 2.438281297683715820e+00
-5.152503490447998047e+00 -6.014648437500000000e+00 2.082170963287353516e+00
-6.815700054168701172e+00 -6.850210189819335938e+00 2.350296258926391602e+00
-5.784184455871582031e+00 -6.260514259338378906e+00 1.986627817153930664e+00
-5.052051067352294922e+00 -5.886982440948486328e+00 1.734020709991455078e+00
-5.734113693237304688e+00 -6.197634220123291016e+00 1.644286394119262695e+00
-5.049387931823730469e+00 -5.873499870300292969e+00 1.432765603065490723e+00
-5.667588233947753906e+00 -6.123586654663085938e+00 1.309596538543701172e+00
-5.031934738159179688e+00 -5.844938755035400391e+00 1.137517333030700684e+00
-5.685188293457031250e+00 -6.131859779357910156e+00 1.004495739936828613e+00
-5.074202537536621094e+00 -5.887797832489013672e+00 8.594789505004882812e-01
-5.625010013580322266e+00 -6.062707424163818359e+00 6.901122927665710449e-01
-5.008325576782226562e+00 -5.805209159851074219e+00 5.670698285102844238e-01
-5.869504451751708984e+00 -6.321799755096435547e+00 4.053057432174682617e-01
-5.318704605102539062e+00 -6.158450603485107422e+00 3.054909706115722656e-01
-6.599499702453613281e+00 -6.144382476806640625e+00 2.676192224025726318e-01
-6.575445175170898438e+00 -6.581114292144775391e+00 1.883744895458221436e-01
-5.005501747131347656e+00 -5.791708946228027344e+00 9.352345019578933716e-03
-6.169594764709472656e+00 -6.602927207946777344e+00 2.465390682220458984e+00
-5.219095230102539062e+00 -6.017258644104003906e+00 2.094121456146240234e+00
-6.937592029571533203e+00 -6.887673377990722656e+00 2.377710342407226562e+00
-5.922945976257324219e+00 -6.332304954528808594e+00 2.020903587341308594e+00
-5.189852237701416016e+00 -5.973004817962646484e+00 1.768705606460571289e+00
-5.874027729034423828e+00 -6.271224021911621094e+00 1.673341512680053711e+00
-5.131168842315673828e+00 -5.895067691802978516e+00 1.445680022239685059e+00
-5.784761428833007812e+00 -6.173761844635009766e+00 1.327893137931823730e+00
-5.129457473754882812e+00 -5.884800434112548828e+00 1.151378750801086426e+00
-5.779783725738525391e+00 -6.157670497894287109e+00 1.014514446258544922e+00
-5.131798744201660156e+00 -5.881266593933105469e+00 8.631058931350708008e-01
-5.689394474029541016e+00 -6.057133197784423828e+00 6.934385299682617188e-01
-7.568205833435058594e+00 -6.962522506713867188e+00 6.776344180107116699e-01
-5.919814586639404297e+00 -6.298039436340332031e+00 4.061035811901092529e-01
-5.478741168975830078e+00 -6.265621185302734375e+00 3.124688863754272461e-01
-6.626040458679199219e+00 -6.093623638153076172e+00 2.671742141246795654e-01
-6.570199489593505859e+00 -6.495657444000244141e+00 1.870788335800170898e-01
-5.825896263122558594e+00 -6.657944679260253906e+00 1.080864667892456055e-02
-6.308112144470214844e+00 -6.668673992156982422e+00 2.504344224929809570e+00
-5.348452091217041016e+00 -6.090493679046630859e+00 2.130989789962768555e+00
-7.077540874481201172e+00 -6.940904617309570312e+00 2.411032915115356445e+00
-6.074855327606201172e+00 -6.415352821350097656e+00 2.059264898300170898e+00
-5.267658233642578125e+00 -5.987943172454833984e+00 1.782666563987731934e+00
-5.998171806335449219e+00 -6.325520038604736328e+00 1.697617769241333008e+00
-5.247210025787353516e+00 -5.954213142395019531e+00 1.468052744865417480e+00
-5.908879280090332031e+00 -6.229176521301269531e+00 1.347585082054138184e+00
-5.228311538696289062e+00 -5.924425125122070312e+00 1.165386199951171875e+00
-5.906367778778076172e+00 -6.215656757354736328e+00 1.030019640922546387e+00
-5.242808818817138672e+00 -5.934586524963378906e+00 8.756353855133056641e-01
-5.938645839691162109e+00 -6.245257854461669922e+00 7.191337347030639648e-01
-6.027205467224121094e+00 -6.333960533142089844e+00 4.107967913150787354e-01
-5.517083168029785156e+00 -6.231885910034179688e+00 3.124688863754272461e-01
-6.639629364013671875e+00 -6.031344890594482422e+00 2.662248611450195312e-01
-6.589904785156250000e+00 -6.435661792755126953e+00 1.865119934082031250e-01
-5.993295192718505859e+00 -6.765037536621093750e+00 1.104199700057506561e-02
-6.411633014678955078e+00 -6.695339679718017578e+00 2.529084920883178711e+00
-5.437773704528808594e+00 -6.116106510162353516e+00 2.151585340499877930e+00
-6.174760818481445312e+00 -6.441231250762939453e+00 2.079694271087646484e+00
-5.353630542755126953e+00 -6.010895252227783203e+00 1.799245476722717285e+00
-6.141553401947021484e+00 -6.397643566131591797e+00 1.727055191993713379e+00
-5.376605033874511719e+00 -6.026093959808349609e+00 1.493881464004516602e+00
-6.094792366027832031e+00 -6.346714973449707031e+00 1.381077051162719727e+00
-5.299498558044433594e+00 -5.931332111358642578e+00 1.173119306564331055e+00
-6.026305675506591797e+00 -6.264446258544921875e+00 1.044212818145751953e+00
-5.344061374664306641e+00 -5.974908351898193359e+00 8.864063620567321777e-01
-6.047348499298095703e+00 -6.281930446624755859e+00 7.276155948638916016e-01
-5.356477737426757812e+00 -5.982483863830566406e+00 5.939185619354248047e-01
-6.139415740966796875e+00 -6.373114585876464844e+00 4.157715737819671631e-01
-5.799329757690429688e+00 -6.470271110534667969e+00 3.261996805667877197e-01
-6.640057086944580078e+00 -5.957782268524169922e+00 2.647712230682373047e-01
-6.603364944458007812e+00 -6.370116710662841797e+00 1.857831925153732300e-01
-6.001974582672119141e+00 -6.691659450531005859e+00 1.098213251680135727e-02
-6.616444587707519531e+00 -6.824884414672851562e+00 2.593305826187133789e+00
-5.576135635375976562e+00 -6.194760322570800781e+00 2.191250324249267578e+00
-6.190269947052001953e+00 -6.369694232940673828e+00 1.729731321334838867e+00
-5.460937500000000000e+00 -6.045528888702392578e+00 1.506977796554565430e+00
-6.186644554138183594e+00 -6.363740921020507812e+00 1.393016338348388672e+00
-5.430032253265380859e+00 -6.002884864807128906e+00 1.193838596343994141e+00
-6.183083057403564453e+00 -6.348982810974121094e+00 1.064608097076416016e+00
-5.463349342346191406e+00 -6.033363819122314453e+00 9.000349044799804688e-01
-6.287480354309082031e+00 -6.451673507690429688e+00 7.517308592796325684e-01
-5.397773265838623047e+00 -5.954676628112792969e+00 5.944349169731140137e-01
-6.265582084655761719e+00 -6.424715042114257812e+00 4.216381013393402100e-01
-5.811388492584228516e+00 -6.404223442077636719e+00 3.246615231037139893e-01
-6.644320964813232422e+00 -5.888420104980468750e+00 2.634955644607543945e-01
-6.615546226501464844e+00 -6.303960323333740234e+00 1.850341558456420898e-01
-5.765278816223144531e+00 -6.348955154418945312e+00 1.047755777835845947e-02
-6.726447582244873047e+00 -6.853700637817382812e+00 2.619889020919799805e+00
-5.725436210632324219e+00 -6.282666206359863281e+00 2.234729766845703125e+00
-5.633594989776611328e+00 -6.171061038970947266e+00 1.867742538452148438e+00
-5.586187839508056641e+00 -6.108416557312011719e+00 1.531169414520263672e+00
-5.562975883483886719e+00 -6.074513912200927734e+00 1.214849710464477539e+00
-6.458922386169433594e+00 -6.551313877105712891e+00 1.105160117149353027e+00
-5.562059402465820312e+00 -6.067131996154785156e+00 9.101464152336120605e-01
-5.527936935424804688e+00 -6.023576259613037109e+00 6.046875715255737305e-01
-6.709818840026855469e+00 -6.796301841735839844e+00 4.487179517745971680e-01
-5.914800167083740234e+00 -6.438355445861816406e+00 3.282255232334136963e-01
-6.681078910827636719e+00 -5.848198890686035156e+00 2.635252475738525391e-01
-6.619156837463378906e+00 -6.230356693267822266e+00 1.840624213218688965e-01
-6.160116672515869141e+00 -6.700690269470214844e+00 1.112018804997205734e-02
-5.839295864105224609e+00 -6.329161643981933594e+00 2.263970136642456055e+00
-6.948837757110595703e+00 -6.986612796783447266e+00 2.296697616577148438e+00
-5.772698879241943359e+00 -6.246032238006591797e+00 1.901118397712707520e+00
-5.703060150146484375e+00 -6.159890651702880859e+00 1.552814602851867676e+00
-5.671440124511718750e+00 -6.117165565490722656e+00 1.230316281318664551e+00
-5.666797161102294922e+00 -6.105741977691650391e+00 9.211372137069702148e-01
-5.715486526489257812e+00 -6.151739597320556641e+00 6.210623979568481445e-01
-6.911686897277832031e+00 -6.915381908416748047e+00 4.593715071678161621e-01
-5.980735301971435547e+00 -6.430479049682617188e+00 3.296886086463928223e-01
-6.715324878692626953e+00 -5.805787086486816406e+00 2.634659409523010254e-01
-6.613328933715820312e+00 -6.148778915405273438e+00 1.828477531671524048e-01
-6.554774284362792969e+00 -6.551414489746093750e+00 9.866998344659805298e-02
-5.850931644439697266e+00 -6.286512374877929688e+00 1.049221865832805634e-02
-6.140102386474609375e+00 -6.573807239532470703e+00 2.364912986755371094e+00
-7.021289348602294922e+00 -6.973354339599609375e+00 2.306458473205566406e+00
-5.906264305114746094e+00 -6.312399387359619141e+00 1.932312965393066406e+00
-5.846997261047363281e+00 -6.238136768341064453e+00 1.581553578376770020e+00
-5.767094135284423828e+00 -6.144285678863525391e+00 1.242864608764648438e+00
-5.802161693572998047e+00 -6.175164222717285156e+00 9.369639754295349121e-01
-5.880212783813476562e+00 -6.251670360565185547e+00 6.347818374633789062e-01
-7.015798568725585938e+00 -6.933931350708007812e+00 4.634546041488647461e-01
-6.046795845031738281e+00 -6.422035217285156250e+00 3.311517536640167236e-01
-6.871684551239013672e+00 -5.867676734924316406e+00 2.681828439235687256e-01
-6.642832756042480469e+00 -6.100645542144775391e+00 1.826250702142715454e-01
-6.563539981842041016e+00 -6.480160236358642578e+00 9.820153564214706421e-02
-6.143815517425537109e+00 -6.520514011383056641e+00 1.094548124819993973e-02
-6.289297580718994141e+00 -6.651254177093505859e+00 2.406612396240234375e+00
-7.107742786407470703e+00 -6.973110198974609375e+00 2.320759057998657227e+00
-6.044212341308593750e+00 -6.380900859832763672e+00 1.964598178863525391e+00
-5.973153591156005859e+00 -6.294871807098388672e+00 1.605199575424194336e+00
-5.892594337463378906e+00 -6.201297283172607422e+00 1.261686921119689941e+00
-7.411450862884521484e+00 -6.261429786682128906e+00 1.351487159729003906e+00
-5.902966022491455078e+00 -6.205702304840087891e+00 9.470754861831665039e-01
-7.396064281463623047e+00 -6.244007110595703125e+00 9.917250275611877441e-01
-6.283968925476074219e+00 -6.592406749725341797e+00 3.419187664985656738e-01
-7.211675167083740234e+00 -6.081875324249267578e+00 2.799900174140930176e-01
-6.657184600830078125e+00 -6.038947105407714844e+00 1.819974929094314575e-01
-6.587429523468017578e+00 -6.424406051635742188e+00 9.796732664108276367e-02
-6.176116466522216797e+00 -6.474733352661132812e+00 1.093204133212566376e-02
-6.423619747161865234e+00 -6.710347175598144531e+00 2.442209482192993164e+00
-7.204946041107177734e+00 -6.982230663299560547e+00 2.338464021682739258e+00
-6.153499603271484375e+00 -6.416950225830078125e+00 1.987285017967224121e+00
-6.128833293914794922e+00 -6.380073547363281250e+00 1.636485099792480469e+00
-6.019008159637451172e+00 -6.256997108459472656e+00 1.280509352684020996e+00
-7.626924037933349609e+00 -6.363680839538574219e+00 1.383632540702819824e+00
-6.057447910308837891e+00 -6.290360927581787109e+00 9.656498432159423828e-01
-7.619902133941650391e+00 -6.353311538696289062e+00 1.016492605209350586e+00
-7.639308929443359375e+00 -6.364973068237304688e+00 6.552131175994873047e-01
-6.354139328002929688e+00 -6.584645748138427734e+00 3.435319662094116211e-01
-7.069133281707763672e+00 -5.887820243835449219e+00 2.730481326580047607e-01
-6.645712852478027344e+00 -5.954618453979492188e+00 1.806816011667251587e-01
-6.605840682983398438e+00 -6.363746643066406250e+00 9.765858203172683716e-02
-6.130980968475341797e+00 -6.348955154418945312e+00 1.078299060463905334e-02
-6.534670352935791016e+00 -6.743035793304443359e+00 2.468652963638305664e+00
-6.187060832977294922e+00 -6.362085819244384766e+00 1.641578078269958496e+00
-6.202231407165527344e+00 -6.368783950805664062e+00 1.311150550842285156e+00
-6.172945499420166016e+00 -6.332074642181396484e+00 9.778496026992797852e-01
-6.094589233398437500e+00 -6.245152950286865234e+00 6.454033255577087402e-01
-6.381154537200927734e+00 -6.531951904296875000e+00 3.428191542625427246e-01
-7.163023948669433594e+00 -5.891957283020019531e+00 2.752730846405029297e-01
-6.649182319641113281e+00 -5.884574890136718750e+00 1.797908544540405273e-01
-6.592607975006103516e+00 -6.273463726043701172e+00 9.689205139875411987e-02
-6.130675315856933594e+00 -6.271173000335693359e+00 1.071457378566265106e-02
-6.657197952270507812e+00 -6.785657405853271484e+00 2.499164581298828125e+00
-6.215173244476318359e+00 -6.297616481781005859e+00 9.783991575241088867e-01
-6.534947872161865234e+00 -6.607778072357177734e+00 3.488967120647430420e-01
-7.207576274871826172e+00 -5.854827880859375000e+00 2.755994200706481934e-01
-6.699466705322265625e+00 -5.856167316436767578e+00 1.801754981279373169e-01
-6.624419212341308594e+00 -6.226729869842529297e+00 9.679622948169708252e-02
-6.359667301177978516e+00 -6.426055908203125000e+00 1.104566268622875214e-02
-6.820701122283935547e+00 -6.867511749267578125e+00 2.544677972793579102e+00
-6.624154567718505859e+00 -6.616282939910888672e+00 3.514852821826934814e-01
-6.779922485351562500e+00 -5.853498458862304688e+00 1.813699156045913696e-01
-6.609740734100341797e+00 -6.136979103088378906e+00 9.602969884872436523e-02
-6.389776706695556641e+00 -6.377729415893554688e+00 1.102978084236383438e-02
-6.981341361999511719e+00 -6.943519115447998047e+00 2.588665723800659180e+00
-7.433108806610107422e+00 -6.342727184295654297e+00 5.514414906501770020e-01
-6.870206356048583984e+00 -6.778344154357910156e+00 3.623273372650146484e-01
-7.467708587646484375e+00 -5.915517807006835938e+00 2.827489674091339111e-01
-6.880376815795898438e+00 -5.866927623748779297e+00 1.830906867980957031e-01
-6.629585266113281250e+00 -6.080086231231689453e+00 9.577418118715286255e-02
-6.438758373260498047e+00 -6.348231792449951172e+00 1.104688551276922226e-02
-7.415138244628906250e+00 -6.258032321929931641e+00 1.256749272346496582e+00
-7.601673603057861328e+00 -6.406378269195556641e+00 5.610200166702270508e-01
-7.008995532989501953e+00 -6.830916881561279297e+00 3.674294948577880859e-01
-7.985699653625488281e+00 -6.246480464935302734e+00 3.009047210216522217e-01
-6.989660263061523438e+00 -5.886426925659179688e+00 1.850341558456420898e-01
-6.594141483306884766e+00 -5.973503112792968750e+00 9.473084658384323120e-02
-6.496215343475341797e+00 -6.326745033264160156e+00 1.107865013182163239e-02
-7.585187911987304688e+00 -6.322263717651367188e+00 1.278971076011657715e+00
-7.598047733306884766e+00 -6.328489303588867188e+00 9.190582036972045898e-01
-7.632397651672363281e+00 -6.352588176727294922e+00 5.604001879692077637e-01
-7.028460025787353516e+00 -6.766296863555908203e+00 3.662665188312530518e-01
-8.120388031005859375e+00 -6.271905422210693359e+00 3.045240044593811035e-01
-7.067924022674560547e+00 -5.878591060638427734e+00 1.861476004123687744e-01
-6.647809028625488281e+00 -5.948265552520751953e+00 9.497570991516113281e-02
-6.560856342315673828e+00 -6.311723709106445312e+00 1.112263184040784836e-02
-7.315330505371093750e+00 -6.956487178802490234e+00 3.789843618869781494e-01
-7.165667533874511719e+00 -5.885880470275878906e+00 1.877671629190444946e-01
-6.633980751037597656e+00 -5.862996578216552734e+00 9.426240622997283936e-02
-6.582788467407226562e+00 -6.255504608154296875e+00 1.109453197568655014e-02
-6.886629581451416016e+00 -6.468813896179199219e+00 3.547116816043853760e-01
-6.666064262390136719e+00 -5.818892955780029297e+00 9.420917183160781860e-02
-6.542304039001464844e+00 -6.141081333160400391e+00 1.096258591860532761e-02
-6.929853916168212891e+00 -6.429834365844726562e+00 3.548992276191711426e-01
-7.986452579498291016e+00 -6.397568225860595703e+00 2.072018235921859741e-01
-6.764501571655273438e+00 -5.832075595855712891e+00 9.509281814098358154e-02
-6.601127624511718750e+00 -6.120540142059326172e+00 1.099801622331142426e-02
-7.391376972198486328e+00 -6.309486865997314453e+00 1.167419195175170898e+00
-7.388291358947753906e+00 -6.297941684722900391e+00 4.561332166194915771e-01
-6.802682399749755859e+00 -6.234601974487304688e+00 3.464206457138061523e-01
-7.456279754638671875e+00 -5.898129463195800781e+00 1.925043612718582153e-01
-6.862588405609130859e+00 -5.843618869781494141e+00 9.596582502126693726e-02
-6.592098236083984375e+00 -6.037370681762695312e+00 1.092104613780975342e-02
-7.662233829498291016e+00 -6.459846019744873047e+00 1.203915953636169434e+00
-7.633116722106933594e+00 -6.426187038421630859e+00 4.688048660755157471e-01
-7.131214141845703125e+00 -6.455637454986572266e+00 3.611268401145935059e-01
-8.091148376464843750e+00 -6.320005416870117188e+00 2.078901231288909912e-01
-6.980966091156005859e+00 -5.870909690856933594e+00 9.711562097072601318e-02
-6.624569416046142578e+00 -5.992784023284912109e+00 1.091371662914752960e-02
-7.617033481597900391e+00 -6.342191696166992188e+00 1.190676927566528320e+00
-7.619868755340576172e+00 -6.340050220489501953e+00 8.271534442901611328e-01
-7.946609973907470703e+00 -6.607219696044921875e+00 4.855596423149108887e-01
-8.162233352661132812e+00 -6.295274734497070312e+00 2.087201476097106934e-01
-7.106856822967529297e+00 -5.902714729309082031e+00 9.836123883724212646e-02
-6.393514156341552734e+00 -5.712822914123535156e+00 1.047511491924524307e-02
-8.219797134399414062e+00 -6.259611606597900391e+00 2.092060148715972900e-01
-7.188555717468261719e+00 -5.896411895751953125e+00 9.898936748504638672e-02
-6.534913063049316406e+00 -5.767448425292968750e+00 1.064860075712203979e-02
-7.973633766174316406e+00 -6.458937644958496094e+00 1.092524081468582153e-01
-6.577716827392578125e+00 -5.733813285827636719e+00 1.066081877797842026e-02
-7.987346649169921875e+00 -6.389278411865234375e+00 1.089010760188102722e-01
-6.767370700836181641e+00 -5.826446533203125000e+00 1.091005094349384308e-02
-7.417024135589599609e+00 -6.324809074401855469e+00 1.077865719795227051e+00
-7.403472423553466797e+00 -6.306560516357421875e+00 7.193112969398498535e-01
-7.431749343872070312e+00 -5.876748561859130859e+00 4.451510906219482422e-01
-7.395139217376708984e+00 -6.292782783508300781e+00 3.645407557487487793e-01
-7.713316917419433594e+00 -6.092840194702148438e+00 1.046532094478607178e-01
-6.642251491546630859e+00 -5.648128509521484375e+00 1.065226644277572632e-02
-7.396406650543212891e+00 -6.235871791839599609e+00 1.426857471466064453e+00
-7.590075969696044922e+00 -6.385567188262939453e+00 7.336207628250122070e-01
-8.056579589843750000e+00 -6.290881156921386719e+00 4.802563190460205078e-01
-7.634044647216796875e+00 -6.415734767913818359e+00 3.743698894977569580e-01
-8.106940269470214844e+00 -6.323375225067138672e+00 1.094653382897377014e-01
-6.689800262451171875e+00 -5.618198394775390625e+00 1.067303493618965149e-02
-7.631435871124267578e+00 -6.354324817657470703e+00 1.464648246765136719e+00
-7.572789669036865234e+00 -6.298781394958496094e+00 1.089186310768127441e+00
-7.613773345947265625e+00 -6.326128959655761719e+00 7.321455478668212891e-01
-7.941627502441406250e+00 -6.591510295867919922e+00 3.874629139900207520e-01
-8.144794464111328125e+00 -6.272902488708496094e+00 1.094546839594841003e-01
-6.963526248931884766e+00 -5.775587081909179688e+00 1.105299405753612518e-02
-7.985014915466308594e+00 -6.545191764831542969e+00 3.876129984855651855e-01
-5.789683341979980469e+00 -4.742334842681884766e+00 9.143428876996040344e-03
-7.048648357391357422e+00 -5.701647758483886719e+00 1.107620541006326675e-02
-6.870980262756347656e+00 -5.488529682159423828e+00 1.074389554560184479e-02
-7.444479942321777344e+00 -5.876395702362060547e+00 3.560622036457061768e-01
-7.235072135925292969e+00 -5.706998825073242188e+00 1.125824358314275742e-02
-8.087277412414550781e+00 -6.303640842437744141e+00 3.849493861198425293e-01
-7.274687290191650391e+00 -5.666184902191162109e+00 1.126557495445013046e-02
-6.912976741790771484e+00 -5.316624164581298828e+00 1.065470930188894272e-02
-6.965378284454345703e+00 -5.289226055145263672e+00 1.068525202572345734e-02
-7.351347446441650391e+00 -5.511526584625244141e+00 1.122525800019502640e-02
-7.128624439239501953e+00 -5.276529312133789062e+00 1.083552557975053787e-02
-7.127762794494628906e+00 -5.208499431610107422e+00 1.078543439507484436e-02
-7.120659351348876953e+00 -5.136585235595703125e+00 1.072679180651903152e-02
-6.847388267517089844e+00 -4.875859737396240234e+00 1.026986446231603622e-02
-6.840361118316650391e+00 -4.807876586914062500e+00 1.021488569676876068e-02
-7.645361423492431641e+00 -5.303899288177490234e+00 1.136819925159215927e-02
-7.392269611358642578e+00 -5.061415195465087891e+00 1.094548124819993973e-02
-7.477872371673583984e+00 -5.052913665771484375e+00 1.102611515671014786e-02
-7.492928028106689453e+00 -4.996394157409667969e+00 1.100290287286043167e-02
-7.476663112640380859e+00 -4.919543266296386719e+00 1.093448605388402939e-02
-7.162824630737304688e+00 -4.650315284729003906e+00 1.043357606977224350e-02
-7.822772026062011719e+00 -5.010810852050781250e+00 1.134987454861402512e-02
-7.924380302429199219e+00 -5.007589340209960938e+00 1.145249884575605392e-02
-7.853971004486083984e+00 -4.895920276641845703e+00 1.130711287260055542e-02
-8.067864418029785156e+00 -4.960775375366210938e+00 1.157100684940814972e-02
-7.762972354888916016e+00 -4.707906723022460938e+00 1.109208911657333374e-02
-7.768541336059570312e+00 -4.646326541900634766e+00 1.105910167098045349e-02
-1.159323596954345703e+01 -5.239876270294189453e+00 3.775919675827026367e-01
-7.790874958038330078e+00 -4.595016002655029297e+00 1.105054933577775955e-02
-7.921792507171630859e+00 -4.606949806213378906e+00 1.119593624025583267e-02
-8.051409721374511719e+00 -4.616452693939208984e+00 1.133887749165296555e-02
-8.045633316040039062e+00 -4.547772407531738281e+00 1.129123102873563766e-02
-7.820928573608398438e+00 -4.357655525207519531e+00 1.093814987689256668e-02
-9.018146514892578125e+00 -3.747257232666015625e+00 2.898392081260681152e-01
-1.386920452117919922e+01 -6.976715087890625000e+00 1.652945727109909058e-01
-8.087687492370605469e+00 -4.441477298736572266e+00 1.127290446311235428e-02
-5.132161617279052734e+00 -2.095702648162841797e+00 1.645290106534957886e-01
-1.157951354980468750e+01 -5.224093437194824219e+00 2.572258114814758301e-01
-8.097198486328125000e+00 -4.382249355316162109e+00 1.124847028404474258e-02
-5.105960845947265625e+00 -2.048540592193603516e+00 1.632830202579498291e-01
-7.747165203094482422e+00 -4.131552219390869141e+00 1.072679180651903152e-02
-5.095185756683349609e+00 -2.008010149002075195e+00 1.625413596630096436e-01
-8.159217834472656250e+00 -4.287205219268798828e+00 1.126068737357854843e-02
-8.364761352539062500e+00 -4.329920291900634766e+00 1.150747761130332947e-02
-8.275357246398925781e+00 -4.219461917877197266e+00 1.134865265339612961e-02
-9.019147872924804688e+00 -3.740407228469848633e+00 1.977071762084960938e-01
-1.158259391784667969e+01 -5.301626682281494141e+00 1.356233060359954834e-01
-8.223344802856445312e+00 -4.129563331604003906e+00 1.124236173927783966e-02
-5.101477622985839844e+00 -2.079083442687988281e+00 1.115468516945838928e-01
-1.156202507019042969e+01 -5.206643581390380859e+00 1.350058317184448242e-01
-8.514754295349121094e+00 -4.210680961608886719e+00 1.160521525889635086e-02
-5.089078426361083984e+00 -2.037708044052124023e+00 1.110002472996711731e-01
-1.159192562103271484e+01 -5.134792327880859375e+00 1.349845379590988159e-01
-8.328246116638183594e+00 -4.055042743682861328e+00 1.131688710302114487e-02
-5.094042301177978516e+00 -2.003516197204589844e+00 1.108382940292358398e-01
-7.830852985382080078e+00 -3.753596544265747070e+00 1.060950476676225662e-02
-8.304123878479003906e+00 -3.917974233627319336e+00 1.121792662888765335e-02
-7.876325607299804688e+00 -3.657217502593994141e+00 1.060950476676225662e-02
-5.117621898651123047e+00 -2.118251562118530273e+00 5.896989628672599792e-02
-8.397966384887695312e+00 -3.836969137191772461e+00 1.128023583441972733e-02
-5.088841915130615234e+00 -2.069857120513916016e+00 5.849081650376319885e-02
-8.557252883911132812e+00 -3.846455097198486328e+00 1.146227214485406876e-02
-5.112588882446289062e+00 -2.043045997619628906e+00 5.861856788396835327e-02
-8.577949523925781250e+00 -3.792663574218750000e+00 1.145860832184553146e-02
-5.125028133392333984e+00 -2.011637449264526367e+00 5.861856788396835327e-02
-8.634074211120605469e+00 -3.754314184188842773e+00 1.150259096175432205e-02
-8.726827621459960938e+00 -3.731142997741699219e+00 1.159544102847576141e-02
-8.778135299682617188e+00 -3.689537763595581055e+00 1.163331512361764908e-02
-5.081469058990478516e+00 -2.099198102951049805e+00 6.717072799801826477e-03
-5.100133419036865234e+00 -2.072440147399902344e+00 2.066744118928909302e-01
-5.095180511474609375e+00 -2.068355560302734375e+00 6.718294229358434677e-03
-5.094192504882812500e+00 -2.033697366714477539e+00 2.059240937232971191e-01
-5.100344657897949219e+00 -2.034089565277099609e+00 6.708520464599132538e-03
-5.099694252014160156e+00 -1.997649908065795898e+00 6.691416259855031967e-03
-8.172248840332031250e+00 -3.143529176712036133e+00 1.069747004657983780e-02
-8.617979049682617188e+00 -3.254421949386596680e+00 1.125457976013422012e-02
-8.990347862243652344e+00 -3.332154273986816406e+00 1.171394903212785721e-02
-9.018143653869628906e+00 -3.279662132263183594e+00 1.172372326254844666e-02
-9.056933403015136719e+00 -3.230986118316650391e+00 1.174815744161605835e-02
-9.059597969055175781e+00 -3.169409275054931641e+00 1.172616705298423767e-02
-9.155493736267089844e+00 -3.140038728713989258e+00 1.182512752711772919e-02
-9.148047447204589844e+00 -3.074881315231323242e+00 1.179091818630695343e-02
-8.851401329040527344e+00 -2.914847373962402344e+00 1.138530392199754715e-02
-9.286926269531250000e+00 -2.995233058929443359e+00 1.192164327949285507e-02
-9.416700363159179688e+00 -2.973422527313232422e+00 1.206458546221256256e-02
-9.039223670959472656e+00 -2.793353796005249023e+00 1.155878975987434387e-02
-9.438121795654296875e+00 -2.853300809860229492e+00 1.204625982791185379e-02
-9.024873733520507812e+00 -2.668042898178100586e+00 1.149770338088274002e-02
-9.410941123962402344e+00 -2.719498395919799805e+00 1.196806970983743668e-02
-9.423601150512695312e+00 -2.660615921020507812e+00 1.196318306028842926e-02
-9.387691497802734375e+00 -2.588390350341796875e+00 1.189720910042524338e-02
-9.584937095642089844e+00 -2.579597711563110352e+00 1.212689466774463654e-02
-9.530944824218750000e+00 -2.502452373504638672e+00 1.203892938792705536e-02
-1.335876274108886719e+01 -1.913128733634948730e+00 4.005239605903625488e-01
-9.584870338439941406e+00 -2.453845024108886719e+00 1.208779867738485336e-02
-9.590044021606445312e+00 -2.392566680908203125e+00 1.207558158785104752e-02
-9.600656509399414062e+00 -2.332733631134033203e+00 1.207069400697946548e-02
-9.645931243896484375e+00 -2.281145811080932617e+00 1.210978999733924866e-02
-9.669491767883300781e+00 -2.224158287048339844e+00 1.212200801819562912e-02
-9.651727676391601562e+00 -2.157803535461425781e+00 1.208291202783584595e-02
-1.337707424163818359e+01 -1.906370639801025391e+00 2.736035585403442383e-01
-9.107766151428222656e+00 -1.977593898773193359e+00 1.138652581721544266e-02
-9.647146224975585938e+00 -2.032807826995849609e+00 1.204503793269395828e-02
-9.735858917236328125e+00 -1.989189743995666504e+00 1.214033272117376328e-02
-9.840091705322265625e+00 -1.947665691375732422e+00 1.225517597049474716e-02
-9.918643951416015625e+00 -1.900045156478881836e+00 1.233825460076332092e-02
-1.331901359558105469e+01 -1.972199797630310059e+00 1.433525383472442627e-01
-9.904550552368164062e+00 -1.834414720535278320e+00 1.230648905038833618e-02
-1.333977413177490234e+01 -1.891702294349670410e+00 1.434483528137207031e-01
-9.912666320800781250e+00 -1.773078799247741699e+00 1.230282336473464966e-02
-1.335311222076416016e+01 -1.810083985328674316e+00 1.434696465730667114e-01
-9.900693893432617188e+00 -1.708311796188354492e+00 1.227472443133592606e-02
-9.929732322692871094e+00 -1.650645732879638672e+00 1.229793671518564224e-02
-9.960113525390625000e+00 -1.530338764190673828e+00 1.231137569993734360e-02
-9.938646316528320312e+00 -1.464676141738891602e+00 1.227350160479545593e-02
-9.938534736633300781e+00 -1.402408719062805176e+00 1.226250641047954559e-02
-9.935060501098632812e+00 -1.339796900749206543e+00 1.224784553050994873e-02
-9.942102432250976562e+00 -1.278683662414550781e+00 1.224662363529205322e-02
-1.044846248626708984e+01 -1.399127244949340820e-01 3.101309239864349365e-01
-9.887228012084960938e+00 -1.210003137588500977e+00 1.216965448111295700e-02
-1.044312763214111328e+01 -7.575603574514389038e-02 3.099529445171356201e-01
-9.922279357910156250e+00 -1.152544140815734863e+00 1.220386289060115814e-02
-9.773104667663574219e+00 -1.074482917785644531e+00 1.201205234974622726e-02
-9.866049766540527344e+00 -1.023472905158996582e+00 1.211834233254194260e-02
-9.852237701416015625e+00 -9.609751105308532715e-01 1.209390722215175629e-02
-9.846994400024414062e+00 -8.995042443275451660e-01 1.208046823740005493e-02
-1.045001506805419922e+01 -1.327507942914962769e-01 2.116151005029678345e-01
-9.848342895507812500e+00 -8.387278318405151367e-01 1.207558158785104752e-02
-1.043063735961914062e+01 -6.849690526723861694e-02 2.112102210521697998e-01
-8.334036827087402344e+00 -6.582812666893005371e-01 1.021366473287343979e-02
-9.848917007446289062e+00 -7.171567082405090332e-01 1.206458546221256256e-02
-9.470980644226074219e+00 -6.312410235404968262e-01 1.159666385501623154e-02
-9.485654830932617188e+00 -5.737804174423217773e-01 1.161010190844535828e-02
-9.512962341308593750e+00 -5.168688297271728516e-01 1.163942366838455200e-02
-1.044665431976318359e+01 -1.255278289318084717e-01 1.112326309084892273e-01
-9.518951416015625000e+00 -4.586330354213714600e-01 1.164308935403823853e-02
-1.042522907257080078e+01 -6.129665672779083252e-02 1.109984070062637329e-01
-9.770365715026855469e+00 -4.106740951538085938e-01 1.194729935377836227e-02
-9.488884925842285156e+00 -3.405310809612274170e-01 1.160032860934734344e-02
-9.510787010192871094e+00 -2.828965783119201660e-01 1.162476278841495514e-02
-9.515342712402343750e+00 -2.246049791574478149e-01 1.162842847406864166e-02
-9.789500236511230469e+00 -1.709831804037094116e-01 1.196196023374795914e-02
-9.712369918823242188e+00 -1.100291311740875244e-01 1.186666544526815414e-02
-9.694862365722656250e+00 -5.033961683511734009e-02 1.184467505663633347e-02
-1.274704360961914062e+01 1.392440199851989746e+00 1.313806295394897461e+00
-1.277958202362060547e+01 1.402766108512878418e+00 3.815672397613525391e-01
-9.585988998413085938e+00 9.045041166245937347e-03 1.171150617301464081e-02
-1.275011920928955078e+01 1.471997499465942383e+00 1.315029382705688477e+00
-1.266174030303955078e+01 1.466273069381713867e+00 8.399089574813842773e-01
-1.278761386871337891e+01 1.483111500740051270e+00 3.820715844631195068e-01
-9.518754005432128906e+00 6.738907098770141602e-02 1.162964943796396255e-02
-1.271813488006591797e+01 1.547439575195312500e+00 1.312685132026672363e+00
-1.267726802825927734e+01 1.546958208084106445e+00 8.415527939796447754e-01
-1.285268592834472656e+01 1.570640444755554199e+00 3.842965364456176758e-01
-9.446168899536132812e+00 1.248423010110855103e-01 1.154168508946895599e-02
-1.273782539367675781e+01 1.624692082405090332e+00 1.788692355155944824e+00
-1.273701667785644531e+01 1.629107594490051270e+00 1.315640926361083984e+00
-1.276651000976562500e+01 1.637409329414367676e+00 8.481279015541076660e-01
-1.283983230590820312e+01 1.649091362953186035e+00 3.842075467109680176e-01
-9.447224617004394531e+00 1.828392595052719116e-01 1.154412887990474701e-02
-1.269620227813720703e+01 1.698616504669189453e+00 1.784277558326721191e+00
-1.274156951904296875e+01 1.709213614463806152e+00 1.317169785499572754e+00
-1.277204608917236328e+01 1.717840671539306641e+00 8.491799831390380859e-01
-9.460920333862304688e+00 2.411851584911346436e-01 1.156245544552803040e-02
-1.269534969329833984e+01 1.777860641479492188e+00 1.785657286643981934e+00
-1.281851959228515625e+01 1.799671769142150879e+00 1.326241135597229004e+00
-1.279189682006835938e+01 1.800487518310546875e+00 8.512182831764221191e-01
-9.039472579956054688e+00 2.859522104263305664e-01 1.104932837188243866e-02
-1.283380985260009766e+01 1.882188200950622559e+00 1.328993082046508789e+00
-1.270363426208496094e+01 1.394289374351501465e+00 1.187807083129882812e+00
-1.278659057617187500e+01 1.412429213523864746e+00 2.604851722717285156e-01
-9.539189338684082031e+00 3.603625297546386719e-01 1.166263688355684280e-02
-1.270275211334228516e+01 1.473128795623779297e+00 1.188547372817993164e+00
-1.269704818725585938e+01 1.476959109306335449e+00 7.213758230209350586e-01
-1.280350303649902344e+01 1.493872165679931641e+00 2.610115408897399902e-01
-9.547787666320800781e+00 4.193697869777679443e-01 1.167607586830854416e-02
-1.278585910797119141e+01 1.557802796363830566e+00 1.668301343917846680e+00
-1.267568397521972656e+01 1.548869848251342773e+00 1.186881661415100098e+00
-1.269567489624023438e+01 1.555810570716857910e+00 7.218266129493713379e-01
-1.287745094299316406e+01 1.582649350166320801e+00 2.627120614051818848e-01
-9.569005012512207031e+00 4.791462719440460205e-01 1.170539762824773788e-02
-1.278196144104003906e+01 1.636981844902038574e+00 1.669071912765502930e+00
-1.266989135742187500e+01 1.627124428749084473e+00 1.187251806259155273e+00
-1.277104949951171875e+01 1.644647240638732910e+00 7.266721725463867188e-01
-1.280403804779052734e+01 1.653439402580261230e+00 2.614164352416992188e-01
-9.124582290649414062e+00 5.130389332771301270e-01 1.116539351642131805e-02
-1.279428291320800781e+01 1.718415975570678711e+00 1.672026276588439941e+00
-1.270900917053222656e+01 1.711479306221008301e+00 1.191879034042358398e+00
-1.274686527252197266e+01 1.721107721328735352e+00 7.258833646774291992e-01
-9.074353218078613281e+00 5.660902261734008789e-01 1.110797096043825150e-02
-1.279331874847412109e+01 1.798268318176269531e+00 1.673310756683349609e+00
-1.280573940277099609e+01 1.804572820663452148e+00 1.201966404914855957e+00
-1.262394809722900391e+01 1.324881315231323242e+00 1.351442337036132812e-01
-9.444830894470214844e+00 6.474032402038574219e-01 1.156611926853656769e-02
-1.280329132080078125e+01 1.884418249130249023e+00 1.202799320220947266e+00
-1.263621902465820312e+01 1.393447160720825195e+00 1.060822010040283203e+00
-1.271432495117187500e+01 1.406552433967590332e+00 6.010126471519470215e-01
-1.261359405517578125e+01 1.402094483375549316e+00 1.351229399442672729e-01
-9.406775474548339844e+00 7.028102874755859375e-01 1.152458135038614273e-02
-1.277172088623046875e+01 1.483245015144348145e+00 1.544552445411682129e+00
-1.271668910980224609e+01 1.951463937759399414e+00 1.195765852928161621e+00
-1.266900444030761719e+01 1.475798130035400391e+00 1.064314603805541992e+00
-1.270247840881347656e+01 1.484191775321960449e+00 6.008718609809875488e-01
-1.285998630523681641e+01 1.509421229362487793e+00 1.378590315580368042e-01
-9.345471382141113281e+00 7.559204697608947754e-01 1.145494263619184494e-02
-1.272197341918945312e+01 1.556638836860656738e+00 1.539662241935729980e+00
-1.265476512908935547e+01 1.552899003028869629e+00 1.063898801803588867e+00
-1.278632545471191406e+01 1.573573708534240723e+00 6.052834391593933105e-01
-1.284452915191650391e+01 1.587564349174499512e+00 1.377951651811599731e-01
-9.497064590454101562e+00 8.268666863441467285e-01 1.164675410836935043e-02
-1.275748157501220703e+01 1.640495061874389648e+00 1.545148730278015137e+00
-1.266377735137939453e+01 1.632939338684082031e+00 1.065478801727294922e+00
-1.278831768035888672e+01 1.653536677360534668e+00 6.058466434478759766e-01
-1.276513195037841797e+01 1.657334804534912109e+00 1.370499134063720703e-01
-9.441033363342285156e+00 8.803887367248535156e-01 1.158444583415985107e-02
-1.278653430938720703e+01 1.724049448966979980e+00 1.549919605255126953e+00
-1.270585918426513672e+01 1.717687845230102539e+00 1.069885969161987305e+00
-5.955758571624755859e+00 1.253887772560119629e+00 1.806377619504928589e-01
-1.272797107696533203e+01 1.731988668441772461e+00 1.367624700069427490e-01
-9.465306282043457031e+00 9.412699341773986816e-01 1.162109710276126862e-02
-1.283863449096679688e+01 1.811350822448730469e+00 1.557552933692932129e+00
-1.274737644195556641e+01 1.803014039993286133e+00 1.074293255805969238e+00
-5.992887020111083984e+00 1.300156593322753906e+00 1.820024102926254272e-01
-1.447132396697998047e+01 2.059735536575317383e+00 1.556277275085449219e-01
-9.461341857910156250e+00 9.995404481887817383e-01 1.162354182451963425e-02
-1.282334899902343750e+01 1.889514088630676270e+00 1.557075738906860352e+00
-1.274633979797363281e+01 1.407701611518859863e+00 1.418030381202697754e+00
-1.276663494110107422e+01 1.885710597038269043e+00 1.076871156692504883e+00
-1.265454578399658203e+01 1.404271006584167480e+00 9.416987895965576172e-01
-1.270228290557861328e+01 1.416301488876342773e+00 4.798267781734466553e-01
-9.350681304931640625e+00 1.045903444290161133e+00 1.149525959044694901e-02
-1.275128364562988281e+01 1.487497448921203613e+00 1.419569015502929688e+00
-1.262489032745361328e+01 1.479453802108764648e+00 9.401498436927795410e-01
-1.271816349029541016e+01 1.497135162353515625e+00 4.807646572589874268e-01
-9.211012840270996094e+00 1.087546229362487793e+00 1.133154798299074173e-02
-1.273205089569091797e+01 1.564497709274291992e+00 1.418469905853271484e+00
-1.268485927581787109e+01 1.565441250801086426e+00 9.453130960464477539e-01
-1.284956073760986328e+01 1.592598080635070801e+00 4.860919117927551270e-01
-9.212104797363281250e+00 1.145030260086059570e+00 1.134132128208875656e-02
-1.265185070037841797e+01 1.626771688461303711e+00 1.881368398666381836e+00
-1.275079917907714844e+01 1.646281599998474121e+00 1.421657323837280273e+00
-1.273138713836669922e+01 1.650552988052368164e+00 9.495173692703247070e-01
-1.285143852233886719e+01 1.672959446907043457e+00 4.865421056747436523e-01
-6.019734382629394531e+00 1.233142256736755371e+00 1.244223117828369141e-01
-9.238619804382324219e+00 1.205933809280395508e+00 1.138286013156175613e-02
-1.267202377319335938e+01 1.708468914031982422e+00 1.885891556739807129e+00
-1.276409721374511719e+01 1.727687716484069824e+00 1.424295067787170410e+00
-1.274374961853027344e+01 1.731728911399841309e+00 9.512138962745666504e-01
-5.994446754455566406e+00 1.266335725784301758e+00 1.240579113364219666e-01
-9.219156265258789062e+00 1.260972023010253906e+00 1.136819925159215927e-02
-1.281525516510009766e+01 1.814753890037536621e+00 1.431219220161437988e+00
-1.272695922851562500e+01 1.809048295021057129e+00 9.507713317871093750e-01
-5.945533275604248047e+00 1.294162034988403320e+00 1.232076510787010193e-01
-9.181548118591308594e+00 1.313268303871154785e+00 1.133154798299074173e-02
-1.279601383209228516e+01 1.892189621925354004e+00 1.430340051651000977e+00
-1.268405246734619141e+01 1.882420659065246582e+00 9.484110474586486816e-01
-9.158481597900390625e+00 1.367365479469299316e+00 1.131322141736745834e-02
-1.499299812316894531e+01 2.890758514404296875e+00 1.625691205263137817e-01
-9.127193450927734375e+00 1.419999361038208008e+00 1.128512248396873474e-02
-1.461801242828369141e+01 2.911599159240722656e+00 1.586938649415969849e-01
-9.075860977172851562e+00 1.469105124473571777e+00 1.123258750885725021e-02
-6.025654792785644531e+00 1.238670349121093750e+00 6.549608707427978516e-02
-9.069634437561035156e+00 1.525263428688049316e+00 1.123625319451093674e-02
-5.996419906616210938e+00 1.271057963371276855e+00 6.526186317205429077e-02
-9.082761764526367188e+00 1.584838390350341797e+00 1.126435212790966034e-02
-5.976785659790039062e+00 1.305267333984375000e+00 6.513411551713943481e-02
-9.135845184326171875e+00 1.651927113533020020e+00 1.134254317730665207e-02
-5.936469554901123047e+00 1.334677457809448242e+00 6.478278338909149170e-02
-9.203189849853515625e+00 1.722485899925231934e+00 1.143906079232692719e-02
-1.479070663452148438e+01 3.420822143554687500e+00 1.616322547197341919e-01
-9.230736732482910156e+00 1.786332964897155762e+00 1.148670725524425507e-02
-1.480445957183837891e+01 3.519838333129882812e+00 1.620155125856399536e-01
-9.252943038940429688e+00 1.849602699279785156e+00 1.152824703603982925e-02
-1.475052738189697266e+01 3.602780818939208984e+00 1.616641879081726074e-01
-6.042767524719238281e+00 1.246517062187194824e+00 7.538075093179941177e-03
-6.003838539123535156e+00 1.274752140045166016e+00 2.304218858480453491e-01
-1.461951446533203125e+01 3.665980577468872070e+00 1.604717969894409180e-01
-5.993924617767333984e+00 1.274833917617797852e+00 7.486762944608926773e-03
-5.987118244171142578e+00 1.309645175933837891e+00 2.300842553377151489e-01
-1.471004772186279297e+01 3.784767150878906250e+00 1.617174148559570312e-01
-5.962545394897460938e+00 1.306451082229614258e+00 7.457441184669733047e-03
-1.429980564117431641e+01 3.772915601730346680e+00 1.574589014053344727e-01
-5.944662094116210938e+00 1.340811848640441895e+00 7.445224095135927200e-03
-1.431499671936035156e+01 3.871027469635009766e+00 1.578847467899322510e-01
-9.075930595397949219e+00 2.105669975280761719e+00 1.138286013156175613e-02
-1.434397697448730469e+01 3.973471879959106445e+00 1.584703028202056885e-01
-8.962650299072265625e+00 2.137425899505615234e+00 1.125702261924743652e-02
-1.436742496490478516e+01 4.075052261352539062e+00 1.590026021003723145e-01
-8.906629562377929688e+00 2.181909799575805664e+00 1.120326574891805649e-02
-1.458510780334472656e+01 4.233656406402587891e+00 1.616961210966110229e-01
-8.681657791137695312e+00 2.183349847793579102e+00 1.093692891299724579e-02
-1.456652545928955078e+01 4.325346469879150391e+00 1.617812961339950562e-01
-8.746527671813964844e+00 2.256815433502197266e+00 1.103588845580816269e-02
-1.120140361785888672e+01 4.306476593017578125e+00 3.561729490756988525e-01
-1.443637466430664062e+01 4.383267879486083984e+00 1.606314927339553833e-01
-8.817588806152343750e+00 2.332949161529541016e+00 1.114340126514434814e-02
-1.447796916961669922e+01 4.493104934692382812e+00 1.613980233669281006e-01
-8.720106124877929688e+00 2.364502429962158203e+00 1.103833317756652832e-02
-1.403073024749755859e+01 4.448872566223144531e+00 1.567136496305465698e-01
-8.756499290466308594e+00 2.432147264480590820e+00 1.110308431088924408e-02
-1.331252288818359375e+01 4.311216354370117188e+00 1.489844322204589844e-01
-8.734678268432617188e+00 2.483915567398071289e+00 1.109453197568655014e-02
-1.401115608215332031e+01 4.632644653320312500e+00 1.571182012557983398e-01
-8.750958442687988281e+00 2.546684980392456055e+00 1.113484892994165421e-02
-6.789921283721923828e+00 2.852477073669433594e+00 2.185809016227722168e-01
-1.322734928131103516e+01 4.463706016540527344e+00 1.486331075429916382e-01
-8.719832420349121094e+00 2.595767021179199219e+00 1.111530140042304993e-02
-6.793430805206298828e+00 2.903119564056396484e+00 2.192632108926773071e-01
-1.117588710784912109e+01 4.305484294891357422e+00 2.425081282854080200e-01
-1.388801479339599609e+01 4.781772613525390625e+00 1.563836187124252319e-01
-8.676955223083496094e+00 2.641068696975708008e+00 1.108109299093484879e-02
-6.735154151916503906e+00 2.927217960357666016e+00 2.179578989744186401e-01
-1.112506008148193359e+01 4.364483833312988281e+00 2.419817745685577393e-01
-1.363198280334472656e+01 4.787378787994384766e+00 1.538285017013549805e-01
-8.637669563293457031e+00 2.687130451202392578e+00 1.105177216231822968e-02
-1.370025730133056641e+01 4.905992507934570312e+00 1.549357175827026367e-01
-8.569556236267089844e+00 2.723722934722900391e+00 1.098579820245504379e-02
-1.418182563781738281e+01 5.176834106445312500e+00 1.607379466295242310e-01
-8.607848167419433594e+00 2.794160604476928711e+00 1.105665788054466248e-02
-1.379365921020507812e+01 5.131271839141845703e+00 1.566923558712005615e-01
-8.584846496582031250e+00 2.845037460327148438e+00 1.104932837188243866e-02
-1.122889232635498047e+01 4.255787849426269531e+00 1.278515160083770752e-01
-8.495234489440917969e+00 2.873309373855590820e+00 1.095647644251585007e-02
-6.760864257812500000e+00 2.894698858261108398e+00 1.489180773496627808e-01
-1.119137382507324219e+01 4.320285320281982422e+00 1.277237534523010254e-01
-8.551177024841308594e+00 2.950824737548828125e+00 1.105177216231822968e-02
-6.738391876220703125e+00 2.934132337570190430e+00 1.488168537616729736e-01
-1.113301277160644531e+01 4.376434326171875000e+00 1.273617744445800781e-01
-8.533854484558105469e+00 3.003570318222045898e+00 1.105299405753612518e-02
-1.427258014678955078e+01 5.711966037750244141e+00 1.636763364076614380e-01
-8.117125511169433594e+00 2.912996530532836914e+00 1.053620129823684692e-02
-1.255924034118652344e+01 5.115904331207275391e+00 1.443852186203002930e-01
-8.511379241943359375e+00 3.113564491271972656e+00 1.107254158705472946e-02
-1.331463146209716797e+01 5.519099712371826172e+00 1.534558832645416260e-01
-8.487429618835449219e+00 3.163984060287475586e+00 1.106643304228782654e-02
-6.770170211791992188e+00 2.855133533477783203e+00 7.822906970977783203e-02
-8.443549156188964844e+00 3.206771373748779297e+00 1.103466749191284180e-02
-6.774578571319580078e+00 2.906081438064575195e+00 7.848457992076873779e-02
-8.411589622497558594e+00 3.253829240798950195e+00 1.101878471672534943e-02
-6.739205837249755859e+00 2.939997911453247070e+00 7.828229665756225586e-02
-8.290050506591796875e+00 3.265433311462402344e+00 1.088561676442623138e-02
-8.448991775512695312e+00 3.388071775436401367e+00 1.112141087651252747e-02
-8.352124214172363281e+00 3.408864021301269531e+00 1.102122850716114044e-02
-1.280976486206054688e+01 5.871277332305908203e+00 1.500277668237686157e-01
-6.900521755218505859e+00 2.865921020507812500e+00 9.128767997026443481e-03
-6.821901798248291016e+00 2.879667282104492188e+00 2.779918909072875977e-01
-1.286051654815673828e+01 5.990297794342041016e+00 1.510498225688934326e-01
-6.796219348907470703e+00 2.871621608734130859e+00 9.013925679028034210e-03
-6.802267551422119141e+00 2.920683145523071289e+00 2.779168784618377686e-01
-1.306845569610595703e+01 6.185019016265869141e+00 1.539349704980850220e-01
-6.759177684783935547e+00 2.904976367950439453e+00 8.988269604742527008e-03
-1.343218898773193359e+01 6.458341121673583984e+00 1.586832106113433838e-01
-6.731146335601806641e+00 2.941989898681640625e+00 8.974829688668251038e-03
-1.359896659851074219e+01 6.641567230224609375e+00 1.611318737268447876e-01
-8.398977279663085938e+00 3.732496738433837891e+00 1.122892182320356369e-02
-1.355437469482421875e+01 6.723106384277343750e+00 1.610892862081527710e-01
-8.345843315124511719e+00 3.770375490188598633e+00 1.118860486894845963e-02
-1.317707729339599609e+01 6.637017726898193359e+00 1.570862829685211182e-01
-8.277113914489746094e+00 3.800649642944335938e+00 1.112751942127943039e-02
-1.248887062072753906e+01 6.386752605438232422e+00 1.493464112281799316e-01
-8.224638938903808594e+00 3.837833881378173828e+00 1.108842343091964722e-02
-1.203588485717773438e+01 6.248557567596435547e+00 1.443852186203002930e-01
-8.182864189147949219e+00 3.879659175872802734e+00 1.106398925185203552e-02
-1.114807605743408203e+01 5.874761104583740234e+00 1.341647654771804810e-01
-7.983221530914306641e+00 3.845175981521606445e+00 1.082575134932994843e-02
-7.972951889038085938e+00 3.900679826736450195e+00 1.084407791495323181e-02
-1.227388191223144531e+01 6.661747455596923828e+00 1.486863344907760620e-01
-8.087677001953125000e+00 4.018496990203857422e+00 1.103344559669494629e-02
-1.226255607604980469e+01 6.753334522247314453e+00 1.490483134984970093e-01
-8.060190200805664062e+00 4.066695690155029297e+00 1.102978084236383438e-02
-8.022624969482421875e+00 4.109692573547363281e+00 1.101267710328102112e-02
-7.962656497955322266e+00 4.140847206115722656e+00 1.096502877771854401e-02
-7.917642593383789062e+00 4.179357051849365234e+00 1.093814987689256668e-02
