-1.085228252410888672e+01 -3.451473951339721680e+00 1.058430075645446777e+00
-1.064528656005859375e+01 -3.816346883773803711e+00 9.436551332473754883e-01
-1.084964370727539062e+01 -3.446464776992797852e+00 6.424375176429748535e-01
-1.065774154663085938e+01 -3.816614151000976562e+00 5.318816304206848145e-01
-1.034058856964111328e+01 -4.128157138824462891e+00 4.180007576942443848e-01
-1.011205959320068359e+01 -2.810559749603271484e+00 3.114956021308898926e-01
-9.273453712463378906e+00 -2.942213773727416992e+00 1.969986259937286377e-01
-8.283054351806640625e+00 -2.961329221725463867e+00 9.365557134151458740e-02
-6.408173084259033203e+00 -2.555670022964477539e+00 8.428717032074928284e-03
-1.073775672912597656e+01 -3.806921482086181641e+00 3.108124256134033203e+00
-1.011153125762939453e+01 -4.011861801147460938e+00 2.859965562820434570e+00
-1.063418102264404297e+01 -3.763933181762695312e+00 2.629240036010742188e+00
-1.023863887786865234e+01 -4.051955223083496094e+00 2.461310386657714844e+00
-1.051041126251220703e+01 -3.711870908737182617e+00 2.170718193054199219e+00
-1.043966770172119141e+01 -4.120979309082031250e+00 2.076118707656860352e+00
-1.056782913208007812e+01 -3.730073928833007812e+00 1.758946776390075684e+00
-1.061287307739257812e+01 -3.735560894012451172e+00 1.351572871208190918e+00
-1.065158081054687500e+01 -3.745007276535034180e+00 9.421583414077758789e-01
-1.087630748748779297e+01 -3.381606578826904297e+00 6.427755951881408691e-01
-1.064137554168701172e+01 -3.737246036529541016e+00 5.299105048179626465e-01
-1.027641201019287109e+01 -4.029609680175781250e+00 4.143992364406585693e-01
-1.014937210083007812e+01 -2.753957271575927734e+00 3.121185898780822754e-01
-9.314247131347656250e+00 -2.892373561859130859e+00 1.974844783544540405e-01
-8.327489852905273438e+00 -2.919713258743286133e+00 9.395366907119750977e-02
-6.210509777069091797e+00 -2.432778120040893555e+00 8.148941211402416229e-03
-1.078824996948242188e+01 -3.750467777252197266e+00 3.116020202636718750e+00
-1.017020034790039062e+01 -3.963086843490600586e+00 2.869627714157104492e+00
-1.074080181121826172e+01 -3.727669954299926758e+00 2.649896383285522461e+00
-1.026603603363037109e+01 -3.990116119384765625e+00 2.461964607238769531e+00
-1.064614772796630859e+01 -3.686494112014770508e+00 2.194038629531860352e+00
-1.041341495513916016e+01 -4.036941528320312500e+00 2.065932750701904297e+00
-1.064746570587158203e+01 -3.684869527816772461e+00 1.768405079841613770e+00
-1.049986743927001953e+01 -4.062026500701904297e+00 1.660459995269775391e+00
-1.065342712402343750e+01 -3.676525354385375977e+00 1.353838920593261719e+00
-1.067624378204345703e+01 -3.680229425430297852e+00 9.423246383666992188e-01
-1.068394088745117188e+01 -3.678710699081420898e+00 5.308960676193237305e-01
-1.035782909393310547e+01 -3.988383293151855469e+00 4.166876971721649170e-01
-1.030232238769531250e+01 -2.727702617645263672e+00 3.163015246391296387e-01
-9.325122833251953125e+00 -2.833133459091186523e+00 1.973427683115005493e-01
-8.292291641235351562e+00 -2.850358724594116211e+00 9.335746616125106812e-02
-5.945320606231689453e+00 -2.286921024322509766e+00 7.782421540468931198e-03
-1.039575672149658203e+01 -3.977681398391723633e+00 2.926328897476196289e+00
-1.030947303771972656e+01 -3.934356927871704102e+00 2.466545581817626953e+00
-1.072433471679687500e+01 -3.640029907226562500e+00 2.205507516860961914e+00
-1.042787933349609375e+01 -3.969121932983398438e+00 2.063931941986083984e+00
-1.071197414398193359e+01 -3.633749485015869141e+00 1.775382637977600098e+00
-1.053569221496582031e+01 -4.001739501953125000e+00 1.662210941314697266e+00
-1.073503684997558594e+01 -3.631129980087280273e+00 1.361352920532226562e+00
-1.071372985839843750e+01 -3.619755506515502930e+00 9.436551332473754883e-01
-1.069779396057128906e+01 -3.610211372375488281e+00 5.304736495018005371e-01
-1.044379901885986328e+01 -3.948075294494628906e+00 4.191637337207794189e-01
-1.031596183776855469e+01 -2.663687467575073242e+00 3.162125051021575928e-01
-9.337538719177246094e+00 -2.774438381195068359e+00 1.972415447235107422e-01
-8.475457191467285156e+00 -2.855291843414306641e+00 9.522057324647903442e-02
-6.195926189422607422e+00 -2.339778184890747070e+00 8.091518655419349670e-03
-1.047700595855712891e+01 -3.935243368148803711e+00 2.942347526550292969e+00
-1.036083793640136719e+01 -3.881296157836914062e+00 2.473090171813964844e+00
-1.043914127349853516e+01 -3.900244712829589844e+00 2.061385393142700195e+00
-1.075563049316406250e+01 -3.575120687484741211e+00 1.778948903083801270e+00
-1.052667713165283203e+01 -3.924576997756958008e+00 1.656958222389221191e+00
-1.077125263214111328e+01 -3.569878101348876953e+00 1.363142013549804688e+00
-1.056884002685546875e+01 -3.933994293212890625e+00 1.247013807296752930e+00
-1.075371360778808594e+01 -3.559899568557739258e+00 9.452350735664367676e-01
-1.069890499114990234e+01 -3.976031064987182617e+00 8.441876173019409180e-01
-1.075862884521484375e+01 -3.557360172271728516e+00 5.323979258537292480e-01
-1.049406051635742188e+01 -3.893652439117431641e+00 4.202141761779785156e-01
-1.041838169097900391e+01 -2.622051954269409180e+00 3.188527822494506836e-01
-9.354387283325195312e+00 -2.717092037200927734e+00 1.972415447235107422e-01
-8.517506599426269531e+00 -2.811382532119750977e+00 9.549737721681594849e-02
-6.193288803100585938e+00 -2.295461177825927734e+00 8.069528266787528992e-03
-1.072781562805175781e+01 -3.954509735107421875e+00 3.005913496017456055e+00
-1.040552520751953125e+01 -3.825395107269287109e+00 2.478107452392578125e+00
-1.047672462463378906e+01 -3.841195583343505859e+00 2.064113855361938477e+00
-1.053197860717773438e+01 -3.853114604949951172e+00 1.654039978981018066e+00
-1.086472320556640625e+01 -3.527018308639526367e+00 1.372206568717956543e+00
-1.058811092376708984e+01 -3.867366075515747070e+00 1.246464252471923828e+00
-1.081611633300781250e+01 -3.507065773010253906e+00 9.488108158111572266e-01
-1.066032600402832031e+01 -3.887417554855346680e+00 8.392456173896789551e-01
-1.078975582122802734e+01 -3.494357109069824219e+00 5.328671932220458984e-01
-1.053183841705322266e+01 -3.834316730499267578e+00 4.207769334316253662e-01
-1.048087406158447266e+01 -2.569500923156738281e+00 3.202767968177795410e-01
-9.370882987976074219e+00 -2.659643411636352539e+00 1.972415447235107422e-01
-8.580266952514648438e+00 -2.773831367492675781e+00 9.600840508937835693e-02
-6.477913379669189453e+00 -2.355847358703613281e+00 8.421386592090129852e-03
-1.072550296783447266e+01 -3.879071474075317383e+00 2.998539686203002930e+00
-1.044165325164794922e+01 -3.766111612319946289e+00 2.481161355972290039e+00
-1.051027488708496094e+01 -3.780500173568725586e+00 2.066114664077758789e+00
-1.054983615875244141e+01 -3.786414146423339844e+00 1.653164625167846680e+00
-1.060977077484130859e+01 -3.801655292510986328e+00 1.246244430541992188e+00
-1.084313011169433594e+01 -3.442442417144775391e+00 9.493097066879272461e-01
-1.066144180297851562e+01 -3.813872098922729492e+00 8.374753594398498535e-01
-1.087955093383789062e+01 -3.449825525283813477e+00 5.362462997436523438e-01
-1.054952144622802734e+01 -3.767606019973754883e+00 4.205518662929534912e-01
-1.053533267974853516e+01 -2.514424800872802734e+00 3.214634358882904053e-01
-9.389916419982910156e+00 -2.602895975112915039e+00 1.973022818565368652e-01
-8.455079078674316406e+00 -2.676171779632568359e+00 9.442210197448730469e-02
-6.627874851226806641e+00 -2.364439487457275391e+00 8.597315289080142975e-03
-1.074454498291015625e+01 -3.811571359634399414e+00 2.997268438339233398e+00
-1.050872802734375000e+01 -3.717594861984252930e+00 2.491632223129272461e+00
-1.052956485748291016e+01 -3.714630603790283203e+00 2.065387010574340820e+00
-1.059993171691894531e+01 -3.731135606765747070e+00 1.657395839691162109e+00
-1.061883068084716797e+01 -3.731540441513061523e+00 1.244595885276794434e+00
-1.066017532348632812e+01 -3.739799261093139648e+00 8.355575799942016602e-01
-1.086616992950439453e+01 -3.372345924377441406e+00 5.345567464828491211e-01
-1.060262012481689453e+01 -3.713374376296997070e+00 4.217523336410522461e-01
-1.060606098175048828e+01 -2.462620258331298828e+00 3.231544196605682373e-01
-9.422117233276367188e+00 -2.549671411514282227e+00 1.976464390754699707e-01
-8.468474388122558594e+00 -2.623354196548461914e+00 9.439016133546829224e-02
-6.663968086242675781e+00 -2.331321954727172852e+00 8.625415153801441193e-03
-1.077412509918212891e+01 -3.747796773910522461e+00 2.999048471450805664e+00
-1.068255233764648438e+01 -3.705495834350585938e+00 2.527407646179199219e+00
-1.062092685699462891e+01 -3.673739194869995117e+00 2.078847169876098633e+00
-1.066190433502197266e+01 -3.679580926895141602e+00 1.663524270057678223e+00
-1.063306999206542969e+01 -3.663400411605834961e+00 1.243606686592102051e+00
-1.069895362854003906e+01 -3.679833412170410156e+00 8.368115425109863281e-01
-1.062520503997802734e+01 -3.648247957229614258e+00 4.217523336410522461e-01
-1.072627449035644531e+01 -2.421266555786132812e+00 3.263583779335021973e-01
-9.502351760864257812e+00 -2.508910894393920898e+00 1.990028321743011475e-01
-8.437520980834960938e+00 -2.557132244110107422e+00 9.386849403381347656e-02
-6.712199687957763672e+00 -2.302067756652832031e+00 8.669397793710231781e-03
-1.073080635070800781e+01 -3.638180017471313477e+00 2.095945119857788086e+00
-1.070864582061767578e+01 -3.622333288192749023e+00 1.667317867279052734e+00
-1.068736648559570312e+01 -3.608900070190429688e+00 1.247343540191650391e+00
-1.073361682891845703e+01 -3.618257999420166016e+00 8.377704620361328125e-01
-1.064928436279296875e+01 -3.583621501922607422e+00 4.218273758888244629e-01
-1.084637641906738281e+01 -2.378529310226440430e+00 3.295623064041137695e-01
-9.504012107849121094e+00 -2.447068214416503906e+00 1.987194120883941650e-01
-8.465516090393066406e+00 -2.509006500244140625e+00 9.400690346956253052e-02
-6.750844001770019531e+00 -2.269123077392578125e+00 8.701162412762641907e-03
-1.079546546936035156e+01 -3.578033685684204102e+00 1.677385568618774414e+00
-1.074894142150878906e+01 -3.556368350982666016e+00 1.251959681510925293e+00
-1.078023719787597656e+01 -3.560461521148681641e+00 8.396882414817810059e-01
-1.072991371154785156e+01 -3.537611007690429688e+00 4.241533577442169189e-01
-1.090769386291503906e+01 -2.321922063827514648e+00 3.309862911701202393e-01
-9.528544425964355469e+00 -2.391139984130859375e+00 1.989218294620513916e-01
-8.689168930053710938e+00 -2.517397642135620117e+00 9.631714969873428345e-02
-6.488241195678710938e+00 -2.136637210845947266e+00 8.345639333128929138e-03
-1.079987239837646484e+01 -3.499845981597900391e+00 1.255366802215576172e+00
-1.082370471954345703e+01 -3.501307725906372070e+00 8.413847088813781738e-01
-1.073239898681640625e+01 -3.465565443038940430e+00 4.234030246734619141e-01
-1.096872425079345703e+01 -2.264651298522949219e+00 3.324103057384490967e-01
-9.552748680114746094e+00 -2.335002899169921875e+00 1.991242766380310059e-01
-8.766027450561523438e+00 -2.481465339660644531e+00 9.699850529432296753e-02
-6.314691543579101562e+00 -2.036623477935791016e+00 8.106179535388946533e-03
-1.086590099334716797e+01 -3.441453456878662109e+00 8.430074453353881836e-01
-1.075250911712646484e+01 -3.399346351623535156e+00 4.233655333518981934e-01
-1.103239917755126953e+01 -2.207306861877441406e+00 3.339232504367828369e-01
-9.569814682006835938e+00 -2.277038574218750000e+00 1.991850286722183228e-01
-8.742537498474121094e+00 -2.416973352432250977e+00 9.657265245914459229e-02
-6.439592838287353516e+00 -2.033369541168212891e+00 8.250344544649124146e-03
-1.090681457519531250e+01 -3.374658584594726562e+00 4.286177158355712891e-01
-1.128714084625244141e+01 -2.186332225799560547e+00 3.412211537361145020e-01
-9.593346595764160156e+00 -2.220530986785888672e+00 1.993874758481979370e-01
-8.857604980468750000e+00 -2.390379905700683594e+00 9.767986834049224854e-02
-6.459591388702392578e+00 -1.996180534362792969e+00 8.260117843747138977e-03
-1.091679477691650391e+01 -3.304487466812133789e+00 4.282050430774688721e-01
-1.133472919464111328e+01 -2.123476505279541016e+00 3.422594666481018066e-01
-9.653610229492187500e+00 -2.172160387039184570e+00 2.003591954708099365e-01
-8.747364997863769531e+00 -2.303141832351684570e+00 9.630650281906127930e-02
-6.615300178527832031e+00 -1.999914884567260742e+00 8.443377912044525146e-03
-1.094740486145019531e+01 -3.240561008453369141e+00 4.286177158355712891e-01
-1.091477012634277344e+01 -1.975556373596191406e+00 3.292063176631927490e-01
-9.696058273315429688e+00 -2.119290590286254883e+00 2.009665220975875854e-01
-8.869806289672851562e+00 -2.277276039123535156e+00 9.749887883663177490e-02
-6.583333969116210938e+00 -1.946245431900024414e+00 8.387178182601928711e-03
-1.102467823028564453e+01 -3.189993381500244141e+00 4.308686852455139160e-01
-1.137371921539306641e+01 -1.986629962921142578e+00 3.426747918128967285e-01
-9.669758796691894531e+00 -2.051457166671752930e+00 2.001567482948303223e-01
-8.917565345764160156e+00 -2.231304407119750977e+00 9.787151217460632324e-02
-6.610523223876953125e+00 -1.910256028175354004e+00 8.406725712120532990e-03
-9.741901397705078125e+00 -2.004376888275146484e+00 2.013916671276092529e-01
-8.740672111511230469e+00 -2.130140066146850586e+00 9.578483551740646362e-02
-6.788611412048339844e+00 -1.916665077209472656e+00 8.618084713816642761e-03
-9.814806938171386719e+00 -1.956683158874511719e+00 2.026468068361282349e-01
-9.002651214599609375e+00 -2.135551929473876953e+00 9.851028770208358765e-02
-6.594906330108642578e+00 -1.818358778953552246e+00 8.357856422662734985e-03
-9.803067207336425781e+00 -1.891876816749572754e+00 2.021609395742416382e-01
-9.075019836425781250e+00 -2.093986511230468750e+00 9.915971010923385620e-02
-6.890802860260009766e+00 -1.854524374008178711e+00 8.718267083168029785e-03
-9.802698135375976562e+00 -1.829489827156066895e+00 2.019180208444595337e-01
-9.016470909118652344e+00 -2.022288560867309570e+00 9.838252514600753784e-02
-6.768576145172119141e+00 -1.777162790298461914e+00 8.549667894840240479e-03
-9.842272758483886719e+00 -1.774451375007629395e+00 2.025050967931747437e-01
-9.085378646850585938e+00 -1.979271769523620605e+00 9.900002181529998779e-02
-6.764822006225585938e+00 -1.731877923011779785e+00 8.531342260539531708e-03
-9.851005554199218750e+00 -1.713684201240539551e+00 2.024646103382110596e-01
-9.244098663330078125e+00 -1.954514980316162109e+00 1.005969643592834473e-01
-6.683146953582763672e+00 -1.667341113090515137e+00 8.415278047323226929e-03
-9.938245773315429688e+00 -1.666101098060607910e+00 2.040436863899230957e-01
-9.310772895812988281e+00 -1.909004569053649902e+00 1.011931523680686951e-01
-6.893427371978759766e+00 -1.674940586090087891e+00 8.666954003274440765e-03
-1.001243782043457031e+01 -1.615441083908081055e+00 2.053595632314682007e-01
-9.357619285583496094e+00 -1.858852624893188477e+00 1.015764251351356506e-01
-6.849077701568603516e+00 -1.619723916053771973e+00 8.598537184298038483e-03
-1.000240230560302734e+01 -1.550911664962768555e+00 2.049546837806701660e-01
-9.395361900329589844e+00 -1.806498169898986816e+00 1.018638759851455688e-01
-6.857912540435791016e+00 -1.577444076538085938e+00 8.597315289080142975e-03
-9.966239929199218750e+00 -1.482740998268127441e+00 2.040234357118606567e-01
-9.432812690734863281e+00 -1.753750205039978027e+00 1.021513193845748901e-01
-6.905523300170898438e+00 -1.543844103813171387e+00 8.644962683320045471e-03
-1.008897781372070312e+01 -1.437783002853393555e+00 2.063515484333038330e-01
-9.405012130737304688e+00 -1.688945770263671875e+00 1.017361208796501160e-01
-6.977408885955810547e+00 -1.515023589134216309e+00 8.723153732717037201e-03
-1.010751533508300781e+01 -1.377200841903686523e+00 2.065539807081222534e-01
-9.309775352478027344e+00 -1.612940907478332520e+00 1.005969643592834473e-01
-6.825119018554687500e+00 -1.438161492347717285e+00 8.521568030118942261e-03
-1.010586166381835938e+01 -1.313867449760437012e+00 2.063515484333038330e-01
-9.548316955566406250e+00 -1.593985915184020996e+00 1.030669063329696655e-01
-7.264908790588378906e+00 -1.484335541725158691e+00 9.059130214154720306e-03
-1.011571693420410156e+01 -1.252079963684082031e+00 2.063920348882675171e-01
-9.558904647827148438e+00 -1.535527110099792480e+00 1.030775457620620728e-01
-7.116924285888671875e+00 -1.408664584159851074e+00 8.863652125000953674e-03
-1.015299797058105469e+01 -1.193489074707031250e+00 2.069993615150451660e-01
-9.585935592651367188e+00 -1.479591608047485352e+00 1.032691895961761475e-01
-7.106773376464843750e+00 -1.361394762992858887e+00 8.840439841151237488e-03
-1.020583820343017578e+01 -1.136258006095886230e+00 2.079306244850158691e-01
-9.612638473510742188e+00 -1.423381924629211426e+00 1.034608185291290283e-01
-7.143507957458496094e+00 -1.323044061660766602e+00 8.875870145857334137e-03
-1.026034450531005859e+01 -1.078631997108459473e+00 2.089023441076278687e-01
-9.596440315246582031e+00 -1.360863208770751953e+00 1.031946688890457153e-01
-6.950678825378417969e+00 -1.243268013000488281e+00 8.626637049019336700e-03
-1.031054782867431641e+01 -1.019986271858215332e+00 2.097931057214736938e-01
-9.744323730468750000e+00 -1.320893883705139160e+00 1.046957895159721375e-01
-7.190740108489990234e+00 -1.240723609924316406e+00 8.914965204894542694e-03
-1.048684692382812500e+01 -9.724892377853393555e-01 2.132548987865447998e-01
-9.669935226440429688e+00 -1.250435352325439453e+00 1.038121432065963745e-01
-6.987114429473876953e+00 -1.161486506462097168e+00 8.653515018522739410e-03
-1.048763561248779297e+01 -9.076937437057495117e-01 2.131536751985549927e-01
-9.680402755737304688e+00 -1.191444635391235352e+00 1.038440912961959839e-01
-7.197524547576904297e+00 -1.151125431060791016e+00 8.905191905796527863e-03
-1.054383373260498047e+01 -8.474106788635253906e-01 2.141861468553543091e-01
-9.640851974487304688e+00 -1.126569747924804688e+00 1.033437103033065796e-01
-7.514809608459472656e+00 -1.154625892639160156e+00 9.288814850151538849e-03
-1.056877613067626953e+01 -7.841784954071044922e-01 2.145910263061523438e-01
-9.794676780700683594e+00 -1.083667516708374023e+00 1.049193665385246277e-01
-7.551432609558105469e+00 -1.112868189811706543e+00 9.325467050075531006e-03
-1.049059677124023438e+01 -7.136825919151306152e-01 2.129107415676116943e-01
-9.823021888732910156e+00 -1.025833129882812500e+00 1.051535829901695251e-01
-7.529403209686279297e+00 -1.062460541725158691e+00 9.290036745369434357e-03
-1.048180580139160156e+01 -6.484974622726440430e-01 2.126475721597671509e-01
-9.820174217224121094e+00 -9.646610021591186523e-01 1.050577610731124878e-01
-7.401991844177246094e+00 -9.981987476348876953e-01 9.125103242695331573e-03
-1.058241844177246094e+01 -5.895646810531616211e-01 2.146112918853759766e-01
-9.978256225585937500e+00 -9.184097051620483398e-01 1.066866517066955566e-01
-7.456576824188232422e+00 -9.590127468109130859e-01 9.184967726469039917e-03
-1.060081386566162109e+01 -5.253633856773376465e-01 2.149149328470230103e-01
-9.784447669982910156e+00 -8.400595188140869141e-01 1.045573875308036804e-01
-7.584409713745117188e+00 -9.281833171844482422e-01 9.335240349173545837e-03
-1.060683536529541016e+01 -4.604382216930389404e-01 2.149756699800491333e-01
-9.910028457641601562e+00 -7.896175980567932129e-01 1.058455929160118103e-01
-7.549236297607421875e+00 -8.768981695175170898e-01 9.285150095820426941e-03
-1.061046028137207031e+01 -3.953844904899597168e-01 2.149959355592727661e-01
-9.861833572387695312e+00 -7.249107956886291504e-01 1.052813455462455750e-01
-7.576342582702636719e+00 -8.329646587371826172e-01 9.312028065323829651e-03
-1.089948844909667969e+01 -3.391979038715362549e-01 2.208060771226882935e-01
-9.798252105712890625e+00 -6.598175168037414551e-01 1.045573875308036804e-01
-7.426144123077392578e+00 -7.703648805618286133e-01 9.121438488364219666e-03
-1.094933986663818359e+01 -2.735119462013244629e-01 2.217778116464614868e-01
-1.008058071136474609e+01 -6.167202591896057129e-01 1.075277104973793030e-01
-7.432721614837646484e+00 -7.249785661697387695e-01 9.123881347477436066e-03
-1.122570705413818359e+01 -2.115021497011184692e-01 2.273450344800949097e-01
-1.010214614868164062e+01 -5.558441877365112305e-01 1.077193394303321838e-01
-7.567487239837646484e+00 -6.912755370140075684e-01 9.283928200602531433e-03
-1.119080352783203125e+01 -1.421613395214080811e-01 2.266162186861038208e-01
-1.012234592437744141e+01 -4.946779012680053711e-01 1.079003289341926575e-01
-7.750936508178710938e+00 -6.601035594940185547e-01 9.503839537501335144e-03
-1.093152427673339844e+01 -7.178618013858795166e-02 2.213526815176010132e-01
-1.013318252563476562e+01 -4.329005181789398193e-01 1.079855039715766907e-01
-7.743875503540039062e+00 -6.116661429405212402e-01 9.490400552749633789e-03
-1.120470333099365234e+01 -4.827862139791250229e-03 2.268794178962707520e-01
-1.022458362579345703e+01 -3.739691674709320068e-01 1.089330166578292847e-01
-7.821287155151367188e+00 -5.695132613182067871e-01 9.580808691680431366e-03
-1.116752910614013672e+01 6.371194869279861450e-02 2.261303514242172241e-01
-1.022568702697753906e+01 -3.111948668956756592e-01 1.089223772287368774e-01
-7.863548278808593750e+00 -5.241056084632873535e-01 9.628456085920333862e-03
-1.109994697570800781e+01 1.314402669668197632e-01 2.247739881277084351e-01
-1.026239109039306641e+01 -2.492952793836593628e-01 1.092949956655502319e-01
-7.805727005004882812e+00 -4.721627831459045410e-01 9.553929790854454041e-03
-1.094998550415039062e+01 1.968679130077362061e-01 2.217575609683990479e-01
-1.024573135375976562e+01 -1.859950423240661621e-01 1.091033592820167542e-01
-7.763544082641601562e+00 -4.218174815177917480e-01 9.498952887952327728e-03
-1.082963085174560547e+01 2.611835002899169922e-01 2.193484604358673096e-01
-1.031467151641845703e+01 -1.239419132471084595e-01 1.098273172974586487e-01
-7.766984939575195312e+00 -3.742214739322662354e-01 9.500174783170223236e-03
-1.253969001770019531e+01 3.794255256652832031e-01 2.540271878242492676e-01
-1.031523799896240234e+01 -6.064994260668754578e-02 1.098273172974586487e-01
-7.526349067687988281e+00 -3.163521885871887207e-01 9.203294292092323303e-03
-1.241922760009765625e+01 4.520688951015472412e-01 2.516383528709411621e-01
-1.037641239166259766e+01 2.659943886101245880e-03 1.104767397046089172e-01
-7.527149200439453125e+00 -2.701295614242553711e-01 9.202072396874427795e-03
-1.165007019042968750e+01 4.956665635108947754e-01 2.361108660697937012e-01
-1.040519809722900391e+01 6.651372462511062622e-02 1.107854768633842468e-01
-7.987461566925048828e+00 -2.375855594873428345e-01 9.762845933437347412e-03
-1.226595020294189453e+01 5.972896814346313477e-01 2.486624270677566528e-01
-1.043159103393554688e+01 1.306958049535751343e-01 1.110729277133941650e-01
-7.958777427673339844e+00 -1.878630220890045166e-01 9.726194664835929871e-03
-1.207537269592285156e+01 6.623019576072692871e-01 2.448767125606536865e-01
-1.047758102416992188e+01 1.955774873495101929e-01 1.115733087062835693e-01
-7.893790721893310547e+00 -1.378727555274963379e-01 9.645559825003147125e-03
-1.053616237640380859e+01 2.613508105278015137e-01 1.122120916843414307e-01
-8.383456230163574219e+00 -9.497418999671936035e-02 1.024298649281263351e-02
-1.054235553741455078e+01 3.262419998645782471e-01 1.122972518205642700e-01
-7.981886863708496094e+00 -4.144515842199325562e-02 9.751850739121437073e-03
-1.054215431213378906e+01 3.909966349601745605e-01 1.123185455799102783e-01
-8.002990722656250000e+00 7.551372982561588287e-03 9.777506813406944275e-03
-1.234152030944824219e+01 9.811878204345703125e-01 2.506868541240692139e-01
-1.057152557373046875e+01 4.570568799972534180e-01 1.126592308282852173e-01
-8.121790885925292969e+00 5.749911442399024963e-02 9.922893717885017395e-03
-1.056552505493164062e+01 5.217659473419189453e-01 1.126272901892662048e-01
-8.377262115478515625e+00 1.107154414057731628e-01 1.023565605282783508e-02
-1.061703777313232422e+01 5.896346569061279297e-01 1.132128387689590454e-01
-8.156466484069824219e+00 1.578582525253295898e-01 9.966874495148658752e-03
-1.070204544067382812e+01 6.602484583854675293e-01 1.141603589057922363e-01
-7.769470214843750000e+00 1.980654150247573853e-01 9.495287202298641205e-03
-1.072073841094970703e+01 7.274595499038696289e-01 1.144052222371101379e-01
-8.058963775634765625e+00 2.549350857734680176e-01 9.850811213254928589e-03
-1.075097560882568359e+01 7.958105802536010742e-01 1.147778406739234924e-01
-8.064242362976074219e+00 3.046433925628662109e-01 9.859363548457622528e-03
-1.080968189239501953e+01 8.668781518936157227e-01 1.154592037200927734e-01
-8.302989006042480469e+00 3.646942377090454102e-01 1.015380024909973145e-02
-1.082607650756835938e+01 9.350818395614624023e-01 1.156934276223182678e-01
-8.266637802124023438e+00 4.139331877231597900e-01 1.011226139962673187e-02
-1.082610893249511719e+01 1.002044677734375000e+00 1.157573014497756958e-01
-8.244972229003906250e+00 4.635819196701049805e-01 1.008904818445444107e-02
-1.316023254394531250e+01 1.781599044799804688e+00 2.689068615436553955e-01
-1.085856628417968750e+01 1.072286009788513184e+00 1.161725148558616638e-01
-8.289878845214843750e+00 5.171520113945007324e-01 1.014769170433282852e-02
-1.092040252685546875e+01 1.146094441413879395e+00 1.169071123003959656e-01
-8.464132308959960938e+00 5.801805257797241211e-01 1.036515925079584122e-02
-1.092707729339599609e+01 1.214625716209411621e+00 1.170561611652374268e-01
-8.508280754089355469e+00 6.356808543205261230e-01 1.042380277067422867e-02
-1.100681400299072266e+01 1.291907906532287598e+00 1.179930269718170166e-01
-8.722506523132324219e+00 7.055311203002929688e-01 1.069136150181293488e-02
-1.102448177337646484e+01 1.362609267234802246e+00 1.182698309421539307e-01
-8.767825126647949219e+00 7.633750438690185547e-01 1.075244788080453873e-02
-1.106450366973876953e+01 1.436537146568298340e+00 1.187915056943893433e-01
-8.912327766418457031e+00 8.310862183570861816e-01 1.093570701777935028e-02
-1.108619499206542969e+01 1.508580207824707031e+00 1.191215366125106812e-01
-8.984677314758300781e+00 8.934741616249084473e-01 1.103100180625915527e-02
-1.112226867675781250e+01 1.583057045936584473e+00 1.196112707257270813e-01
-9.017810821533203125e+00 9.526836872100830078e-01 1.107865013182163239e-02
-1.115685462951660156e+01 1.657886147499084473e+00 1.200903505086898804e-01
-8.475142478942871094e+00 9.479717016220092773e-01 1.041891612112522125e-02
-1.401583194732666016e+01 3.203296422958374023e+00 3.087460041046142578e+00
-1.115240097045898438e+01 1.727230310440063477e+00 1.201542243361473083e-01
-9.207040786743164062e+00 1.087077260017395020e+00 1.132666133344173431e-02
-1.377054405212402344e+01 2.732963800430297852e+00 2.842724025249481201e-01
-1.120872211456298828e+01 1.806446552276611328e+00 1.208781749010086060e-01
-9.195235252380371094e+00 1.142933368682861328e+00 1.132055278867483139e-02
-1.432615947723388672e+01 3.459742784500122070e+00 3.164935111999511719e+00
-5.659030437469482422e+00 1.373965263366699219e+00 1.728355437517166138e-01
-1.375155735015869141e+01 2.817005634307861328e+00 2.842319011688232422e-01
-1.126153182983398438e+01 1.885923147201538086e+00 1.215701922774314880e-01
-9.037326812744140625e+00 1.179658770561218262e+00 1.113484892994165421e-02
-1.415083122253417969e+01 3.512053012847900391e+00 3.702884197235107422e+00
-1.388996505737304688e+01 3.444736003875732422e+00 3.073182582855224609e+00
-5.622367382049560547e+00 1.401650786399841309e+00 1.719752252101898193e-01
-1.370662403106689453e+01 2.895544528961181641e+00 2.836650609970092773e-01
-1.126354026794433594e+01 1.957383990287780762e+00 1.217192411422729492e-01
-9.288510322570800781e+00 1.270458102226257324e+00 1.145372074097394943e-02
-1.436946010589599609e+01 3.660058736801147461e+00 3.765899419784545898e+00
-1.407512187957763672e+01 3.582471847534179688e+00 3.118953943252563477e+00
-1.452389621734619141e+01 3.134871244430541992e+00 3.039175510406494141e+00
-1.366515254974365234e+01 2.974488735198974609e+00 2.831791937351226807e-01
-1.125623798370361328e+01 2.027345180511474609e+00 1.217724680900573730e-01
-9.641863822937011719e+00 1.379108667373657227e+00 1.189965289086103439e-02
-1.433829307556152344e+01 3.745954275131225586e+00 3.763684034347534180e+00
-1.395922088623046875e+01 3.644317388534545898e+00 3.098167896270751953e+00
-1.388078689575195312e+01 3.110753059387207031e+00 2.880378663539886475e-01
-1.136351299285888672e+01 2.118734359741210938e+00 1.230713203549385071e-01
-9.481897354125976562e+00 1.415651559829711914e+00 1.171272806823253632e-02
-1.380531597137451172e+01 3.694765806198120117e+00 3.068983316421508789e+00
-1.438596248626708984e+01 3.290366411209106445e+00 3.018534898757934570e+00
-1.390040779113769531e+01 3.204850196838378906e+00 2.888476252555847168e-01
-1.141215610504150391e+01 2.200345993041992188e+00 1.237420290708541870e-01
-9.273433685302734375e+00 1.442751288414001465e+00 1.146593783050775528e-02
-1.411178588867187500e+01 3.872380256652832031e+00 3.716422557830810547e+00
-1.425253009796142578e+01 3.346755504608154297e+00 3.560775279998779297e+00
-1.367772388458251953e+01 3.750703573226928711e+00 3.045677900314331055e+00
-1.436359500885009766e+01 3.378126382827758789e+00 3.018134117126464844e+00
-1.392134094238281250e+01 3.299765825271606445e+00 2.896978855133056641e-01
-1.140824699401855469e+01 2.272281646728515625e+00 1.238484978675842285e-01
-8.856713294982910156e+00 1.433631777763366699e+00 1.096136309206485748e-02
-1.432194137573242188e+01 4.027401924133300781e+00 4.384309768676757812e+00
-1.412135124206542969e+01 3.968335390090942383e+00 3.725284099578857422e+00
-1.421661376953125000e+01 3.430497646331787109e+00 3.556994199752807617e+00
-1.392554569244384766e+01 3.910688638687133789e+00 3.106146335601806641e+00
-1.446544361114501953e+01 3.495884656906127930e+00 3.043984889984130859e+00
-1.473705482482910156e+01 4.141358375549316406e+00 2.704704761505126953e+00
-5.615703105926513672e+00 1.367533087730407715e+00 1.170330867171287537e-01
-1.138233566284179688e+01 2.339822530746459961e+00 1.237207427620887756e-01
-9.613002777099609375e+00 1.616643190383911133e+00 1.190942618995904922e-02
-1.429142856597900391e+01 4.113611698150634766e+00 4.382613658905029297e+00
-1.409114646911621094e+01 4.053299903869628906e+00 3.723807096481323242e+00
-1.389471054077148438e+01 3.994169712066650391e+00 3.104676485061645508e+00
-1.457208919525146484e+01 3.616434812545776367e+00 3.071038246154785156e+00
-1.422630786895751953e+01 4.105624198913574219e+00 9.756857156753540039e-01
-1.432795238494873047e+01 4.137667655944824219e+00 4.426203966140747070e-01
-5.588777065277099609e+00 1.397356986999511719e+00 1.166484430432319641e-01
-1.152036571502685547e+01 2.441965818405151367e+00 1.253815591335296631e-01
-9.748700141906738281e+00 1.701037049293518066e+00 1.209024246782064438e-02
-1.429628372192382812e+01 4.210166931152343750e+00 4.391942024230957031e+00
-1.376681995391845703e+01 3.496167182922363281e+00 4.024631500244140625e+00
-1.400650405883789062e+01 4.122172355651855469e+00 3.708053588867187500e+00
-1.419416332244873047e+01 3.609968185424804688e+00 3.562193393707275391e+00
-1.401720428466796875e+01 4.122663021087646484e+00 3.137640237808227539e+00
-1.412964916229248047e+01 4.158414363861083984e+00 2.602397441864013672e+00
-1.421341705322265625e+01 4.185763359069824219e+00 2.063928842544555664e+00
-1.422005367279052734e+01 4.193112850189208984e+00 1.518980264663696289e+00
-1.420371913909912109e+01 4.193685531616210938e+00 9.758830070495605469e-01
-1.421122741699218750e+01 4.198599338531494141e+00 4.398020803928375244e-01
-1.396767711639404297e+01 3.583529233932495117e+00 2.919855117797851562e-01
-1.154424190521240234e+01 2.521141290664672852e+00 1.258074194192886353e-01
-9.542254447937011719e+00 1.725413322448730469e+00 1.184711791574954987e-02
-1.373766136169433594e+01 3.578632831573486328e+00 4.022450923919677734e+00
-1.389277744293212891e+01 4.181499481201171875e+00 3.684668779373168945e+00
-1.409182739257812500e+01 3.676145792007446289e+00 3.542105436325073242e+00
-1.403471279144287109e+01 4.221548080444335938e+00 3.147298574447631836e+00
-1.394922256469726562e+01 4.198488235473632812e+00 2.573862791061401367e+00
-1.412866687774658203e+01 4.255187511444091797e+00 2.055375099182128906e+00
-1.416357994079589844e+01 4.271095752716064453e+00 1.515718579292297363e+00
-1.416148090362548828e+01 4.275856018066406250e+00 9.747651815414428711e-01
-1.410865020751953125e+01 4.262591838836669922e+00 4.374288022518157959e-01
-1.405081653594970703e+01 3.696895122528076172e+00 2.941921651363372803e-01
-1.154416465759277344e+01 2.595437526702880859e+00 1.259777545928955078e-01
-9.867650985717773438e+00 1.846847772598266602e+00 1.226495020091533661e-02
-1.442414188385009766e+01 4.440890312194824219e+00 4.447629451751708984e+00
-1.371823215484619141e+01 3.663602590560913086e+00 4.023268699645996094e+00
-1.384740543365478516e+01 4.260679244995117188e+00 3.679499626159667969e+00
-1.404460048675537109e+01 3.756015300750732422e+00 3.535960912704467773e+00
-1.402817058563232422e+01 4.313618659973144531e+00 3.151707649230957031e+00
-1.392413902282714844e+01 4.284289836883544922e+00 2.574036836624145508e+00
-1.404833602905273438e+01 4.325187683105468750e+00 2.047511339187622070e+00
-1.409908008575439453e+01 4.346199512481689453e+00 1.511641621589660645e+00
-1.411781597137451172e+01 4.357371807098388672e+00 9.735816717147827148e-01
-1.404593849182128906e+01 4.337872028350830078e+00 4.363014698028564453e-01
-1.396319389343261719e+01 3.765598058700561523e+00 2.928358018398284912e-01
-1.153679084777832031e+01 2.668250322341918945e+00 1.260735839605331421e-01
-9.055978775024414062e+00 1.752513766288757324e+00 1.126923877745866776e-02
-1.369664573669433594e+01 4.309092998504638672e+00 4.231381893157958984e+00
-1.381083011627197266e+01 4.342367172241210938e+00 3.676791906356811523e+00
-1.432398128509521484e+01 3.925064563751220703e+00 3.612295150756835938e+00
-1.390443325042724609e+01 4.369131088256835938e+00 3.129871845245361328e+00
-1.367776393890380859e+01 3.753120899200439453e+00 2.901103973388671875e+00
-1.430983448028564453e+01 3.367953538894653320e+00 2.862878084182739258e+00
-1.390886211395263672e+01 4.373190402984619141e+00 2.576124668121337891e+00
-1.405082130432128906e+01 4.420519828796386719e+00 2.051788091659545898e+00
-1.407878875732421875e+01 4.434720039367675781e+00 1.512355089187622070e+00
-1.408415222167968750e+01 4.441814422607421875e+00 9.731214642524719238e-01
-1.407434368133544922e+01 4.441421508789062500e+00 4.380221068859100342e-01
-1.394271564483642578e+01 3.852002143859863281e+00 2.928965091705322266e-01
-5.609312534332275391e+00 1.333643555641174316e+00 6.138661131262779236e-02
-9.542220115661621094e+00 1.907427310943603516e+00 1.188865769654512405e-02
-1.351926708221435547e+01 4.344629287719726562e+00 4.184740066528320312e+00
-1.420123291015625000e+01 3.979921340942382812e+00 4.178932666778564453e+00
-1.378577232360839844e+01 4.427620410919189453e+00 3.677284240722656250e+00
-1.406761550903320312e+01 3.947771549224853516e+00 3.553685426712036133e+00
-1.387486743927001953e+01 3.345310926437377930e+00 3.326557397842407227e+00
-1.387084674835205078e+01 4.452273368835449219e+00 3.128401994705200195e+00
-1.380255794525146484e+01 3.878586769104003906e+00 2.932565927505493164e+00
-1.390614414215087891e+01 4.466280460357666016e+00 2.580648422241210938e+00
-1.404040527343750000e+01 4.512104988098144531e+00 2.054271459579467773e+00
-1.409013938903808594e+01 4.533514976501464844e+00 1.516534090042114258e+00
-1.409747219085693359e+01 4.541305065155029297e+00 9.759486913681030273e-01
-1.407822132110595703e+01 4.537816047668457031e+00 4.390010833740234375e-01
-1.378894329071044922e+01 3.900740385055541992e+00 2.901635169982910156e-01
-5.635022163391113281e+00 1.376340627670288086e+00 6.175922974944114685e-02
-9.746778488159179688e+00 2.010589599609375000e+00 1.215865928679704666e-02
-1.352789878845214844e+01 4.439163684844970703e+00 4.195764541625976562e+00
-1.425792884826660156e+01 4.090331077575683594e+00 4.202922821044921875e+00
-1.381820774078369141e+01 4.531756877899169922e+00 3.693284273147583008e+00
-1.420002365112304688e+01 4.079084396362304688e+00 3.593388795852661133e+00
-1.393524551391601562e+01 4.567446708679199219e+00 3.149188041687011719e+00
-1.396680736541748047e+01 4.017368793487548828e+00 2.972644805908203125e+00
-1.391496944427490234e+01 4.563490867614746094e+00 2.587434053421020508e+00
-1.404633426666259766e+01 4.609287738800048828e+00 2.059238195419311523e+00
-1.410175037384033203e+01 4.632925510406494141e+00 1.520814895629882812e+00
-1.410630989074707031e+01 4.639879703521728516e+00 9.785130620002746582e-01
-1.430241870880126953e+01 4.135534286499023438e+00 8.402059078216552734e-01
-1.405960750579833984e+01 4.627237796783447266e+00 4.392977654933929443e-01
-1.379163837432861328e+01 3.993059635162353516e+00 2.907303571701049805e-01
-5.621621608734130859e+00 1.409674525260925293e+00 6.170600280165672302e-02
-1.010985660552978516e+01 2.150242090225219727e+00 1.262780372053384781e-02
-1.348949146270751953e+01 4.518429756164550781e+00 4.192372322082519531e+00
-1.425841140747070312e+01 4.185326576232910156e+00 4.210556030273437500e+00
-1.434699821472167969e+01 3.638009786605834961e+00 4.038008689880371094e+00
-1.413557338714599609e+01 4.154629707336425781e+00 3.583463191986083984e+00
-1.380311298370361328e+01 4.618122100830078125e+00 3.125672578811645508e+00
-1.382253170013427734e+01 4.067864894866943359e+00 2.947194814682006836e+00
-1.442233180999755859e+01 3.675871133804321289e+00 2.898432493209838867e+00
-1.391658973693847656e+01 4.658789157867431641e+00 2.593001842498779297e+00
-1.413682651519775391e+01 4.165721893310546875e+00 2.455687999725341797e+00
-1.404690170288085938e+01 4.705139636993408203e+00 2.063514947891235352e+00
-1.426861381530761719e+01 4.209969520568847656e+00 1.926869988441467285e+00
-1.422909069061279297e+01 4.203708171844482422e+00 1.379003763198852539e+00
-1.420209693908691406e+01 4.201123714447021484e+00 8.358110785484313965e-01
-1.392984485626220703e+01 4.125877380371093750e+00 2.941719293594360352e-01
-1.175254344940185547e+01 3.023827075958251953e+00 1.292035877704620361e-01
-1.011014842987060547e+01 2.215230941772460938e+00 1.264490745961666107e-02
-1.334442520141601562e+01 4.561094284057617188e+00 4.155907154083251953e+00
-1.425273609161376953e+01 4.278821945190429688e+00 4.216553688049316406e+00
-1.357995128631591797e+01 4.638949871063232422e+00 3.644545793533325195e+00
-1.407724571228027344e+01 4.231495380401611328e+00 3.575191497802734375e+00
-1.408612251281738281e+01 3.671867609024047852e+00 3.392838716506958008e+00
-1.374583339691162109e+01 4.692936420440673828e+00 3.119163990020751953e+00
-1.372976493835449219e+01 4.132271766662597656e+00 2.932766199111938477e+00
-1.396456718444824219e+01 3.650594711303710938e+00 2.810884952545166016e+00
-1.393806266784667969e+01 4.761281967163085938e+00 2.602397441864013672e+00
-1.402977752685546875e+01 4.227908611297607422e+00 2.441553115844726562e+00
-1.413427829742431641e+01 4.264782428741455078e+00 1.912226796150207520e+00
-1.415251159667968750e+01 4.275674819946289062e+00 1.374098896980285645e+00
-1.413591480255126953e+01 4.276045799255371094e+00 8.334446549415588379e-01
-1.392531776428222656e+01 4.217647552490234375e+00 2.946172952651977539e-01
-1.176567459106445312e+01 3.104300737380981445e+00 1.295549273490905762e-01
-9.943213462829589844e+00 2.242680549621582031e+00 1.245309691876173019e-02
-1.373597145080566406e+01 4.215733528137207031e+00 4.071249008178710938e+00
-1.376527976989746094e+01 3.670859098434448242e+00 3.886668682098388672e+00
-1.355031585693359375e+01 4.721868515014648438e+00 3.644299507141113281e+00
-1.335069561004638672e+01 4.102587699890136719e+00 3.396999120712280273e+00
-1.381117248535156250e+01 3.690844297409057617e+00 3.332005023956298828e+00
-1.376109790802001953e+01 4.792625904083251953e+00 3.129241943359375000e+00
-1.380809116363525391e+01 4.248418331146240234e+00 2.955009937286376953e+00
-1.477339363098144531e+01 3.959037065505981445e+00 2.978524923324584961e+00
-1.399697208404541016e+01 4.311881065368652344e+00 2.440402746200561523e+00
-1.407751846313476562e+01 4.342074871063232422e+00 1.908116340637207031e+00
-1.409461498260498047e+01 4.352736949920654297e+00 1.371044874191284180e+00
-1.410941123962402344e+01 4.362701892852783203e+00 8.334446549415588379e-01
-1.390968322753906250e+01 4.306264877319335938e+00 2.948399782180786133e-01
-1.188830089569091797e+01 3.214806079864501953e+00 1.311199367046356201e-01
-1.021078777313232422e+01 2.368963479995727539e+00 1.280617620795965195e-02
-1.348537731170654297e+01 4.794883251190185547e+00 4.217813491821289062e+00
-1.355194473266601562e+01 4.250412464141845703e+00 4.024359226226806641e+00
-1.374435806274414062e+01 3.755760669708251953e+00 3.887195110321044922e+00
-1.316217041015625000e+01 4.677375793457031250e+00 3.547561407089233398e+00
-1.343836975097656250e+01 4.219944000244140625e+00 3.425831317901611328e+00
-1.406442546844482422e+01 3.851136922836303711e+00 3.398740530014038086e+00
-1.360428905487060547e+01 4.831815242767333984e+00 3.100267410278320312e+00
-1.377615642547607422e+01 4.331300258636474609e+00 2.953807592391967773e+00
-1.462766742706298828e+01 4.016344547271728516e+00 2.954057455062866211e+00
-1.396554756164550781e+01 4.396203041076660156e+00 2.439580917358398438e+00
-1.405061054229736328e+01 4.428371429443359375e+00 1.908116340637207031e+00
-1.408473396301269531e+01 4.444531440734863281e+00 1.372710824012756348e+00
-1.408332920074462891e+01 4.449494361877441406e+00 8.335009813308715820e-01
-1.404790878295898438e+01 4.443696975708007812e+00 2.983422577381134033e-01
-1.191846179962158203e+01 3.301572084426879883e+00 1.316735446453094482e-01
-5.641780853271484375e+00 1.345460057258605957e+00 7.086035329848527908e-03
-1.343676471710205078e+01 4.870673179626464844e+00 4.211876869201660156e+00
-1.365388298034667969e+01 4.374583721160888672e+00 4.062525272369384766e+00
-1.371547889709472656e+01 3.838463544845581055e+00 3.885615825653076172e+00
-1.405358505249023438e+01 3.377858877182006836e+00 3.799981117248535156e+00
-1.302022552490234375e+01 4.717111587524414062e+00 3.517038583755493164e+00
-1.370367336273193359e+01 4.395811080932617188e+00 3.500275135040283203e+00
-1.393081665039062500e+01 3.906595468521118164e+00 3.372182607650756836e+00
-1.411939907073974609e+01 3.406713485717773438e+00 3.246625900268554688e+00
-1.356151485443115234e+01 4.910538673400878906e+00 3.097327947616577148e+00
-1.378476619720458984e+01 4.427131175994873047e+00 2.961422681808471680e+00
-1.437313365936279297e+01 4.041459083557128906e+00 2.907607555389404297e+00
-1.440315437316894531e+01 3.488481283187866211e+00 2.741298913955688477e+00
-1.396460247039794922e+01 4.490265846252441406e+00 2.444182872772216797e+00
-1.406376647949218750e+01 4.527568817138671875e+00 1.913639664649963379e+00
-1.409131431579589844e+01 4.541866302490234375e+00 1.376042366027832031e+00
-1.410041999816894531e+01 4.550235271453857422e+00 8.361491560935974121e-01
-5.654205322265625000e+00 1.383052349090576172e+00 2.185293883085250854e-01
-1.385579109191894531e+01 4.476634025573730469e+00 2.948399782180786133e-01
-1.207306194305419922e+01 3.424299240112304688e+00 1.336111575365066528e-01
-5.603309154510498047e+00 1.372675895690917969e+00 7.048161234706640244e-03
-1.335983753204345703e+01 4.935742378234863281e+00 4.197177886962890625e+00
-1.342652511596679688e+01 4.392761230468750000e+00 4.002822399139404297e+00
-1.426203918457031250e+01 4.085954189300537109e+00 4.047483444213867188e+00
-1.303740692138671875e+01 4.814035415649414062e+00 3.529592275619506836e+00
-1.325075626373291016e+01 4.340375900268554688e+00 3.391327142715454102e+00
-1.406946372985839844e+01 4.038755893707275391e+00 3.411679029464721680e+00
-1.338345336914062500e+01 4.939158439636230469e+00 3.063524484634399414e+00
-1.382157707214355469e+01 4.532695293426513672e+00 2.975250005722045898e+00
-1.446503067016601562e+01 4.163239002227783203e+00 2.931310415267944336e+00
-1.445590972900390625e+01 3.595303535461425781e+00 2.755486488342285156e+00
-1.395272064208984375e+01 4.581097602844238281e+00 2.446976900100708008e+00
-1.409884357452392578e+01 4.634526729583740234e+00 1.922245860099792480e+00
-1.408871746063232422e+01 4.636648178100585938e+00 1.378541111946105957e+00
-1.408645820617675781e+01 4.641354560852050781e+00 8.369942903518676758e-01
-1.428328132629394531e+01 4.137937068939208984e+00 6.986783742904663086e-01
-5.580676078796386719e+00 1.401413083076477051e+00 2.160158306360244751e-01
-1.382901096343994141e+01 4.561880111694335938e+00 2.948602139949798584e-01
-1.202493572235107422e+01 3.490508556365966797e+00 1.333130598068237305e-01
-5.599630355834960938e+00 1.408250808715820312e+00 7.054270245134830475e-03
-1.328621101379394531e+01 5.001403331756591797e+00 4.183609485626220703e+00
-1.325513172149658203e+01 4.426907062530517578e+00 3.959749221801757812e+00
-1.399044132232666016e+01 4.101198673248291016e+00 3.977472543716430664e+00
-1.407670116424560547e+01 3.566691398620605469e+00 3.817779541015625000e+00
-1.408259582519531250e+01 5.298384666442871094e+00 3.821284055709838867e+00
-1.321742439270019531e+01 4.419442653656005859e+00 3.389672756195068359e+00
-1.368186092376708984e+01 4.018521308898925781e+00 3.323606491088867188e+00
-1.406045150756835938e+01 3.575634956359863281e+00 3.242917776107788086e+00
-1.331995010375976562e+01 5.008795738220214844e+00 3.055965900421142578e+00
-1.377120780944824219e+01 4.609953403472900391e+00 2.970440387725830078e+00
-1.409930038452148438e+01 4.151822566986083984e+00 2.862304687500000000e+00
-1.398046588897705078e+01 4.685430526733398438e+00 2.456838607788085938e+00
-1.418592453002929688e+01 4.180021286010742188e+00 2.321177005767822266e+00
-1.421819114685058594e+01 4.203017711639404297e+00 1.781065702438354492e+00
-1.421487426757812500e+01 4.207433223724365234e+00 1.237029671669006348e+00
-1.416376495361328125e+01 4.197683334350585938e+00 6.940789818763732910e-01
-1.379886436462402344e+01 4.646009445190429688e+00 2.948197424411773682e-01
-1.218254566192626953e+01 3.617453813552856445e+00 1.353039294481277466e-01
-5.611217975616455078e+00 1.447829604148864746e+00 7.079926319420337677e-03
-1.453691482543945312e+01 5.574286460876464844e+00 4.588119506835937500e+00
-1.327871799468994141e+01 4.525536537170410156e+00 3.975015640258789062e+00
-1.424963665008544922e+01 4.272300243377685547e+00 4.058537960052490234e+00
-1.401991844177246094e+01 3.643995761871337891e+00 3.808371782302856445e+00
-1.447247409820556641e+01 5.546679019927978516e+00 3.936237573623657227e+00
-1.360388660430908203e+01 4.641658306121826172e+00 3.496021270751953125e+00
-1.417833900451660156e+01 4.259016513824462891e+00 3.450494527816772461e+00
-1.350470638275146484e+01 3.522668361663818359e+00 3.119666576385498047e+00
-1.372504711151123047e+01 4.688347816467285156e+00 2.966632843017578125e+00
-1.398333263397216797e+01 4.211083889007568359e+00 2.843954086303710938e+00
-1.403825283050537109e+01 4.800808429718017578e+00 2.472123861312866211e+00
-1.408339309692382812e+01 4.243898391723632812e+00 2.308617591857910156e+00
-1.411990451812744141e+01 4.268344879150390625e+00 1.772001147270202637e+00
-1.415445423126220703e+01 4.284182071685791016e+00 1.234036207199096680e+00
-1.412531471252441406e+01 4.280745506286621094e+00 6.934689283370971680e-01
-1.377198886871337891e+01 4.731239795684814453e+00 2.948602139949798584e-01
-1.217925643920898438e+01 3.697946786880493164e+00 1.355168521404266357e-01
-1.054321002960205078e+01 2.789512395858764648e+00 1.332418899983167648e-02
-1.278244495391845703e+01 4.991700649261474609e+00 4.043967247009277344e+00
-1.332794475555419922e+01 4.633783817291259766e+00 3.998188018798828125e+00
-1.443161296844482422e+01 4.423550605773925781e+00 4.118021011352539062e+00
-1.455825233459472656e+01 5.682246208190917969e+00 3.968975782394409180e+00
-1.344392204284667969e+01 4.679367065429687500e+00 3.462225914001464844e+00
