-1.219159830361604691e-02 -7.270908355712890625e-01 7.450677454471588135e-02
-1.304846722632646561e-02 -7.333348989486694336e-01 6.120287254452705383e-02
-3.475658968091011047e-02 -7.113658189773559570e-01 3.346259891986846924e-02
-5.460439249873161316e-02 -6.884377002716064453e-01 5.762715637683868408e-02
-7.448632270097732544e-02 -7.133304476737976074e-01 3.369725868105888367e-02
-7.710446417331695557e-02 -6.969745159149169922e-01 3.294634446501731873e-02
-8.567646890878677368e-02 -7.299475073814392090e-01 7.825035601854324341e-03
-8.516356348991394043e-02 -6.920101642608642578e-01 3.275861218571662903e-02
-1.037648543715476990e-01 -6.982924938201904297e-01 7.516293320804834366e-03
-1.121796742081642151e-01 -7.243230342864990234e-01 7.803743705153465271e-03
-1.135867983102798462e-01 -7.071454524993896484e-01 3.365032374858856201e-02
-1.200393810868263245e-01 -6.929032802581787109e-01 3.304020687937736511e-02
-1.254930943250656128e-01 -7.221354842185974121e-01 7.803743705153465271e-03
-1.144009754061698914e-01 -7.083155512809753418e-01 2.693632803857326508e-02
-1.316701769828796387e-01 -7.281910181045532227e-01 9.040803415700793266e-04
-6.688992023468017578e+00 -6.452719688415527344e+00 1.881922930479049683e-01
-6.689374446868896484e+00 -6.374310970306396484e+00 1.870990842580795288e-01
-6.681455612182617188e+00 -6.436590194702148438e+00 9.877644479274749756e-02
-6.700540542602539062e+00 -6.376171112060546875e+00 9.847833961248397827e-02
-3.950630187988281250e+00 -3.051329374313354492e+00 1.481532305479049683e-01
-6.677603244781494141e+00 -6.424037456512451172e+00 1.132055278867483139e-02
-3.936691045761108398e+00 -3.002179622650146484e+00 1.469369083642959595e-01
-6.702396392822265625e+00 -6.369165897369384766e+00 1.129611767828464508e-02
-3.927888631820678711e+00 -2.957525730133056641e+00 1.459282636642456055e-01
-3.906947135925292969e+00 -3.013305664062500000e+00 9.990630298852920532e-02
-3.924567222595214844e+00 -2.988670587539672852e+00 9.988605231046676636e-02
-3.967604160308837891e+00 -2.983159542083740234e+00 1.005136296153068542e-01
-3.906028270721435547e+00 -3.046683549880981445e+00 5.274181067943572998e-02
-3.922271966934204102e+00 -3.020828723907470703e+00 5.270987004041671753e-02
-3.932774543762207031e+00 -2.990652799606323242e+00 5.260340869426727295e-02
-3.942254543304443359e+00 -2.959861040115356445e+00 5.248629674315452576e-02
-3.906761646270751953e+00 -3.042939662933349609e+00 6.050007883459329605e-03
-3.940551519393920898e+00 -3.032784700393676758e+00 1.866784989833831787e-01
-3.918225288391113281e+00 -3.013424396514892578e+00 6.039012689143419266e-03
-3.956699132919311523e+00 -3.006734848022460938e+00 1.865659356117248535e-01
-3.927084684371948242e+00 -2.982068777084350586e+00 6.024351809173822403e-03
-3.949308872222900391e+00 -2.960915803909301758e+00 6.030460353940725327e-03
-1.124100208282470703e+01 -6.911877155303955078e+00 1.612195186316967010e-02
-1.142342853546142578e+01 -6.927815437316894531e+00 1.632231660187244415e-02
-1.142624473571777344e+01 -6.833981037139892578e+00 1.626611687242984772e-02
-1.146107101440429688e+01 -6.759677886962890625e+00 1.625634171068668365e-02
-1.145219421386718750e+01 -6.660068988800048828e+00 1.618548296391963959e-02
-1.133148574829101562e+01 -6.497156143188476562e+00 1.595824025571346283e-02
-1.148866271972656250e+01 -6.493935585021972656e+00 1.612317375838756561e-02
-1.140337467193603516e+01 -6.353718280792236328e+00 1.594846695661544800e-02
-1.145616912841796875e+01 -6.291330814361572266e+00 1.596801355481147766e-02
-1.147344970703125000e+01 -6.209495067596435547e+00 1.593869179487228394e-02
-1.149104022979736328e+01 -6.128155708312988281e+00 1.591059379279613495e-02
-1.151249122619628906e+01 -6.049160003662109375e+00 1.588860154151916504e-02
-1.152896499633789062e+01 -5.967833518981933594e+00 1.586050167679786682e-02
-1.144866180419921875e+01 -5.837475299835205078e+00 1.570045575499534607e-02
-1.152984046936035156e+01 -5.790004730224609375e+00 1.576276309788227081e-02
-1.149433612823486328e+01 -5.684131145477294922e+00 1.566624641418457031e-02
-1.155866622924804688e+01 -5.627942562103271484e+00 1.570656336843967438e-02
-1.160290050506591797e+01 -5.561668395996093750e+00 1.572000235319137573e-02
-1.156988239288330078e+01 -5.458793640136718750e+00 1.562959514558315277e-02
-1.158411216735839844e+01 -5.378855705261230469e+00 1.560393813997507095e-02
-1.160598373413085938e+01 -5.302688598632812500e+00 1.558927726000547409e-02
-1.156807136535644531e+01 -5.199807167053222656e+00 1.549520436674356461e-02
-1.154579734802246094e+01 -5.104870796203613281e+00 1.542312279343605042e-02
-1.153380203247070312e+01 -5.015189170837402344e+00 1.536570116877555847e-02
-9.949947357177734375e+00 -3.427802324295043945e+00 2.130929529666900635e-01
-1.158182716369628906e+01 -4.951794147491455078e+00 1.538891438394784927e-02
-9.963214874267578125e+00 -3.364127159118652344e+00 2.129309922456741333e-01
-1.160554027557373047e+01 -4.877923965454101562e+00 1.538036204874515533e-02
-1.162785816192626953e+01 -4.803567409515380859e+00 1.537058781832456589e-02
-1.146438694000244141e+01 -4.653893947601318359e+00 1.511646714061498642e-02
-1.150758934020996094e+01 -4.589389324188232422e+00 1.513601653277873993e-02
-1.151877212524414062e+01 -4.512128353118896484e+00 1.511402428150177002e-02
-9.965124130249023438e+00 -3.425371170043945312e+00 1.121907904744148254e-01
-1.155184173583984375e+01 -4.443520069122314453e+00 1.512135565280914307e-02
-9.987850189208984375e+00 -3.364800691604614258e+00 1.122120916843414307e-01
-1.190725517272949219e+01 -4.496556758880615234e+00 1.555018220096826553e-02
-1.176396656036376953e+01 -4.360159397125244141e+00 1.532782707363367081e-02
-1.168524360656738281e+01 -4.249616622924804688e+00 1.519099436700344086e-02
-1.143984222412109375e+01 -4.081068992614746094e+00 1.483913604170084000e-02
-1.001105499267578125e+01 -3.502266645431518555e+00 1.295767165720462799e-02
-9.963304519653320312e+00 -3.417091608047485352e+00 1.286848541349172592e-02
-9.983135223388671875e+00 -3.355574846267700195e+00 1.286726258695125580e-02
-1.154509925842285156e+01 -3.801907062530517578e+00 1.485013123601675034e-02
-1.157106590270996094e+01 -3.731916904449462891e+00 1.485379692167043686e-02
-1.154225254058837891e+01 -3.644588232040405273e+00 1.478782296180725098e-02
-1.160356998443603516e+01 -3.585802793502807617e+00 1.483791321516036987e-02
-1.160812377929687500e+01 -3.509328365325927734e+00 1.481592282652854919e-02
-1.199864196777343750e+01 -3.547184705734252930e+00 1.528628915548324585e-02
-1.160996627807617188e+01 -3.354954957962036133e+00 1.476461067795753479e-02
-1.160723590850830078e+01 -3.277133226394653320e+00 1.473528891801834106e-02
-1.158085155487060547e+01 -3.193092107772827148e+00 1.467664539813995361e-02
-1.169099617004394531e+01 -3.146402359008789062e+00 1.479148771613836288e-02
-1.169847583770751953e+01 -3.071560859680175781e+00 1.477682683616876602e-02
-1.155919456481933594e+01 -2.959296464920043945e+00 1.457768492400646210e-02
-1.148593044281005859e+01 -2.865560770034790039e+00 1.446284260600805283e-02
-1.173262500762939453e+01 -2.850751638412475586e+00 1.475117076188325882e-02
-1.162825107574462891e+01 -2.749940633773803711e+00 1.459845434874296188e-02
-1.169265842437744141e+01 -2.689523220062255859e+00 1.465831883251667023e-02
-1.156645870208740234e+01 -2.585873365402221680e+00 1.447994634509086609e-02
-1.163292312622070312e+01 -2.525887966156005859e+00 1.454347651451826096e-02
-1.145250034332275391e+01 -2.413224697113037109e+00 1.429913006722927094e-02
-1.170419311523437500e+01 -2.391351461410522461e+00 1.459478866308927536e-02
-1.113202762603759766e+01 -2.203380584716796875e+00 1.386419497430324554e-02
-1.161480045318603516e+01 -2.224966049194335938e+00 1.444818172603845596e-02
-1.163905143737792969e+01 -2.155660390853881836e+00 1.446162071079015732e-02
-1.155460548400878906e+01 -2.066772460937500000e+00 1.434066984802484512e-02
-1.151878261566162109e+01 -1.987504124641418457e+00 1.428080443292856216e-02
-1.129006385803222656e+01 -1.876777291297912598e+00 1.398270297795534134e-02
-1.152453136444091797e+01 -1.843158721923828125e+00 1.425881311297416687e-02
-1.159393882751464844e+01 -1.781370878219604492e+00 1.433089561760425568e-02
-1.152649593353271484e+01 -1.698680400848388672e+00 1.423437986522912979e-02
-1.151194667816162109e+01 -1.624429941177368164e+00 1.420383527874946594e-02
-1.131457233428955078e+01 -1.525831460952758789e+00 1.394849456846714020e-02
-1.145563507080078125e+01 -1.473343610763549805e+00 1.411098334938287735e-02
-1.146445941925048828e+01 -1.403025388717651367e+00 1.411098334938287735e-02
-1.138643360137939453e+01 -1.322616219520568848e+00 1.400469336658716202e-02
-1.130885028839111328e+01 -1.243327140808105469e+00 1.389962527900934219e-02
-1.155796909332275391e+01 -1.198987364768981934e+00 1.419650577008724213e-02
-1.198710536956787109e+01 -1.169207453727722168e+00 1.471451856195926666e-02
-1.188052558898925781e+01 -1.085263490676879883e+00 1.457524113357067108e-02
-1.198959064483642578e+01 -1.021085858345031738e+00 1.470108050853013992e-02
-1.193083095550537109e+01 -9.423816204071044922e-01 1.462166756391525269e-02
-1.188552379608154297e+01 -8.654538989067077637e-01 1.455935928970575333e-02
-1.192852687835693359e+01 -7.950364947319030762e-01 1.460578572005033493e-02
-1.164670372009277344e+01 -7.045006752014160156e-01 1.425514835864305496e-02
-1.175665092468261719e+01 -6.387754082679748535e-01 1.438465155661106110e-02
-1.168343830108642578e+01 -5.629203319549560547e-01 1.429057866334915161e-02
-1.163072204589843750e+01 -4.888697564601898193e-01 1.422216184437274933e-02
-1.177241325378417969e+01 -4.224809110164642334e-01 1.439198199659585953e-02
-1.175679111480712891e+01 -3.497035801410675049e-01 1.436999067664146423e-02
-1.170573139190673828e+01 -2.763080000877380371e-01 1.430523954331874847e-02
-1.166621208190917969e+01 -2.037617862224578857e-01 1.425514835864305496e-02
-1.165624427795410156e+01 -1.320508122444152832e-01 1.424170937389135361e-02
-1.155283641815185547e+01 -5.998696014285087585e-02 1.411464903503656387e-02
-1.162998580932617188e+01 1.097369380295276642e-02 1.420872192829847336e-02
-1.162969970703125000e+01 8.233374357223510742e-02 1.420872192829847336e-02
-9.203588485717773438e+00 1.119818091392517090e+00 9.499359726905822754e-01
-1.156598186492919922e+01 1.528581529855728149e-01 1.413175370544195175e-02
-9.180756568908691406e+00 1.174249887466430664e+00 9.483052492141723633e-01
-6.645463466644287109e+00 8.535140156745910645e-01 1.988528519868850708e-01
-1.151983451843261719e+01 2.229520380496978760e-01 1.407677587121725082e-02
-9.235493659973144531e+00 1.238892197608947754e+00 9.547264575958251953e-01
-9.185192108154296875e+00 1.235408663749694824e+00 6.106994152069091797e-01
-6.607411384582519531e+00 8.898711204528808594e-01 1.978738605976104736e-01
-1.152524757385253906e+01 2.938106060028076172e-01 1.408532727509737015e-02
-9.236583709716796875e+00 1.296781539916992188e+00 9.556437134742736816e-01
-9.203129768371582031e+00 1.295360684394836426e+00 6.124089360237121582e-01
-9.326687812805175781e+00 1.314411878585815430e+00 2.795450389385223389e-01
-1.150723552703857422e+01 3.640168011188507080e-01 1.406577974557876587e-02
-9.220579147338867188e+00 1.352276921272277832e+00 9.548283219337463379e-01
-9.177238464355468750e+00 1.349193215370178223e+00 6.112254261970520020e-01
-1.151477909088134766e+01 4.349945187568664551e-01 1.407799776643514633e-02
-9.005823135375976562e+00 1.374063253402709961e+00 1.268985271453857422e+00
-9.185557365417480469e+00 1.404767513275146484e+00 9.520763754844665527e-01
-9.157938003540039062e+00 1.403815269470214844e+00 6.105021834373474121e-01
-1.149291133880615234e+01 5.048059225082397461e-01 1.405478455126285553e-02
-9.001134872436523438e+00 1.429917693138122559e+00 1.269537091255187988e+00
-9.144345283508300781e+00 1.455940723419189453e+00 9.487128853797912598e-01
-9.181840896606445312e+00 1.121949434280395508e+00 8.597373366355895996e-01
-9.203346252441406250e+00 1.468629002571105957e+00 6.141185164451599121e-01
-1.144265651702880859e+01 5.729651451110839844e-01 1.399736385792493820e-02
-9.010758399963378906e+00 1.488187074661254883e+00 1.272158384323120117e+00
-9.102852821350097656e+00 1.506661415100097656e+00 9.453493952751159668e-01
-9.182683944702148438e+00 1.179281592369079590e+00 8.604776263236999512e-01
-9.226646423339843750e+00 1.530460357666015625e+00 6.162883043289184570e-01
-6.615700721740722656e+00 8.543132543563842773e-01 1.350708901882171631e-01
-1.139199924468994141e+01 6.405267119407653809e-01 1.393994223326444626e-02
-9.017076492309570312e+00 1.546126127243041992e+00 1.274365782737731934e+00
-9.138914108276367188e+00 1.227458834648132324e+00 1.194322824478149414e+00
-9.097357749938964844e+00 1.563160896301269531e+00 9.457570314407348633e-01
-9.262113571166992188e+00 1.247297525405883789e+00 8.686215281486511230e-01
-9.156114578247070312e+00 1.576547384262084961e+00 6.122117638587951660e-01
-1.139883327484130859e+01 7.110995054244995117e-01 1.395338121801614761e-02
-8.975239753723144531e+00 1.595703601837158203e+00 1.269812941551208496e+00
-9.108623504638671875e+00 1.280336141586303711e+00 1.191368579864501953e+00
-9.103264808654785156e+00 1.621743321418762207e+00 9.473878145217895508e-01
-9.234566688537597656e+00 1.301326394081115723e+00 8.667706251144409180e-01
-9.134480476379394531e+00 1.630594372749328613e+00 6.114227175712585449e-01
-9.185032844543457031e+00 1.297616243362426758e+00 5.234947204589843750e-01
-9.142104148864746094e+00 1.633601665496826172e+00 2.756290733814239502e-01
-1.067624282836914062e+01 1.512088298797607422e+00 2.183362543582916260e-01
-1.138727188110351562e+01 7.805493474006652832e-01 1.394482888281345367e-02
-8.904887199401855469e+00 1.639624714851379395e+00 1.261259198188781738e+00
-9.079990386962890625e+00 1.333176136016845703e+00 1.188671112060546875e+00
-9.111730575561523438e+00 1.680998563766479492e+00 9.493243694305419922e-01
-9.188974380493164062e+00 1.352454543113708496e+00 8.632538914680480957e-01
-9.242049217224121094e+00 1.708376884460449219e+00 6.193128824234008789e-01
-9.143315315246582031e+00 1.348995327949523926e+00 5.215789675712585449e-01
-9.117164611816406250e+00 1.686937808990478516e+00 2.751840949058532715e-01
-1.133739280700683594e+01 8.470529317855834961e-01 1.388985104858875275e-02
-8.897578239440917969e+00 1.694789290428161621e+00 1.261673092842102051e+00
-9.028506278991699219e+00 1.382261157035827637e+00 1.183019280433654785e+00
-9.137399673461914062e+00 1.743775367736816406e+00 9.530956745147705078e-01
-9.181487083435058594e+00 1.408962726593017578e+00 8.633465170860290527e-01
-9.143182754516601562e+00 1.065079092979431152e+00 7.681126594543457031e-01
-9.120064735412597656e+00 1.402795672416687012e+00 5.207338929176330566e-01
-1.120340251922607422e+01 9.062016010284423828e-01 1.373224798589944839e-02
-8.871463775634765625e+00 1.746291279792785645e+00 1.259465694427490234e+00
-9.012020111083984375e+00 1.436384320259094238e+00 1.181991696357727051e+00
-9.136287689208984375e+00 1.801733136177062988e+00 9.541148543357849121e-01
-9.177585601806640625e+00 1.466058135032653809e+00 8.638092279434204102e-01
-9.179996490478515625e+00 1.126501083374023438e+00 7.717714905738830566e-01
-9.096497535705566406e+00 1.456361293792724609e+00 5.198886990547180176e-01
-6.560703277587890625e+00 8.108929991722106934e-01 7.038274407386779785e-02
-1.121257400512695312e+01 9.762282967567443848e-01 1.375057362020015717e-02
-9.017712593078613281e+00 1.494085431098937988e+00 1.183918356895446777e+00
-9.173962593078613281e+00 1.179687500000000000e+00 1.111123442649841309e+00
-9.158594131469726562e+00 1.520712137222290039e+00 8.628837466239929199e-01
-9.180818557739257812e+00 1.183826923370361328e+00 7.724367976188659668e-01
-9.220347404479980469e+00 1.534273147583007812e+00 5.274951457977294922e-01
-6.618075847625732422e+00 8.592443466186523438e-01 7.105346024036407471e-02
-1.118745517730712891e+01 1.043244838714599609e+00 1.372736040502786636e-02
-9.009352684020996094e+00 1.549557089805603027e+00 1.184046864509582520e+00
-9.135066032409667969e+00 1.231710314750671387e+00 1.107306838035583496e+00
-9.135354042053222656e+00 1.574511885643005371e+00 8.615881204605102539e-01
-9.190170288085937500e+00 1.242406606674194336e+00 7.738504409790039062e-01
-9.173373222351074219e+00 1.584362149238586426e+00 5.253540873527526855e-01
-9.467285156250000000e+00 1.638528108596801758e+00 1.945490390062332153e-01
-1.111019229888916016e+01 1.104844331741333008e+00 1.364061888307332993e-02
-8.996746063232421875e+00 1.604285955429077148e+00 1.183661460876464844e+00
-9.120453834533691406e+00 1.286767840385437012e+00 1.106472015380859375e+00
-9.135322570800781250e+00 1.632287144660949707e+00 8.625136017799377441e-01
-9.187307357788085938e+00 1.299470901489257812e+00 7.742662429809570312e-01
-9.088788032531738281e+00 1.627246379852294922e+00 5.210719108581542969e-01
-9.161151885986328125e+00 1.299033284187316895e+00 4.347321689128875732e-01
-9.177572250366210938e+00 1.646448850631713867e+00 1.887996196746826172e-01
-1.074608135223388672e+01 1.529513478279113770e+00 1.155656725168228149e-01
-1.117480564117431641e+01 1.180558681488037109e+00 1.372858230024576187e-02
-8.980881690979003906e+00 1.658378243446350098e+00 1.182890892028808594e+00
-9.103547096252441406e+00 1.341403126716613770e+00 1.105398535728454590e+00
-9.240668296813964844e+00 1.709685325622558594e+00 8.734338283538818359e-01
-9.184089660644531250e+00 1.356546640396118164e+00 7.746819257736206055e-01
-9.075687408447265625e+00 1.682437658309936523e+00 5.209029316902160645e-01
-9.145103454589843750e+00 1.354050159454345703e+00 4.343566894531250000e-01
-9.102420806884765625e+00 1.690680146217346191e+00 1.874634772539138794e-01
-1.117033290863037109e+01 1.249437332153320312e+00 1.373224798589944839e-02
-8.957873344421386719e+00 1.711033821105957031e+00 1.181221008300781250e+00
-9.074536323547363281e+00 1.394070267677307129e+00 1.102893948554992676e+00
-9.197731018066406250e+00 1.760176658630371094e+00 8.703798651695251465e-01
-9.210066795349121094e+00 1.418181896209716797e+00 7.775924801826477051e-01
-9.123789787292480469e+00 1.408157229423522949e+00 4.337466061115264893e-01
-9.084021568298339844e+00 1.744990944862365723e+00 1.873015463352203369e-01
-1.114060783386230469e+01 1.315374016761779785e+00 1.370537001639604568e-02
-9.062870025634765625e+00 1.449253916740417480e+00 1.102536082267761230e+00
-9.117435455322265625e+00 1.120338439941406250e+00 1.015767812728881836e+00
-9.105683326721191406e+00 1.800548315048217773e+00 8.626986742019653320e-01
-9.234645843505859375e+00 1.480028867721557617e+00 7.804197072982788086e-01
-6.654785633087158203e+00 8.271650075912475586e-01 8.192922919988632202e-03
-9.039115905761718750e+00 1.502393484115600586e+00 1.100746989250183105e+00
-9.171506881713867188e+00 1.184151887893676758e+00 1.022582173347473145e+00
-9.219493865966796875e+00 1.535681366920471191e+00 7.799208164215087891e-01
-6.635702610015869141e+00 8.661704063415527344e-01 8.175819180905818939e-03
-9.044403076171875000e+00 1.560360193252563477e+00 1.102536082267761230e+00
-9.167022705078125000e+00 1.240804791450500488e+00 1.022911787033081055e+00
-9.213824272155761719e+00 1.592901229858398438e+00 7.802534103393554688e-01
-9.207002639770507812e+00 1.251125693321228027e+00 6.872254610061645508e-01
-9.283411979675292969e+00 1.266459703445434570e+00 3.517479002475738525e-01
-6.624318599700927734e+00 9.060568809509277344e-01 8.168488740921020508e-03
-9.040522575378417969e+00 1.616874933242797852e+00 1.103251695632934570e+00
-9.214348793029785156e+00 1.304833531379699707e+00 1.029066681861877441e+00
-9.262732505798339844e+00 1.659953474998474121e+00 7.852428555488586426e-01
-9.167557716369628906e+00 1.303104281425476074e+00 6.848651766777038574e-01
-9.091399192810058594e+00 1.632524967193603516e+00 4.339812695980072021e-01
-9.189399719238281250e+00 1.311118006706237793e+00 3.484840393066406250e-01
-9.089229583740234375e+00 1.637048363685607910e+00 9.832929819822311401e-02
-1.073770904541015625e+01 1.535851240158081055e+00 1.325210742652416229e-02
-9.031408309936523438e+00 1.672496914863586426e+00 1.103371024131774902e+00
-9.170771598815917969e+00 1.356112837791442871e+00 1.025110006332397461e+00
-9.273927688598632812e+00 1.720756888389587402e+00 7.870721817016601562e-01
-9.154457092285156250e+00 1.358598828315734863e+00 6.844964027404785156e-01
-9.081211090087890625e+00 1.688277959823608398e+00 4.339812695980072021e-01
-9.165367126464843750e+00 1.365123033523559570e+00 3.478837907314300537e-01
-9.083929061889648438e+00 1.693704485893249512e+00 9.838252514600753784e-02
-1.077258968353271484e+01 1.608352541923522949e+00 1.330708526074886322e-02
-9.038528442382812500e+00 1.731243133544921875e+00 1.105517745018005371e+00
-9.127896308898925781e+00 1.407058119773864746e+00 1.021263241767883301e+00
-9.226984024047851562e+00 1.770679235458374023e+00 7.839954495429992676e-01
-9.142005920410156250e+00 1.414134025573730469e+00 6.842013001441955566e-01
-9.171716690063476562e+00 1.763393044471740723e+00 4.388152658939361572e-01
-9.077294349670410156e+00 1.750167846679687500e+00 9.842512011528015137e-02
-1.080994796752929688e+01 1.681800723075866699e+00 1.336572878062725067e-02
-9.040397644042968750e+00 1.789175748825073242e+00 1.107068419456481934e+00
-9.091611862182617188e+00 1.458630800247192383e+00 1.018185853958129883e+00
-9.176479339599609375e+00 1.477175593376159668e+00 6.874467730522155762e-01
-1.074611949920654297e+01 1.739469051361083984e+00 1.329975575208663940e-02
-9.079548835754394531e+00 1.513897895812988281e+00 1.017856121063232422e+00
-9.190850257873535156e+00 1.537402391433715820e+00 6.892170310020446777e-01
-1.080328845977783203e+01 1.816816449165344238e+00 1.338405534625053406e-02
-9.081841468811035156e+00 1.571614265441894531e+00 1.019175052642822266e+00
-9.169452667236328125e+00 1.591720700263977051e+00 6.883319020271301270e-01
-1.076632404327392578e+01 1.878600835800170898e+00 1.335228979587554932e-02
-8.888305664062500000e+00 1.589551210403442383e+00 1.331724047660827637e+00
-9.050504684448242188e+00 1.623449087142944336e+00 1.016757011413574219e+00
-9.182087898254394531e+00 1.652014970779418945e+00 6.900283694267272949e-01
-9.123112678527832031e+00 1.646336317062377930e+00 3.480338454246520996e-01
-9.098451614379882812e+00 1.645165562629699707e+00 1.129611767828464508e-02
-8.859902381896972656e+00 1.640636444091796875e+00 1.328951716423034668e+00
-9.049167633056640625e+00 1.680584669113159180e+00 1.017746090888977051e+00
-9.266879081726074219e+00 1.726037383079528809e+00 6.971831321716308594e-01
-9.101051330566406250e+00 1.700081706047058105e+00 3.475836515426635742e-01
-9.013483047485351562e+00 1.686980128288269043e+00 1.120326574891805649e-02
-8.841896057128906250e+00 1.693480014801025391e+00 1.327784419059753418e+00
-9.059183120727539062e+00 1.740014791488647461e+00 1.020054221153259277e+00
-9.229673385620117188e+00 1.777772545814514160e+00 6.951916217803955078e-01
-9.029616355895996094e+00 1.744142413139343262e+00 3.452576696872711182e-01
-8.952891349792480469e+00 1.732564330101013184e+00 1.114095840603113174e-02
-8.857542037963867188e+00 1.752886652946472168e+00 1.331724047660827637e+00
-9.060035705566406250e+00 1.797889828681945801e+00 1.021373152732849121e+00
-1.061303520202636719e+01 2.121476173400878906e+00 1.322278659790754318e-02
-1.057337474822998047e+01 2.181101799011230469e+00 1.318979915231466293e-02
-1.058228874206542969e+01 2.250722408294677734e+00 1.321789901703596115e-02
-1.055948829650878906e+01 2.313685655593872070e+00 1.320690382272005081e-02
-1.056167697906494141e+01 2.382174253463745117e+00 1.322767324745655060e-02
-1.054588699340820312e+01 2.446708440780639648e+00 1.322645135223865509e-02
-1.041589450836181641e+01 2.483997583389282227e+00 1.308228727430105209e-02
-1.430982589721679688e+01 5.181497097015380859e+00 3.268235445022583008e+00
-1.495039558410644531e+01 4.240401268005371094e+00 1.654542684555053711e-01
-1.040531349182128906e+01 2.549051284790039062e+00 1.308839581906795502e-02
-1.429152107238769531e+01 5.274280548095703125e+00 3.271384716033935547e+00
-1.054173564910888672e+01 2.651140928268432617e+00 1.328020822256803513e-02
-1.497453498840332031e+01 5.630980968475341797e+00 3.435573339462280273e+00
-1.425089740753173828e+01 5.361705780029296875e+00 2.690263271331787109e+00
-1.013214588165283203e+01 2.614338159561157227e+00 1.278418581932783127e-02
-1.468314361572265625e+01 5.624480724334716797e+00 3.376574754714965820e+00
-1.486215686798095703e+01 4.512546539306640625e+00 1.653691083192825317e-01
-1.015361595153808594e+01 2.686434030532836914e+00 1.283183228224515915e-02
-1.467841529846191406e+01 5.726195335388183594e+00 3.383503437042236328e+00
-1.476351737976074219e+01 4.581721782684326172e+00 1.645812690258026123e-01
-1.041683387756347656e+01 2.824579238891601562e+00 1.318613439798355103e-02
-1.452124309539794922e+01 5.767789840698242188e+00 3.355368614196777344e+00
-1.479136371612548828e+01 4.690054893493652344e+00 1.652093976736068726e-01
-1.033282470703125000e+01 2.869976758956909180e+00 1.310183573514223099e-02
-1.475564861297607422e+01 4.778568267822265625e+00 1.651348769664764404e-01
-1.031790447235107422e+01 2.934144020080566406e+00 1.310549955815076828e-02
-1.492441558837890625e+01 6.144069194793701172e+00 4.098944664001464844e+00
-1.459385204315185547e+01 5.388568401336669922e+00 3.182056427001953125e+00
-1.494843482971191406e+01 6.153956890106201172e+00 2.856251478195190430e+00
-1.461781883239746094e+01 4.833231449127197266e+00 1.639211922883987427e-01
-1.029394626617431641e+01 2.995721817016601562e+00 1.309817004948854446e-02
-1.495824146270751953e+01 6.262536525726318359e+00 3.482394456863403320e+00
-1.495944213867187500e+01 6.266108036041259766e+00 2.865647315979003906e+00
-1.451209163665771484e+01 4.897255420684814453e+00 1.630694866180419922e-01
-1.022649097442626953e+01 3.044276952743530273e+00 1.303586084395647049e-02
-1.484789466857910156e+01 6.326751708984375000e+00 4.098944664001464844e+00
-1.447631072998046875e+01 5.547968387603759766e+00 3.171034812927246094e+00
-1.456377315521240234e+01 6.205686569213867188e+00 2.797094345092773438e+00
-6.224477767944335938e+00 2.659981966018676758e+00 2.008998095989227295e-01
-1.444962406158447266e+01 4.975140094757080078e+00 1.627075225114822388e-01
-1.017509269714355469e+01 3.097068071365356445e+00 1.299432292580604553e-02
-1.477785778045654297e+01 5.767775058746337891e+00 3.244779825210571289e+00
-6.241041183471679688e+00 2.712467670440673828e+00 2.019677907228469849e-01
-1.447543144226074219e+01 5.083587169647216797e+00 1.633462905883789062e-01
-1.015971660614013672e+01 3.160630941390991211e+00 1.299920957535505295e-02
-1.441292762756347656e+01 5.127164363861083984e+00 2.401030540466308594e+00
-1.449950981140136719e+01 5.192200660705566406e+00 1.639744341373443604e-01
-1.013060188293457031e+01 3.219881296157836914e+00 1.298699155449867249e-02
-1.468315124511718750e+01 6.575396537780761719e+00 3.454889535903930664e+00
-1.469234085083007812e+01 5.943176746368408203e+00 3.241773843765258789e+00
-1.438305377960205078e+01 5.216177463531494141e+00 2.401340484619140625e+00
-1.438283920288085938e+01 5.250210762023925781e+00 1.630162596702575684e-01
-1.011350822448730469e+01 3.282907247543334961e+00 1.299065724015235901e-02
-1.493529033660888672e+01 6.798634052276611328e+00 3.523966312408447266e+00
-1.473713397979736328e+01 6.066781044006347656e+00 3.259809255599975586e+00
-1.497236347198486328e+01 6.169729709625244141e+00 2.698282241821289062e+00
-1.299748134613037109e+01 5.935712337493896484e+00 4.240790009498596191e-01
-1.415541744232177734e+01 5.265846729278564453e+00 1.608018428087234497e-01
-1.008558082580566406e+01 3.342384338378906250e+00 1.298088394105434418e-02
-1.497101211547851562e+01 6.264620780944824219e+00 3.947174310684204102e+00
-1.430919265747070312e+01 5.374731063842773438e+00 3.562628269195556641e+00
-1.467794322967529297e+01 6.148007869720458984e+00 3.254999637603759766e+00
-1.443444919586181641e+01 5.436157703399658203e+00 2.420877695083618164e+00
-1.411816501617431641e+01 5.350831508636474609e+00 1.607486009597778320e-01
-1.012929821014404297e+01 3.425992012023925781e+00 1.306396164000034332e-02
-1.440832901000976562e+01 6.773423194885253906e+00 3.418986558914184570e+00
-1.483552837371826172e+01 6.321291446685791016e+00 3.298485517501831055e+00
-1.437776279449462891e+01 5.515777111053466797e+00 2.417001008987426758e+00
-1.444128227233886719e+01 4.952365398406982422e+00 2.251688957214355469e+00
-6.151504039764404297e+00 2.633798122406005859e+00 1.354960203170776367e-01
-1.409439563751220703e+01 5.440959453582763672e+00 1.608550697565078735e-01
-9.952111244201660156e+00 3.434256553649902344e+00 1.286237593740224838e-02
-1.438316440582275391e+01 6.875831127166748047e+00 4.698080539703369141e+00
-1.471734428405761719e+01 6.371813774108886719e+00 3.900617122650146484e+00
-1.431797313690185547e+01 6.838527679443359375e+00 3.407438516616821289e+00
-1.451019954681396484e+01 5.668963432312011719e+00 2.445066213607788086e+00
-1.444797611236572266e+01 5.053947925567626953e+00 2.257525444030761719e+00
-6.177393913269042969e+00 2.689854145050048828e+00 1.364272683858871460e-01
-1.398629474639892578e+01 5.498072147369384766e+00 1.600033491849899292e-01
-9.996881484985351562e+00 3.518496513366699219e+00 1.294789742678403854e-02
-1.425727081298828125e+01 6.917289733886718750e+00 3.403029441833496094e+00
-1.491731643676757812e+01 6.573587417602539062e+00 3.334355831146240234e+00
-1.468259906768798828e+01 5.840411186218261719e+00 2.480108737945556641e+00
-6.168086528778076172e+00 2.730945348739624023e+00 1.365892142057418823e-01
-1.392723083496093750e+01 5.573755741119384766e+00 1.597159057855606079e-01
-9.980751037597656250e+00 3.581796407699584961e+00 1.295522693544626236e-02
-1.443228721618652344e+01 6.459841728210449219e+00 3.845788717269897461e+00
-1.458197975158691406e+01 5.276624202728271484e+00 3.466296195983886719e+00
-1.493481731414794922e+01 6.691031455993652344e+00 3.347381353378295898e+00
-1.464715862274169922e+01 5.927688598632812500e+00 3.077159404754638672e+00
-1.392795944213867188e+01 5.673440933227539062e+00 1.601204723119735718e-01
-9.899419784545898438e+00 3.621326446533203125e+00 1.287825778126716614e-02
-1.460597229003906250e+01 6.015581130981445312e+00 3.076203346252441406e+00
-1.297827339172363281e+01 5.937722206115722656e+00 2.889893352985382080e-01
-1.373307991027832031e+01 5.692553043365478516e+00 1.582786589860916138e-01
-9.853589057922363281e+00 3.673267602920532227e+00 1.284771505743265152e-02
-1.293524932861328125e+01 6.014293193817138672e+00 2.888476252555847168e-01
-1.372276973724365234e+01 5.787201881408691406e+00 1.585661172866821289e-01
-9.803753852844238281e+00 3.723362445831298828e+00 1.281228475272655487e-02
-1.332850742340087891e+01 6.881657123565673828e+00 4.420492172241210938e+00
-1.474713420867919922e+01 6.929358005523681641e+00 3.963008165359497070e+00
-1.451777458190917969e+01 6.176732540130615234e+00 3.677258729934692383e+00
-1.413331222534179688e+01 5.410505294799804688e+00 3.382747411727905273e+00
-1.486785030364990234e+01 6.337937831878662109e+00 3.147503137588500977e+00
-1.297569370269775391e+01 6.696627616882324219e+00 2.579952478408813477e+00
-6.162550926208496094e+00 2.643540859222412109e+00 7.139413803815841675e-02
-9.756474494934082031e+00 3.774066925048828125e+00 1.278052013367414474e-02
-1.305409049987792969e+01 6.841748237609863281e+00 4.343321800231933594e+00
-1.469388484954833984e+01 6.349289417266845703e+00 4.367008209228515625e+00
-1.477276802062988281e+01 6.392556190490722656e+00 3.751711845397949219e+00
-1.414909076690673828e+01 6.760709762573242188e+00 3.207506418228149414e+00
-6.176459789276123047e+00 2.694498300552368164e+00 7.174547016620635986e-02
-9.672656059265136719e+00 3.810038805007934570e+00 1.270110812038183212e-02
-1.473950576782226562e+01 6.485825538635253906e+00 3.753300666809082031e+00
-1.436246299743652344e+01 5.701276779174804688e+00 3.454080104827880859e+00
-1.496858406066894531e+01 6.599103927612304688e+00 3.185733318328857422e+00
-9.660234451293945312e+00 3.873783588409423828e+00 1.271576900035142899e-02
-1.425441455841064453e+01 5.745415687561035156e+00 4.040515422821044922e+00
-1.466120624542236328e+01 6.559041976928710938e+00 3.743540287017822266e+00
-1.487011241912841797e+01 6.008670330047607422e+00 3.584965944290161133e+00
-1.467790985107421875e+01 6.578816890716552734e+00 3.132401943206787109e+00
-1.256771469116210938e+01 6.781878948211669922e+00 2.523231029510498047e+00
-1.341162109375000000e+01 6.047831535339355469e+00 1.566391289234161377e-01
-9.773308753967285156e+00 3.988911151885986328e+00 1.289658434689044952e-02
-1.490787887573242188e+01 6.130605697631835938e+00 3.603071928024291992e+00
-1.244726467132568359e+01 6.815825462341308594e+00 2.507397651672363281e+00
-1.295338916778564453e+01 5.937106132507324219e+00 1.517098844051361084e-01
-9.756960868835449219e+00 4.052255630493164062e+00 1.290757954120635986e-02
-1.491731643676757812e+01 6.894545078277587891e+00 3.830250978469848633e+00
-1.490419197082519531e+01 6.236278057098388672e+00 3.611361503601074219e+00
-1.253657054901123047e+01 6.962190628051757812e+00 3.079481363296508789e+00
-1.458538246154785156e+01 6.753492355346679688e+00 3.130108118057250977e+00
-1.477326011657714844e+01 6.196647644042968750e+00 2.963389635086059570e+00
-1.257823371887207031e+01 6.988200664520263672e+00 2.542370080947875977e+00
-1.281972694396972656e+01 5.971298217773437500e+00 1.505707353353500366e-01
-9.687698364257812500e+00 4.093364715576171875e+00 1.284893602132797241e-02
-1.291143512725830078e+01 6.651875495910644531e+00 4.115412712097167969e+00
-1.442287921905517578e+01 6.786027431488037109e+00 3.104111433029174805e+00
-1.482449722290039062e+01 6.325382232666015625e+00 2.981396675109863281e+00
-1.318595409393310547e+01 6.240628242492675781e+00 1.553189903497695923e-01
-6.246520519256591797e+00 2.684645175933837891e+00 8.306543342769145966e-03
-1.309204483032226562e+01 6.846901893615722656e+00 4.186293125152587891e+00
-1.487741470336914062e+01 6.456151962280273438e+00 2.999949693679809570e+00
-1.265326309204101562e+01 6.634310722351074219e+00 2.380576133728027344e+00
-1.328709697723388672e+01 6.388579845428466797e+00 1.569691598415374756e-01
-6.217102050781250000e+00 2.717315673828125000e+00 8.289439603686332703e-03
-1.309312725067138672e+01 6.950110435485839844e+00 4.200196743011474609e+00
-1.431080436706542969e+01 6.299979209899902344e+00 3.495091199874877930e+00
-1.492118549346923828e+01 6.584235191345214844e+00 3.016865730285644531e+00
-1.309310340881347656e+01 6.394510269165039062e+00 1.551380008459091187e-01
-6.194828510284423828e+00 2.752975463867187500e+00 8.282109163701534271e-03
-1.312618160247802734e+01 6.510718345642089844e+00 1.560003459453582764e-01
-9.012928009033203125e+00 4.071742057800292969e+00 1.208291202783584595e-02
-1.385036373138427734e+01 6.924694538116455078e+00 3.609161376953125000e+00
-1.298328399658203125e+01 6.539407730102539062e+00 1.547760218381881714e-01
-9.200428009033203125e+00 4.224613189697265625e+00 1.236879732459783554e-02
-1.461317729949951172e+01 6.756878852844238281e+00 3.598709344863891602e+00
-1.241897678375244141e+01 6.899543762207031250e+00 2.905913352966308594e+00
-1.292332839965820312e+01 6.608932495117187500e+00 1.545418053865432739e-01
-9.405413627624511719e+00 4.388814449310302734e+00 1.268033869564533234e-02
-1.472248268127441406e+01 6.917382717132568359e+00 3.636011838912963867e+00
-1.235763168334960938e+01 6.965032577514648438e+00 2.901504993438720703e+00
-1.263492870330810547e+01 6.559557437896728516e+00 1.515714824199676514e-01
-9.458725929260253906e+00 4.484570503234863281e+00 1.278907153755426407e-02
-1.437821292877197266e+01 6.848239421844482422e+00 4.186971664428710938e+00
-1.285452270507812500e+01 6.774016857147216797e+00 1.547015011310577393e-01
-9.464365959167480469e+00 4.558579444885253906e+00 1.283427514135837555e-02
-1.273688507080078125e+01 6.812205314636230469e+00 1.537859141826629639e-01
-9.403880119323730469e+00 4.600745677947998047e+00 1.279029436409473419e-02
-1.240940856933593750e+01 6.698899745941162109e+00 2.746275663375854492e+00
-1.267463397979736328e+01 6.879258632659912109e+00 1.535410583019256592e-01
-9.388010978698730469e+00 4.664589405059814453e+00 1.280739810317754745e-02
-1.239734077453613281e+01 6.790949821472167969e+00 2.752774953842163086e+00
-1.249554443359375000e+01 6.881647586822509766e+00 1.518802344799041748e-01
-8.773536682128906250e+00 4.426608085632324219e+00 1.200594287365674973e-02
-1.251072883605957031e+01 6.953197479248046875e+00 2.787373304367065430e+00
-1.237364864349365234e+01 6.913804531097412109e+00 1.509114205837249756e-01
-8.833431243896484375e+00 4.525038242340087891e+00 1.212567184120416641e-02
-1.235667705535888672e+01 6.967159271240234375e+00 2.762523651123046875e+00
-1.274210834503173828e+01 6.595273971557617188e+00 2.116137981414794922e+00
-1.208654880523681641e+01 6.851038455963134766e+00 1.479198038578033447e-01
-9.061902046203613281e+00 4.712491989135742188e+00 1.247875299304723740e-02
-1.206248760223388672e+01 6.935537815093994141e+00 1.481433808803558350e-01
-9.231796264648437500e+00 4.873038291931152344e+00 1.275364123284816742e-02
-9.148834228515625000e+00 4.901257991790771484e+00 1.268033869564533234e-02
-9.115952491760253906e+00 4.955869197845458984e+00 1.267667300999164581e-02
-9.088873863220214844e+00 5.013642311096191406e+00 1.268155965954065323e-02
-1.257030773162841797e+01 6.991874694824218750e+00 2.660720586776733398e+00
-9.071029663085937500e+00 5.076641559600830078e+00 1.269988529384136200e-02
-9.064058303833007812e+00 5.146028995513916016e+00 1.273409370332956314e-02
-8.954320907592773438e+00 5.156633853912353516e+00 1.262413803488016129e-02
-8.923375129699707031e+00 5.211984157562255859e+00 1.262535993009805679e-02
-8.910156250000000000e+00 5.277851104736328125e+00 1.265223883092403412e-02
-8.889605522155761719e+00 5.339632034301757812e+00 1.266934257000684738e-02
-8.854112625122070312e+00 5.392516613006591797e+00 1.266567781567573547e-02
-8.822559356689453125e+00 5.447793483734130859e+00 1.266812067478895187e-02
-8.363934516906738281e+00 6.595074176788330078e+00 3.161235153675079346e-01
-8.623681068420410156e+00 5.398357868194580078e+00 1.242988370358943939e-02
-8.752509117126464844e+00 5.554042339324951172e+00 1.266445498913526535e-02
-8.724993705749511719e+00 5.611969947814941406e+00 1.267422921955585480e-02
-8.694583892822265625e+00 5.668130874633789062e+00 1.268033869564533234e-02
-8.659641265869140625e+00 5.721373081207275391e+00 1.268033869564533234e-02
-8.258756637573242188e+00 5.529603481292724609e+00 1.214277651160955429e-02
-8.366075515747070312e+00 6.606091499328613281e+00 2.158461958169937134e-01
-8.352937698364257812e+00 5.667198181152343750e+00 1.233214512467384338e-02
-8.294150352478027344e+00 6.632324695587158203e+00 2.150364220142364502e-01
-8.284220695495605469e+00 5.695116996765136719e+00 1.228205393999814987e-02
-8.540420532226562500e+00 5.948743343353271484e+00 1.271576900035142899e-02
-8.306034088134765625e+00 5.861501693725585938e+00 1.242010947316884995e-02
-8.277234077453613281e+00 5.917590618133544922e+00 1.243110466748476028e-02
-7.606613636016845703e+00 5.508989334106445312e+00 1.147449016571044922e-02
-8.347086906433105469e+00 6.600414752960205078e+00 1.132980063557624817e-01
-7.862932682037353516e+00 5.768506526947021484e+00 1.191431377083063126e-02
-8.295502662658691406e+00 6.642756938934326172e+00 1.131489574909210205e-01
-8.273659706115722656e+00 6.148273468017578125e+00 1.259359531104564667e-02
-8.101552009582519531e+00 6.097893714904785156e+00 1.238834392279386520e-02
-7.767349720001220703e+00 5.921353816986083984e+00 1.193263847380876541e-02
-7.908965110778808594e+00 6.106406211853027344e+00 1.220752857625484467e-02
-7.875287055969238281e+00 6.157899856567382812e+00 1.221363712102174759e-02
-7.843626022338867188e+00 6.211071491241455078e+00 1.222341042011976242e-02
-7.735935211181640625e+00 6.203404426574707031e+00 1.211467664688825607e-02
-7.542467594146728516e+00 6.124680519104003906e+00 1.187033113092184067e-02
-7.509379386901855469e+00 6.174655437469482422e+00 1.187766063958406448e-02
-7.724955558776855469e+00 6.431766033172607422e+00 1.228083204478025436e-02
-7.419279575347900391e+00 6.254740238189697266e+00 1.185567025095224380e-02
-7.627953052520751953e+00 6.511146545410156250e+00 1.225273218005895615e-02
-7.459993839263916016e+00 6.447321891784667969e+00 1.204625982791185379e-02
-7.393953800201416016e+00 6.469925880432128906e+00 1.200350001454353333e-02
-7.649029254913330078e+00 6.776442527770996094e+00 1.248486153781414032e-02
-2.817680597305297852e+00 3.140356302261352539e+00 1.252212226390838623e-01
-7.199358940124511719e+00 6.457347869873046875e+00 1.181535329669713974e-02
-2.786425352096557617e+00 3.144120931625366211e+00 1.246872246265411377e-01
-7.146276473999023438e+00 6.489300251007080078e+00 1.179336197674274445e-02
-2.740746498107910156e+00 3.131074190139770508e+00 1.235005781054496765e-01
-7.107796669006347656e+00 6.534380435943603516e+00 1.179580576717853546e-02
-7.245447635650634766e+00 6.743423938751220703e+00 1.209268625825643539e-02
-7.091850280761718750e+00 6.682145118713378906e+00 1.190453954041004181e-02
-7.149124622344970703e+00 6.819404125213623047e+00 1.207069400697946548e-02
-1.675380468368530273e+00 2.011523246765136719e+00 7.769589871168136597e-02
-2.789496898651123047e+00 3.113246679306030273e+00 8.464199304580688477e-02
-7.120814323425292969e+00 6.876340389251708984e+00 1.209390722215175629e-02
-1.653481721878051758e+00 2.010185718536376953e+00 7.725090533494949341e-02
-2.753114223480224609e+00 3.110837936401367188e+00 8.411563932895660400e-02
-1.661283731460571289e+00 2.045120477676391602e+00 7.820022106170654297e-02
-2.724762916564941406e+00 3.117133855819702148e+00 8.383221924304962158e-02
-1.644325613975524902e+00 2.049817562103271484e+00 7.799255847930908203e-02
-1.646613001823425293e+00 2.078672885894775391e+00 7.870455086231231689e-02
-1.624589800834655762e+00 2.076927423477172852e+00 7.825955003499984741e-02
-2.827646255493164062e+00 3.121434450149536133e+00 4.484225064516067505e-02
-1.660965681076049805e+00 1.997005581855773926e+00 5.259504541754722595e-02
-2.785769701004028320e+00 3.113389253616333008e+00 4.448027163743972778e-02
-1.698451876640319824e+00 2.066281318664550781e+00 1.509463340044021606e-01
-1.665180563926696777e+00 2.027246475219726562e+00 5.312140285968780518e-02
-2.734166860580444336e+00 3.093709945678710938e+00 4.395860433578491211e-02
-1.682595133781433105e+00 2.072788000106811523e+00 1.506646126508712769e-01
-1.650820732116699219e+00 2.035096406936645508e+00 5.306066945195198059e-02
-2.717763185501098633e+00 3.113441705703735352e+00 4.400119185447692871e-02
-1.677963256835937500e+00 2.093200206756591797e+00 1.513970792293548584e-01
-1.622050762176513672e+00 2.024899244308471680e+00 5.253431200981140137e-02
-1.613654375076293945e+00 2.038481950759887695e+00 1.467205137014389038e-01
-1.607114553451538086e+00 2.031677246093750000e+00 5.245333537459373474e-02
-1.626006007194519043e+00 2.081684112548828125e+00 5.348580330610275269e-02
-2.813582897186279297e+00 3.110203027725219727e+00 5.123936571180820465e-03
-2.793571710586547852e+00 3.124234199523925781e+00 1.573411673307418823e-01
-1.670061230659484863e+00 2.010750532150268555e+00 2.782944776117801666e-02
-2.797111272811889648e+00 3.130391120910644531e+00 5.128823686391115189e-03
-1.703290820121765137e+00 2.074335098266601562e+00 1.261065900325775146e-01
-2.811393260955810547e+00 3.183260202407836914e+00 1.594420373439788818e-01
-1.676716804504394531e+00 2.044153690338134766e+00 2.814883738756179810e-02
-2.769248723983764648e+00 3.137748241424560547e+00 5.112941376864910126e-03
-1.690530896186828613e+00 2.084747314453125000e+00 1.261065900325775146e-01
-2.754365444183349609e+00 3.157527208328247070e+00 1.573036462068557739e-01
-1.669807314872741699e+00 2.061396598815917969e+00 2.824465371668338776e-02
-2.733516454696655273e+00 3.135835647583007812e+00 5.082397721707820892e-03
-1.677707314491271973e+00 2.095081090927124023e+00 1.261065900325775146e-01
-1.617776036262512207e+00 2.022409677505493164e+00 2.757393755018711090e-02
-2.707699060440063477e+00 3.144970655441284180e+00 5.070180166512727737e-03
-1.672255635261535645e+00 2.114738225936889648e+00 1.266697794198989868e-01
-1.608435392379760742e+00 2.036221504211425781e+00 2.762716822326183319e-02
-1.671964406967163086e+00 2.015858888626098633e+00 3.199711674824357033e-03
-1.679374933242797852e+00 2.048806905746459961e+00 9.945431351661682129e-02
-1.663365840911865234e+00 2.030721426010131836e+00 3.207041881978511810e-03
-1.679975628852844238e+00 2.075383901596069336e+00 1.002421528100967407e-01
-1.636409521102905273e+00 2.023007392883300781e+00 3.178942250087857246e-03
-1.682808518409729004e+00 2.105166912078857422e+00 1.011800393462181091e-01
-1.614603877067565918e+00 2.021290302276611328e+00 3.160616150125861168e-03
-1.669240593910217285e+00 2.114668369293212891e+00 1.011425256729125977e-01
-1.608364224433898926e+00 2.039010524749755859e+00 3.172833472490310669e-03
-4.033329963684082031e+00 6.529323101043701172e+00 2.277774363756179810e-01
-1.634535431861877441e+00 2.098543167114257812e+00 3.249802393838763237e-03
-3.992670774459838867e+00 6.553094387054443359e+00 2.277477681636810303e-01
-4.005122184753417969e+00 6.493635177612304688e+00 1.544853001832962036e-01
-3.970398426055908203e+00 6.526629447937011719e+00 1.546877473592758179e-01
-4.004397869110107422e+00 6.502458095550537109e+00 8.130585402250289917e-02
-3.969615221023559570e+00 6.535452842712402344e+00 8.141231536865234375e-02
-3.900663852691650391e+00 6.511649608612060547e+00 8.081612735986709595e-02
-3.993866682052612305e+00 6.495350360870361328e+00 9.315692819654941559e-03
-3.950825452804565430e+00 6.514603614807128906e+00 9.308362379670143127e-03
-3.910264968872070312e+00 6.537864685058593750e+00 9.307141415774822235e-03
-9.859021008014678955e-02 7.273066639900207520e-01 7.814389653503894806e-03
-9.916501492261886597e-02 7.353431582450866699e-01 9.065238409675657749e-04
-2.298223599791526794e-02 7.384910583496093750e-01 1.496063917875289917e-02
-4.318677634000778198e-02 6.998953223228454590e-01 3.294634446501731873e-02
-2.610545419156551361e-02 6.970869898796081543e-01 5.820925161242485046e-02
