-8.627992123365402222e-03 -7.507558465003967285e-01 4.237090051174163818e-02
-8.351109921932220459e-03 -7.164611220359802246e-01 5.978921800851821899e-02
-6.452721357345581055e-02 -7.077516317367553711e-01 2.109269984066486359e-02
-5.351875722408294678e-02 -7.368748188018798828e-01 6.866792589426040649e-02
-4.204424470663070679e-02 -6.913155913352966309e-01 5.779347196221351624e-02
-5.489533767104148865e-02 -6.890542507171630859e-01 3.247702121734619141e-02
-9.037090837955474854e-02 -7.353156805038452148e-01 1.500112842768430710e-02
-9.449687600135803223e-02 -7.317726016044616699e-01 1.494039501994848251e-02
-1.121223419904708862e-01 -7.272569537162780762e-01 1.489990670233964920e-02
-8.143668621778488159e-02 -6.315581202507019043e-01 5.313673242926597595e-02
-8.340165615081787109e-01 -2.251431465148925781e+00 7.125832140445709229e-02
-8.438487052917480469e-01 -2.236943721771240234e+00 1.575404703617095947e-01
-8.266376256942749023e-01 -2.190161466598510742e+00 6.947834044694900513e-02
-8.618534207344055176e-01 -2.242901086807250977e+00 1.583294868469238281e-01
-8.357563614845275879e-01 -2.173852443695068359e+00 6.912235170602798462e-02
-8.701450824737548828e-01 -2.223632335662841797e+00 1.573432087898254395e-01
-8.494434952735900879e-01 -2.169614076614379883e+00 6.915201991796493530e-02
-8.804487586021423340e-01 -2.209908485412597656e+00 1.567514389753341675e-01
-8.716228008270263672e-01 -2.186645269393920898e+00 6.986400485038757324e-02
-8.745008707046508789e-01 -2.155321836471557617e+00 6.903335452079772949e-02
-8.031100034713745117e-01 -2.204805374145507812e+00 4.751369357109069824e-02
-8.348601460456848145e-01 -2.251371145248413086e+00 1.355080008506774902e-01
-8.922870159149169922e-01 -2.161002397537231445e+00 6.938935071229934692e-02
-8.253219127655029297e-01 -2.223268508911132812e+00 4.801980778574943542e-02
-8.398367166519165039e-01 -2.222856760025024414e+00 1.340993940830230713e-01
-8.322280049324035645e-01 -2.200394868850708008e+00 4.763516038656234741e-02
-8.531015515327453613e-01 -2.216730117797851562e+00 1.340430527925491333e-01
-8.435571789741516113e-01 -2.189649105072021484e+00 4.751369357109069824e-02
-8.655941486358642578e-01 -2.208665132522583008e+00 1.338740140199661255e-01
-8.584372997283935547e-01 -2.188154935836791992e+00 4.759467020630836487e-02
-8.802400231361389160e-01 -2.206094264984130859e+00 1.340430527925491333e-01
-8.737016320228576660e-01 -2.187488794326782227e+00 4.769589379429817200e-02
-8.818358778953552246e-01 -2.169120073318481445e+00 4.741246998310089111e-02
-8.098875880241394043e-01 -2.218669652938842773e+00 2.514657936990261078e-02
-8.322483897209167480e-01 -2.240803241729736328e+00 1.123085469007492065e-01
-8.997152447700500488e-01 -2.174754619598388672e+00 4.765540361404418945e-02
-8.297613263130187988e-01 -2.230527877807617188e+00 2.533821202814579010e-02
-8.396185636520385742e-01 -2.218837976455688477e+00 1.114637628197669983e-01
-8.381161689758300781e-01 -2.211368799209594727e+00 2.517851628363132477e-02
-8.499841094017028809e-01 -2.205255985260009766e+00 1.110413819551467896e-01
-8.538298010826110840e-01 -2.211781740188598633e+00 2.524239569902420044e-02
-8.675138354301452637e-01 -2.210227251052856445e+00 1.115576326847076416e-01
-8.640925288200378418e-01 -2.198125839233398438e+00 2.514657936990261078e-02
-8.721633553504943848e-01 -2.182600736618041992e+00 1.104312613606452942e-01
-8.775637149810791016e-01 -2.192782402038574219e+00 2.514657936990261078e-02
-8.334354758262634277e-01 -2.280783891677856445e+00 9.116332978010177612e-02
-8.962829709053039551e-01 -2.200321197509765625e+00 2.529562823474407196e-02
-8.166106343269348145e-01 -2.232323408126831055e+00 2.904052846133708954e-03
-8.404397964477539062e-01 -2.256897687911987305e+00 9.041301906108856201e-02
-9.070867300033569336e-01 -2.188314199447631836e+00 2.522110380232334137e-02
-8.306418657302856445e-01 -2.228207826614379883e+00 2.905274275690317154e-03
-8.464227914810180664e-01 -2.234536170959472656e+00 1.767298877239227295e-01
-8.319404721260070801e-01 -2.192836523056030273e+00 8.804952353239059448e-02
-8.510441184043884277e-01 -2.240831136703491211e+00 2.928487258031964302e-03
-8.687332272529602051e-01 -2.251630783081054688e+00 1.785001307725906372e-01
-8.500623703002929688e-01 -2.199808120727539062e+00 8.853723108768463135e-02
-8.568404912948608398e-01 -2.215048789978027344e+00 2.901609055697917938e-03
-8.810738921165466309e-01 -2.242545127868652344e+00 1.782050877809524536e-01
-8.672032356262207031e-01 -2.203849792480468750e+00 8.891239017248153687e-02
-8.656513690948486328e-01 -2.197654247283935547e+00 2.885726979002356529e-03
-8.769933581352233887e-01 -2.189210891723632812e+00 8.853723108768463135e-02
-8.783751726150512695e-01 -2.190444946289062500e+00 2.883283421397209167e-03
-8.951999545097351074e-01 -2.193346977233886719e+00 2.894279081374406815e-03
-5.321715831756591797e+00 -6.892640590667724609e+00 1.063882652670145035e-02
-6.797197818756103516e+00 -6.868153572082519531e+00 1.180557906627655029e-02
-7.076795101165771484e+00 -6.977297782897949219e+00 1.214155554771423340e-02
-6.971897602081298828e+00 -6.790017604827880859e+00 1.188987866044044495e-02
-7.265580654144287109e+00 -6.820001125335693359e+00 1.217454113066196442e-02
-7.301424980163574219e+00 -6.769853115081787109e+00 1.216476783156394958e-02
-7.140763759613037109e+00 -6.539866447448730469e+00 1.183001417666673660e-02
-7.363928318023681641e+00 -6.661630153656005859e+00 1.213178131729364395e-02
-7.433001041412353516e+00 -6.641640186309814453e+00 1.217820681631565094e-02
-7.864464759826660156e+00 -6.855474948883056641e+00 1.274631172418594360e-02
-6.662791252136230469e+00 -5.736407756805419922e+00 1.074145268648862839e-02
-6.341334819793701172e+00 -5.392249107360839844e+00 1.016968209296464920e-02
-8.129455566406250000e+00 -6.827242851257324219e+00 1.296988781541585922e-02
-6.812664031982421875e+00 -5.650461196899414062e+00 1.081353425979614258e-02
-7.544227123260498047e+00 -6.179483413696289062e+00 1.191431377083063126e-02
-6.798299789428710938e+00 -5.499140739440917969e+00 1.068280916661024094e-02
-7.366341114044189453e+00 -5.884222984313964844e+00 1.151847280561923981e-02
-7.769753456115722656e+00 -6.128753662109375000e+00 1.209024246782064438e-02
-8.072291374206542969e+00 -6.287431240081787109e+00 1.250074338167905807e-02
-7.588341236114501953e+00 -5.836033344268798828e+00 1.169562432914972305e-02
-7.517288684844970703e+00 -5.708323955535888672e+00 1.153191085904836655e-02
-6.976898670196533203e+00 -5.230791091918945312e+00 1.065348740667104721e-02
-7.652682304382324219e+00 -5.664431095123291016e+00 1.163209415972232819e-02
-7.710708618164062500e+00 -5.634478092193603516e+00 1.166752353310585022e-02
-7.688365459442138672e+00 -5.546107769012451172e+00 1.158200297504663467e-02
-7.600063800811767578e+00 -5.411821842193603516e+00 1.139874383807182312e-02
-7.625763416290283203e+00 -5.359910964965820312e+00 1.138774678111076355e-02
-7.547586917877197266e+00 -5.236069202423095703e+00 1.122281420975923538e-02
-8.014411926269531250e+00 -5.487389564514160156e+00 1.186666544526815414e-02
-8.057873725891113281e+00 -5.444829463958740234e+00 1.188132632523775101e-02
-7.911420345306396484e+00 -5.275451183319091797e+00 1.161743327975273132e-02
-7.896024227142333984e+00 -5.195477008819580078e+00 1.154779456555843353e-02
-7.897559642791748047e+00 -5.127326965332031250e+00 1.150381192564964294e-02
-7.897715568542480469e+00 -5.058815002441406250e+00 1.145860832184553146e-02
-7.412094116210937500e+00 -4.683864116668701172e+00 1.071213092654943466e-02
-8.212088584899902344e+00 -5.119159698486328125e+00 1.182268280535936356e-02
-7.704124450683593750e+00 -4.737118721008300781e+00 1.104932837188243866e-02
-8.062238693237304688e+00 -4.889399528503417969e+00 1.151969470083713531e-02
-8.074065208435058594e+00 -4.829058647155761719e+00 1.149403769522905350e-02
-7.914047718048095703e+00 -4.667662620544433594e+00 1.122525800019502640e-02
-7.937352180480957031e+00 -4.615998744964599609e+00 1.121792662888765335e-02
-8.258746147155761719e+00 -4.735333442687988281e+00 1.163087226450443268e-02
-8.164898872375488281e+00 -4.615187168121337891e+00 1.145860832184553146e-02
-8.207914352416992188e+00 -4.573275566101074219e+00 1.147937774658203125e-02
-8.242832183837890625e+00 -4.526677131652832031e+00 1.148915104568004608e-02
-7.964400291442871094e+00 -4.310378074645996094e+00 1.106398925185203552e-02
-8.320702552795410156e+00 -4.437418937683105469e+00 1.152091566473245621e-02
-8.341576576232910156e+00 -4.383024692535400391e+00 1.151236426085233688e-02
-8.207571983337402344e+00 -4.248553276062011719e+00 1.129123102873563766e-02
-8.215668678283691406e+00 -4.189027786254882812e+00 1.126679591834545135e-02
-1.449119949340820312e+01 -6.632964134216308594e+00 1.696808487176895142e-01
-7.900737762451171875e+00 -3.967557907104492188e+00 1.080131717026233673e-02
-7.779719829559326172e+00 -3.847194671630859375e+00 1.060339715331792831e-02
-8.293180465698242188e+00 -4.037969589233398438e+00 1.126923877745866776e-02
-8.362889289855957031e+00 -4.008619785308837891e+00 1.133032608777284622e-02
-8.491333961486816406e+00 -4.006301879882812500e+00 1.147082541137933731e-02
-8.392404556274414062e+00 -3.896848678588867188e+00 1.130467001348733902e-02
-8.411609649658203125e+00 -3.843202590942382812e+00 1.129856053739786148e-02
-8.084789276123046875e+00 -3.634084463119506836e+00 1.082941703498363495e-02
-8.538621902465820312e+00 -3.775275230407714844e+00 1.140607334673404694e-02
-8.662502288818359375e+00 -3.766675472259521484e+00 1.154046319425106049e-02
-8.641316413879394531e+00 -3.694582700729370117e+00 1.148182060569524765e-02
-8.668432235717773438e+00 -3.643428325653076172e+00 1.148793008178472519e-02
-8.596352577209472656e+00 -3.551226615905761719e+00 1.136331260204315186e-02
-8.504940032958984375e+00 -3.452525377273559570e+00 1.121426187455654144e-02
-8.426575660705566406e+00 -3.360637664794921875e+00 1.108353678137063980e-02
-8.580186843872070312e+00 -3.361026763916015625e+00 1.125824358314275742e-02
-8.589447975158691406e+00 -3.304008245468139648e+00 1.124358270317316055e-02
-8.719949722290039062e+00 -3.292929410934448242e+00 1.138774678111076355e-02
-8.680917739868164062e+00 -3.217468261718750000e+00 1.131077855825424194e-02
-8.763462066650390625e+00 -3.187041521072387695e+00 1.139263436198234558e-02
-8.551155090332031250e+00 -3.050553560256958008e+00 1.109208911657333374e-02
-8.634840965270996094e+00 -3.020812273025512695e+00 1.117638871073722839e-02
-8.368494033813476562e+00 -2.870123147964477539e+00 1.080864667892456055e-02
-8.671260833740234375e+00 -2.914622068405151367e+00 1.117638871073722839e-02
-8.683281898498535156e+00 -2.859484434127807617e+00 1.116905733942985535e-02
-8.681630134582519531e+00 -2.800012111663818359e+00 1.114462316036224365e-02
-8.663364410400390625e+00 -2.735548734664916992e+00 1.109941862523555756e-02
-8.649413108825683594e+00 -2.672892093658447266e+00 1.106032356619834900e-02
-8.787216186523437500e+00 -2.656521320343017578e+00 1.121548376977443695e-02
-8.804310798645019531e+00 -2.602837562561035156e+00 1.121670566499233246e-02
-8.787451744079589844e+00 -2.539327383041381836e+00 1.117516588419675827e-02
-8.799017906188964844e+00 -2.484273910522460938e+00 1.117028016597032547e-02
-8.802527427673339844e+00 -2.427047729492187500e+00 1.115561928600072861e-02
-8.779593467712402344e+00 -2.362855195999145508e+00 1.110797096043825150e-02
-8.717516899108886719e+00 -2.288877964019775391e+00 1.101145427674055099e-02
-8.816647529602050781e+00 -2.257170438766479492e+00 1.111896708607673645e-02
-8.775026321411132812e+00 -2.189232349395751953e+00 1.104932837188243866e-02
-8.729019165039062500e+00 -2.120946168899536133e+00 1.097480300813913345e-02
-8.761330604553222656e+00 -2.071948766708374023e+00 1.099923718720674515e-02
-8.819683074951171875e+00 -2.028686761856079102e+00 1.105665788054466248e-02
-8.793905258178710938e+00 -1.966023206710815430e+00 1.100901141762733459e-02
-8.747168540954589844e+00 -1.899296402931213379e+00 1.093570701777935028e-02
-8.848680496215820312e+00 -1.864558339118957520e+00 1.104810647666454315e-02
-8.916781425476074219e+00 -1.821839332580566406e+00 1.111896708607673645e-02
-8.933677673339843750e+00 -1.768257498741149902e+00 1.112629752606153488e-02
-8.342307090759277344e+00 -1.598077297210693359e+00 1.037737634032964706e-02
-8.792463302612304688e+00 -1.628445982933044434e+00 1.092471182346343994e-02
-8.825915336608886719e+00 -1.578691601753234863e+00 1.095403358340263367e-02
-8.416624069213867188e+00 -1.452243447303771973e+00 1.043479796499013901e-02
-8.768666267395019531e+00 -1.457638621330261230e+00 1.085996069014072418e-02
-8.610565185546875000e+00 -1.377117991447448730e+00 1.065348740667104721e-02
-8.585247993469238281e+00 -1.319095253944396973e+00 1.061194948852062225e-02
-8.590211868286132812e+00 -1.265954971313476562e+00 1.060828380286693573e-02
-8.542367935180664062e+00 -1.205398082733154297e+00 1.053986698389053345e-02
-8.517889976501464844e+00 -1.148683667182922363e+00 1.050077099353075027e-02
-8.623960494995117188e+00 -1.109153509140014648e+00 1.062294468283653259e-02
-8.557151794433593750e+00 -1.047227859497070312e+00 1.053253654390573502e-02
-8.555470466613769531e+00 -9.937794804573059082e-01 1.052276324480772018e-02
-8.542520523071289062e+00 -9.391890168190002441e-01 1.049955002963542938e-02
-8.516293525695800781e+00 -8.834534883499145508e-01 1.046045403927564621e-02
-8.460842132568359375e+00 -8.252601027488708496e-01 1.038592867553234100e-02
-8.501597404479980469e+00 -7.766047716140747070e-01 1.042991131544113159e-02
-8.494245529174804688e+00 -7.234070301055908203e-01 1.041525043547153473e-02
-1.482763481140136719e+01 -6.334525346755981445e-01 1.580125093460083008e-01
-8.481576919555664062e+00 -6.699350476264953613e-01 1.039448101073503494e-02
-1.492617321014404297e+01 -5.459321141242980957e-01 1.590238958597183228e-01
-8.472562789916992188e+00 -6.169363856315612793e-01 1.037859916687011719e-02
-8.456233024597167969e+00 -5.636080503463745117e-01 1.035416405647993088e-02
-1.493974590301513672e+01 -3.629181683063507080e-01 1.591090708971023560e-01
-8.452544212341308594e+00 -5.112882852554321289e-01 1.034561172127723694e-02
-8.251822471618652344e+00 -4.483471810817718506e-01 1.009637769311666489e-02
-8.293374061584472656e+00 -3.995834290981292725e-01 1.014402601867914200e-02
-1.442193317413330078e+01 -8.479586243629455566e-02 1.535516977310180664e-01
-8.304660797119140625e+00 -3.490666747093200684e-01 1.015502121299505234e-02
-1.488215637207031250e+01 3.814969910308718681e-03 1.584489941596984863e-01
-8.337626457214355469e+00 -2.992154657840728760e-01 1.019289530813694000e-02
-1.465787029266357422e+01 9.369831532239913940e-02 1.560642272233963013e-01
-8.018447875976562500e+00 -2.385072410106658936e-01 9.800720028579235077e-03
-1.465802001953125000e+01 1.836480796337127686e-01 1.560748666524887085e-01
-8.034756660461425781e+00 -1.896564662456512451e-01 9.819046594202518463e-03
-1.403676033020019531e+01 2.620141208171844482e-01 1.494741588830947876e-01
-7.984776973724365234e+00 -1.394619196653366089e-01 9.756737388670444489e-03
-1.400789737701416016e+01 3.474676311016082764e-01 1.491867154836654663e-01
-8.181468963623046875e+00 -9.268591552972793579e-02 9.996196255087852478e-03
-1.483106040954589844e+01 4.589595198631286621e-01 1.579805612564086914e-01
-8.225883483886718750e+00 -4.271208867430686951e-02 1.004995312541723251e-02
-1.403955078125000000e+01 5.207111835479736328e-01 1.495806127786636353e-01
-8.136990547180175781e+00 7.677811197936534882e-03 9.941218420863151550e-03
-7.759799957275390625e+00 5.493635684251785278e-02 9.480626322329044342e-03
-8.095287322998046875e+00 1.069888174533843994e-01 9.891128167510032654e-03
-8.121473312377929688e+00 1.571809947490692139e-01 9.924114681780338287e-03
-8.117357254028320312e+00 2.069340199232101440e-01 9.920449927449226379e-03
-1.445693588256835938e+01 9.809805154800415039e-01 1.542756557464599609e-01
-8.196893692016601562e+00 2.592983245849609375e-01 1.001940947026014328e-02
-1.282518386840820312e+01 9.493480324745178223e-01 1.369221657514572144e-01
-8.005284309387207031e+00 3.024161458015441895e-01 9.787281043827533722e-03
-1.491128158569335938e+01 1.195804238319396973e+00 1.592687666416168213e-01
-7.926352500915527344e+00 3.481511175632476807e-01 9.693208150565624237e-03
-1.458885383605957031e+01 1.260084509849548340e+00 1.559045314788818359e-01
-7.894104003906250000e+00 3.952794373035430908e-01 9.656555950641632080e-03
-1.419551563262939453e+01 1.313910841941833496e+00 1.517844200134277344e-01
-7.559055805206298828e+00 4.250155985355377197e-01 9.249719791114330292e-03
-1.316123485565185547e+01 1.299675226211547852e+00 1.408080756664276123e-01
-7.738950252532958984e+00 4.827830791473388672e-01 9.473295882344245911e-03
-1.387102890014648438e+01 1.455762147903442383e+00 1.484947055578231812e-01
-7.752802371978759766e+00 5.314218997955322266e-01 9.494065307080745697e-03
-1.337287425994873047e+01 1.486494064331054688e+00 1.432567089796066284e-01
-7.666626453399658203e+00 5.727981925010681152e-01 9.392661973834037781e-03
-1.320857334136962891e+01 1.550336122512817383e+00 1.415958851575851440e-01
-7.597182273864746094e+00 6.145078539848327637e-01 9.312028065323829651e-03
-1.435197257995605469e+01 1.773882031440734863e+00 1.539669036865234375e-01
-7.511578083038330078e+00 6.539992690086364746e-01 9.211845695972442627e-03
-1.384004878997802734e+01 1.796894431114196777e+00 1.485905200242996216e-01
-7.714524745941162109e+00 7.193895578384399414e-01 9.465965442359447479e-03
-7.726882457733154297e+00 7.683937549591064453e-01 9.486734867095947266e-03
-7.767767429351806641e+00 8.206232786178588867e-01 9.542934596538543701e-03
-4.521521091461181641e+00 1.010032415390014648e+00 1.375030428171157837e-01
-1.384617042541503906e+01 2.057512998580932617e+00 1.490376591682434082e-01
-7.701964378356933594e+00 8.614892363548278809e-01 9.468409232795238495e-03
-4.510367870330810547e+00 1.036637425422668457e+00 1.373547166585922241e-01
-1.380660533905029297e+01 2.138300657272338867e+00 1.487502157688140869e-01
-7.696533203125000000e+00 9.087314009666442871e-01 9.468409232795238495e-03
-4.511704444885253906e+00 1.066131949424743652e+00 1.375920474529266357e-01
-7.693789482116699219e+00 9.563093185424804688e-01 9.472073987126350403e-03
-7.740330696105957031e+00 1.010359525680541992e+00 9.536826051771640778e-03
-1.411957073211669922e+01 2.453706502914428711e+00 1.525828838348388672e-01
-7.652742385864257812e+00 1.046722054481506348e+00 9.436644613742828369e-03
-4.569053173065185547e+00 9.945440888404846191e-01 9.468322992324829102e-02
-1.378244590759277344e+01 2.482336997985839844e+00 1.491015404462814331e-01
-7.576880931854248047e+00 1.083747148513793945e+00 9.351123124361038208e-03
-4.558962821960449219e+00 1.021686077117919922e+00 9.460225701332092285e-02
-1.444915866851806641e+01 2.694054841995239258e+00 1.564900726079940796e-01
-7.609650135040283203e+00 1.136124253273010254e+00 9.399992413818836212e-03
-4.520458221435546875e+00 1.042227745056152344e+00 9.393419325351715088e-02
-1.419769287109375000e+01 2.737417697906494141e+00 1.539456099271774292e-01
-7.565975666046142578e+00 1.177106738090515137e+00 9.354788810014724731e-03
-4.487711429595947266e+00 1.063719153404235840e+00 9.338758885860443115e-02
-1.417670536041259766e+01 2.823700189590454102e+00 1.539030224084854126e-01
-7.596122264862060547e+00 1.229580521583557129e+00 9.401214309036731720e-03
-4.486928462982177734e+00 1.092654585838317871e+00 9.350906312465667725e-02
-1.434227275848388672e+01 2.948285102844238281e+00 1.558938771486282349e-01
-7.525321006774902344e+00 1.265552401542663574e+00 9.323023259639739990e-03
-1.480421257019042969e+01 3.138041257858276367e+00 1.611212193965911865e-01
-7.453381538391113281e+00 1.300530076026916504e+00 9.243611246347427368e-03
-4.516292572021484375e+00 9.863109588623046875e-01 4.921787977218627930e-02
-7.428532600402832031e+00 1.343213796615600586e+00 9.222841821610927582e-03
-4.492325305938720703e+00 1.007524371147155762e+00 2.163101136684417725e-01
-4.520887374877929688e+00 1.016416668891906738e+00 4.933499172329902649e-02
-7.381816387176513672e+00 1.381594419479370117e+00 9.175193496048450470e-03
-4.520124912261962891e+00 1.042929887771606445e+00 2.179527282714843750e-01
-4.526256561279296875e+00 1.046841025352478027e+00 4.946274682879447937e-02
-7.521449565887451172e+00 1.455551624298095703e+00 9.359675459563732147e-03
-4.446577548980712891e+00 1.054737806320190430e+00 2.147144228219985962e-01
-4.511964797973632812e+00 1.072743415832519531e+00 4.937757179141044617e-02
-7.332927227020263672e+00 1.465804100036621094e+00 9.136098437011241913e-03
-4.504326343536376953e+00 1.100170850753784180e+00 4.936692863702774048e-02
-7.461887836456298828e+00 1.539256691932678223e+00 9.308362379670143127e-03
-1.328200244903564453e+01 3.330586910247802734e+00 1.457905322313308716e-01
-7.425893306732177734e+00 1.579396009445190430e+00 9.275375865399837494e-03
-4.526611328125000000e+00 9.918241500854492188e-01 5.661497823894023895e-03
-4.628753662109375000e+00 1.042312383651733398e+00 1.781248897314071655e-01
-1.460629844665527344e+01 3.853781700134277344e+00 1.608337610960006714e-01
-4.520440578460693359e+00 1.019580245018005371e+00 5.661497823894023895e-03
-4.548284053802490234e+00 1.053555965423583984e+00 1.752737015485763550e-01
-4.522866249084472656e+00 1.049331903457641602e+00 5.672493483871221542e-03
-4.541733741760253906e+00 1.081443905830383301e+00 1.752737015485763550e-01
-1.443841457366943359e+01 3.999632358551025391e+00 1.595136374235153198e-01
-4.538715362548828125e+00 1.082399487495422363e+00 5.700593348592519760e-03
-1.363534545898437500e+01 3.867411851882934570e+00 1.509007662534713745e-01
-4.533930778503417969e+00 1.110703945159912109e+00 5.703036673367023468e-03
-1.316961860656738281e+01 3.822778940200805664e+00 1.460034698247909546e-01
-7.209499835968017578e+00 1.813116908073425293e+00 9.082342498004436493e-03
-1.266662693023681641e+01 3.761195659637451172e+00 1.406803131103515625e-01
-7.156602382659912109e+00 1.846576213836669922e+00 9.029808454215526581e-03
-7.175106525421142578e+00 1.898382663726806641e+00 9.067681618034839630e-03
-7.057156562805175781e+00 1.913584947586059570e+00 8.933291770517826080e-03
-1.288120174407958984e+01 4.084379673004150391e+00 1.438742130994796753e-01
-7.049136638641357422e+00 1.957921385765075684e+00 8.938178420066833496e-03
-1.414301013946533203e+01 4.580166816711425781e+00 1.582786589860916138e-01
-6.994668006896972656e+00 1.989101886749267578e+00 8.884422481060028076e-03
-1.392950820922851562e+01 4.605648994445800781e+00 1.562026292085647583e-01
-6.767254352569580078e+00 1.969391584396362305e+00 8.610754273831844330e-03
-1.343484115600585938e+01 4.533726215362548828e+00 1.509646475315093994e-01
-6.947688579559326172e+00 2.068225383758544922e+00 8.856322616338729858e-03
-1.373768424987792969e+01 4.730012416839599609e+00 1.546908468008041382e-01
-6.905210494995117188e+00 2.101789712905883789e+00 8.818448521196842194e-03
-1.498018074035644531e+01 5.260848522186279297e+00 1.690420806407928467e-01
-6.930378437042236328e+00 2.156001806259155273e+00 8.867317810654640198e-03
-1.364377403259277344e+01 4.885766029357910156e+00 1.542969495058059692e-01
-6.915112972259521484e+00 2.197879552841186523e+00 8.864874951541423798e-03
-1.382864189147949219e+01 5.047910690307617188e+00 1.567349433898925781e-01
-6.877718448638916016e+00 2.232549905776977539e+00 8.834331296384334564e-03
-1.314699363708496094e+01 4.890710830688476562e+00 1.493464112281799316e-01
-6.659805297851562500e+00 2.207074403762817383e+00 8.571659214794635773e-03
-1.437436580657958984e+01 5.447932720184326172e+00 1.636656969785690308e-01
-6.830858230590820312e+00 2.310374021530151367e+00 8.809897117316722870e-03
-1.371099567413330078e+01 5.292952537536621094e+00 1.564794331789016724e-01
-6.801428318023681641e+00 2.347024440765380859e+00 8.790348656475543976e-03
-1.298029518127441406e+01 5.102609157562255859e+00 1.484947055578231812e-01
-6.678421974182128906e+00 2.350533723831176758e+00 8.649850264191627502e-03
-1.402099514007568359e+01 5.611280441284179688e+00 1.607911884784698486e-01
-6.730700969696044922e+00 2.415449619293212891e+00 8.736592717468738556e-03
-1.395388889312744141e+01 5.684003353118896484e+00 1.604185700416564941e-01
-6.665039539337158203e+00 2.438151359558105469e+00 8.670618757605552673e-03
-6.658387184143066406e+00 2.482145309448242188e+00 8.681614883244037628e-03
-1.283918285369873047e+01 5.414573192596435547e+00 1.483563035726547241e-01
-6.597224235534667969e+00 2.505556344985961914e+00 8.621750399470329285e-03
-1.343336868286132812e+01 5.762493610382080078e+00 1.556277275085449219e-01
-6.459548473358154297e+00 2.498727321624755859e+00 8.461703546345233917e-03
-1.327952575683593750e+01 5.793231487274169922e+00 1.542543470859527588e-01
-6.623666763305664062e+00 2.609048128128051758e+00 8.697497658431529999e-03
-1.296311569213867188e+01 5.750130176544189453e+00 1.509859412908554077e-01
-6.588970184326171875e+00 2.642197370529174805e+00 8.673063479363918304e-03
-1.259305000305175781e+01 5.678705215454101562e+00 1.470787376165390015e-01
-6.557819843292236328e+00 2.676530599594116211e+00 8.653515018522739410e-03
-1.308973979949951172e+01 5.999601840972900391e+00 1.533068269491195679e-01
-6.492327213287353516e+00 2.696389675140380859e+00 8.588762953877449036e-03
-1.285779666900634766e+01 5.989030838012695312e+00 1.510178744792938232e-01
-6.415785789489746094e+00 2.710876226425170898e+00 8.509350940585136414e-03
-1.387738227844238281e+01 6.567866802215576172e+00 1.634634137153625488e-01
-6.498255252838134766e+00 2.792836666107177734e+00 8.641297928988933563e-03
-1.365658378601074219e+01 6.566232681274414062e+00 1.613341420888900757e-01
-6.445261001586914062e+00 2.817037582397460938e+00 8.593650534749031067e-03
-6.436079025268554688e+00 2.860186576843261719e+00 8.604645729064941406e-03
-1.226710700988769531e+01 6.084609031677246094e+00 1.457905322313308716e-01
-6.416585445404052734e+00 2.898800611495971680e+00 8.602202869951725006e-03
-1.292612838745117188e+01 6.510619640350341797e+00 1.540946662425994873e-01
-6.441390037536621094e+00 2.957729816436767578e+00 8.659623563289642334e-03
-6.371467113494873047e+00 2.973094940185546875e+00 8.589984849095344543e-03
-1.330319404602050781e+01 6.906494617462158203e+00 1.595881581306457520e-01
-6.135341167449951172e+00 2.908887624740600586e+00 8.295548148453235626e-03
-6.226390361785888672e+00 2.998985528945922852e+00 8.443377912044525146e-03
-1.167261314392089844e+01 6.242989063262939453e+00 1.409358233213424683e-01
-6.150382995605468750e+00 3.009007930755615234e+00 8.365186862647533417e-03
-6.301062583923339844e+00 3.130788087844848633e+00 8.596093393862247467e-03
-6.271913051605224609e+00 3.164436578750610352e+00 8.582654409110546112e-03
-6.252378463745117188e+00 3.202860832214355469e+00 8.582654409110546112e-03
-6.188248157501220703e+00 3.218095779418945312e+00 8.521568030118942261e-03
-6.251515388488769531e+00 3.299885749816894531e+00 8.636411279439926147e-03
-6.269053459167480469e+00 3.358488082885742188e+00 8.688945323228836060e-03
-6.379233837127685547e+00 3.468057394027709961e+00 8.870982564985752106e-03
-6.366590499877929688e+00 3.511964559555053711e+00 8.883200585842132568e-03
-6.316997051239013672e+00 3.535335302352905273e+00 8.844105526804924011e-03
-6.257792472839355469e+00 3.552799224853515625e+00 8.791571483016014099e-03
-6.231542110443115234e+00 3.588634252548217773e+00 8.785462006926536560e-03
-6.212859153747558594e+00 3.628819942474365234e+00 8.790348656475543976e-03
-6.528426170349121094e+00 4.892777919769287109e+00 2.421358972787857056e-01
-6.200800895690917969e+00 3.672988653182983398e+00 8.805009536445140839e-03
-6.504650592803955078e+00 4.937578201293945312e+00 2.423732131719589233e-01
-6.231296062469482422e+00 3.742891550064086914e+00 8.880757726728916168e-03
-6.220170021057128906e+00 3.788337945938110352e+00 8.897861465811729431e-03
-6.258920669555664062e+00 3.864786386489868164e+00 8.987047709524631500e-03
-6.361384391784667969e+00 3.982177734375000000e+00 9.169085882604122162e-03
-6.314877510070800781e+00 4.007205009460449219e+00 9.137320332229137421e-03
-6.514602661132812500e+00 4.889413356781005859e+00 1.649314314126968384e-01
-6.322130203247070312e+00 4.066433429718017578e+00 9.183745831251144409e-03
-6.479703903198242188e+00 4.925663948059082031e+00 1.648099720478057861e-01
-6.293709278106689453e+00 4.102964401245117188e+00 9.178859181702136993e-03
-6.432722568511962891e+00 4.952521800994873047e+00 1.643848419189453125e-01
-6.285102367401123047e+00 4.152529239654541016e+00 9.203294292092323303e-03
-6.334289073944091797e+00 4.241087436676025391e+00 9.313249029219150543e-03
-6.339592933654785156e+00 4.301208972930908203e+00 9.359675459563732147e-03
-6.302369117736816406e+00 4.332662582397460938e+00 9.343792684376239777e-03
-6.506611347198486328e+00 4.890409469604492188e+00 8.666094392538070679e-02
-6.269921779632568359e+00 4.367250442504882812e+00 9.335240349173545837e-03
-6.459773540496826172e+00 4.917521953582763672e+00 8.643737435340881348e-02
-6.286310195922851562e+00 4.436198711395263672e+00 9.399992413818836212e-03
-6.422351837158203125e+00 4.951570987701416016e+00 8.634155988693237305e-02
-6.268733501434326172e+00 4.481666088104248047e+00 9.414653293788433075e-03
-6.301859378814697266e+00 4.564038276672363281e+00 9.506282396614551544e-03
-6.372910022735595703e+00 4.675376892089843750e+00 9.656555950641632080e-03
-6.347312927246093750e+00 4.716778278350830078e+00 9.661442600190639496e-03
-6.372581958770751953e+00 4.796528816223144531e+00 9.744520299136638641e-03
-6.484931468963623047e+00 4.940137863159179688e+00 3.060536682605743408e-01
-6.347802639007568359e+00 4.839177608489990234e+00 9.751850739121437073e-03
-6.317990303039550781e+00 4.878035545349121094e+00 9.751850739121437073e-03
-6.284789085388183594e+00 4.914246559143066406e+00 9.746963158249855042e-03
-6.242758274078369141e+00 4.943404674530029297e+00 9.728637523949146271e-03
-6.297344684600830078e+00 5.049806594848632812e+00 9.861806407570838928e-03
-6.315923690795898438e+00 5.128695011138916016e+00 9.939997456967830658e-03
-6.336086750030517578e+00 5.209905147552490234e+00 1.002185232937335968e-02
-6.315527915954589844e+00 5.258282661437988281e+00 1.004017889499664307e-02
-6.290790557861328125e+00 5.303380489349365234e+00 1.005239691585302353e-02
-6.272582530975341797e+00 5.354215621948242188e+00 1.007560919970273972e-02
-6.326619625091552734e+00 5.467799663543701172e+00 1.021610852330923080e-02
-6.282414913177490234e+00 5.497296810150146484e+00 1.019900385290384293e-02
-6.249313831329345703e+00 5.536404132843017578e+00 1.020022481679916382e-02
-6.175026416778564453e+00 5.538589477539062500e+00 1.013425178825855255e-02
-6.185345172882080078e+00 5.616710186004638672e+00 1.020755618810653687e-02
-6.191991329193115234e+00 5.692456722259521484e+00 1.027597300708293915e-02
-6.152554512023925781e+00 5.726255416870117188e+00 1.026864256709814072e-02
-6.345838069915771484e+00 5.979230880737304688e+00 1.065226644277572632e-02
-6.311200618743896484e+00 6.020125865936279297e+00 1.065593026578426361e-02
-6.277020931243896484e+00 6.061516284942626953e+00 1.066081877797842026e-02
-6.252581119537353516e+00 6.112500190734863281e+00 1.068280916661024094e-02
-6.264000892639160156e+00 6.199286460876464844e+00 1.076710876077413559e-02
-6.280947208404541016e+00 6.292811393737792969e+00 1.086240354925394058e-02
-6.232388019561767578e+00 6.321262836456298828e+00 1.084529981017112732e-02
-6.328837394714355469e+00 6.498363971710205078e+00 1.108231488615274429e-02
-6.230608940124511719e+00 6.476540088653564453e+00 1.097968965768814087e-02
-6.152176380157470703e+00 6.474054336547851562e+00 1.091127283871173859e-02
-6.092488765716552734e+00 6.490537166595458984e+00 1.087584253400564194e-02
-6.225245952606201172e+00 6.714054584503173828e+00 1.118616200983524323e-02
-6.158266544342041016e+00 6.724102020263671875e+00 1.113973557949066162e-02
-6.304062366485595703e+00 6.968664169311523438e+00 1.148059871047735214e-02
-6.046637535095214844e+00 6.767103195190429688e+00 1.108720246702432632e-02
-6.051321029663085938e+00 6.856560230255126953e+00 1.117272302508354187e-02
-2.942879438400268555e+00 6.303843021392822266e+00 2.064770758152008057e-01
-2.894130229949951172e+00 6.299982070922851562e+00 2.057650834321975708e-01
-1.562329530715942383e+00 3.456656932830810547e+00 1.125833988189697266e-01
-1.551648616790771484e+00 3.489925384521484375e+00 1.133547201752662659e-01
-1.524599075317382812e+00 3.486558914184570312e+00 1.129393950104713440e-01
-2.929947376251220703e+00 6.287410259246826172e+00 1.404559016227722168e-01
-1.549630880355834961e+00 3.434848785400390625e+00 7.630128413438796997e-02
-1.537447929382324219e+00 3.464396953582763672e+00 7.674665749073028564e-02
-1.504163742065429688e+00 3.446275711059570312e+00 7.613933086395263672e-02
-2.895272254943847656e+00 6.224169254302978516e+00 7.308690249919891357e-02
-1.586689114570617676e+00 3.518526315689086914e+00 1.813456863164901733e-01
-1.545446395874023438e+00 3.431863546371459961e+00 4.007270187139511108e-02
-1.561829686164855957e+00 3.520891189575195312e+00 1.809702217578887939e-01
-1.542179107666015625e+00 3.481508970260620117e+00 4.054113849997520447e-02
-1.525018215179443359e+00 3.495616674423217773e+00 1.791868060827255249e-01
-2.952775478363037109e+00 6.258390903472900391e+00 8.454373106360435486e-03
-2.896630764007568359e+00 6.238296985626220703e+00 8.403060026466846466e-03
-1.595889568328857422e+00 3.489696979522705078e+00 1.440605819225311279e-01
-1.590391039848327637e+00 3.480885505676269531e+00 4.675561562180519104e-03
-1.572397112846374512e+00 3.494866847991943359e+00 1.438730061054229736e-01
-1.574742555618286133e+00 3.503347873687744141e+00 4.692665766924619675e-03
-1.547283649444580078e+00 3.496224880218505859e+00 1.435353606939315796e-01
-1.548768639564514160e+00 3.502883911132812500e+00 4.679226782172918320e-03
-1.521016478538513184e+00 3.494657754898071289e+00 1.430851668119430542e-01
-1.521264791488647461e+00 3.498565196990966797e+00 4.660901147872209549e-03
-1.511563181877136230e+00 3.535418272018432617e+00 4.697552882134914398e-03
-3.426382690668106079e-02 7.011234760284423828e-01 7.473708130419254303e-03
-2.229545451700687408e-02 7.121747732162475586e-01 5.945659428834915161e-02
-2.177846804261207581e-02 7.156281471252441406e-01 7.622756063938140869e-03
-3.471101447939872742e-02 7.623772025108337402e-01 1.705880314111709595e-01
