-8.569205403327941895e-01 -6.073748588562011719e+00 7.368528842926025391e-01
-5.989908576011657715e-01 -5.746650695800781250e+00 6.388940215110778809e-01
-6.684492230415344238e-01 -6.121150016784667969e+00 1.139009594917297363e+00
-6.519541144371032715e-01 -5.931724071502685547e+00 8.801313638687133789e-01
-6.461331248283386230e-01 -5.850552558898925781e+00 6.508739590644836426e-01
-8.325876295566558838e-02 -7.443575263023376465e-01 9.150759433396160603e-04
-6.907346844673156738e-01 -5.948248863220214844e+00 8.831955194473266602e-01
-6.702721714973449707e-01 -5.745778083801269531e+00 6.396633386611938477e-01
-7.289013862609863281e-01 -5.957646369934082031e+00 8.852382302284240723e-01
-7.316990494728088379e-01 -5.954646110534667969e+00 6.634034514427185059e-01
-7.935779094696044922e-01 -6.171874046325683594e+00 9.177762866020202637e-01
-7.752223610877990723e-01 -6.004261016845703125e+00 6.694483757019042969e-01
-1.195273846387863159e-01 -7.175850272178649902e-01 6.070393323898315430e-02
-8.324903249740600586e-01 -6.174731731414794922e+00 9.189435243606567383e-01
-8.208482861518859863e-01 -6.064398765563964844e+00 6.767022609710693359e-01
-8.713294863700866699e-01 -6.176364421844482422e+00 9.199649095535278320e-01
-8.694708943367004395e-01 -6.139946460723876953e+00 6.857147216796875000e-01
-9.058199524879455566e-01 -6.125646591186523438e+00 6.847255825996398926e-01
-3.211162567138671875e+00 -6.881656169891357422e+00 9.277819655835628510e-03
-3.293597459793090820e+00 -6.946760177612304688e+00 9.392661973834037781e-03
-3.371309518814086914e+00 -6.999396324157714844e+00 9.491622447967529297e-03
-3.306524753570556641e+00 -6.758504867553710938e+00 9.192298166453838348e-03
-3.460063695907592773e+00 -6.963767051696777344e+00 9.500174783170223236e-03
-3.507682323455810547e+00 -6.952226161956787109e+00 9.513612836599349976e-03
-3.423071861267089844e+00 -6.682257652282714844e+00 9.172750636935234070e-03
-3.325596094131469727e+00 -6.394966602325439453e+00 8.806231431663036346e-03
-3.578104972839355469e+00 -6.778592109680175781e+00 9.364562109112739563e-03
-3.658825159072875977e+00 -6.829671859741210938e+00 9.465965442359447479e-03
-1.852376580238342285e+00 -2.671123027801513672e+00 9.647462517023086548e-02
-3.725976943969726562e+00 -6.853657245635986328e+00 9.530717507004737854e-03
-1.856664061546325684e+00 -2.642531633377075195e+00 9.585163742303848267e-02
-3.504719495773315430e+00 -6.353456020355224609e+00 8.864874951541423798e-03
-1.888493895530700684e+00 -2.653076410293579102e+00 9.665262699127197266e-02
-3.716521739959716797e+00 -6.640744209289550781e+00 9.297367185354232788e-03
-1.915845394134521484e+00 -2.656843185424804688e+00 9.721628576517105103e-02
-3.872728824615478516e+00 -6.821306228637695312e+00 9.583251550793647766e-03
-3.820690155029296875e+00 -6.634499073028564453e+00 9.353565983474254608e-03
-1.835401296615600586e+00 -2.677684068679809570e+00 6.573368608951568604e-02
-3.845691919326782227e+00 -6.584162712097167969e+00 9.315692819654941559e-03
-1.897258520126342773e+00 -2.733867883682250977e+00 1.877954900264739990e-01
-1.839249849319458008e+00 -2.648305892944335938e+00 6.528831273317337036e-02
-3.943099021911621094e+00 -6.656805515289306641e+00 9.452526457607746124e-03
-1.882987499237060547e+00 -2.678071260452270508e+00 1.847528964281082153e-01
-1.861793518066406250e+00 -2.645964860916137695e+00 6.551099568605422974e-02
-4.020943641662597656e+00 -6.694207191467285156e+00 9.540491737425327301e-03
-1.910969734191894531e+00 -2.682731151580810547e+00 1.858797967433929443e-01
-1.874511837959289551e+00 -2.629606723785400391e+00 6.538953632116317749e-02
-4.039576053619384766e+00 -6.632683753967285156e+00 9.487956762313842773e-03
-1.867802619934082031e+00 -2.588373422622680664e+00 1.801326721906661987e-01
-1.885928869247436523e+00 -2.611570835113525391e+00 6.522757560014724731e-02
-4.061283111572265625e+00 -6.577141761779785156e+00 9.443975053727626801e-03
-1.897195339202880859e+00 -2.593494415283203125e+00 6.506562232971191406e-02
-4.106338977813720703e+00 -6.559727191925048828e+00 9.454970248043537140e-03
-1.838079333305358887e+00 -2.677643299102783203e+00 3.457920625805854797e-02
-4.137938499450683594e+00 -6.520898342132568359e+00 9.435422718524932861e-03
-1.880207657814025879e+00 -2.706335067749023438e+00 1.548290401697158813e-01
-1.844197273254394531e+00 -2.651538372039794922e+00 3.438757359981536865e-02
-4.197887897491455078e+00 -6.526504039764404297e+00 9.480626322329044342e-03
-1.893903255462646484e+00 -2.690663099288940430e+00 1.545943766832351685e-01
-1.863311886787414551e+00 -2.644259452819824219e+00 3.444080427289009094e-02
-4.196896076202392578e+00 -6.437795162200927734e+00 9.388997219502925873e-03
-1.909797310829162598e+00 -2.678178548812866211e+00 1.545474529266357422e-01
-1.878920793533325195e+00 -2.631962776184082031e+00 3.443016111850738525e-02
-4.145363330841064453e+00 -6.274255752563476562e+00 9.187411516904830933e-03
-1.915665388107299805e+00 -2.651834726333618164e+00 1.537026613950729370e-01
-1.911441922187805176e+00 -2.643071651458740234e+00 3.472825512290000916e-02
-4.295053958892822266e+00 -6.414891242980957031e+00 9.431757032871246338e-03
-1.901031732559204102e+00 -2.594994544982910156e+00 3.424917161464691162e-02
-4.323105335235595703e+00 -6.371866226196289062e+00 9.407322853803634644e-03
-1.844553947448730469e+00 -2.683121442794799805e+00 3.977953456342220306e-03
-1.873013496398925781e+00 -2.691027879714965820e+00 1.230892539024353027e-01
-1.850694656372070312e+00 -2.656982898712158203e+00 3.955962602049112320e-03
-1.888338327407836914e+00 -2.677851200103759766e+00 1.230142191052436829e-01
-1.881377220153808594e+00 -2.666003465652465820e+00 3.986505791544914246e-03
-1.910542726516723633e+00 -2.674345493316650391e+00 1.233893856406211853e-01
-1.871528983116149902e+00 -2.617802381515502930e+00 3.931527957320213318e-03
-1.928673744201660156e+00 -2.665000915527343750e+00 1.235019266605377197e-01
-1.882863640785217285e+00 -2.599790334701538086e+00 3.921753726899623871e-03
-1.910610795021057129e+00 -2.604314327239990234e+00 3.946188837289810181e-03
-4.581978797912597656e+00 -6.165915012359619141e+00 9.385331533849239349e-03
-4.624536991119384766e+00 -6.144076824188232422e+00 9.395105764269828796e-03
-4.691249847412109375e+00 -6.153758049011230469e+00 9.453748352825641632e-03
-4.714864253997802734e+00 -6.106651782989501953e+00 9.425648488104343414e-03
-4.885295391082763672e+00 -6.247764110565185547e+00 9.689542464911937714e-03
-4.971340656280517578e+00 -6.278036594390869141e+00 9.783615358173847198e-03
-5.017900943756103516e+00 -6.257556438446044922e+00 9.799497202038764954e-03
-5.007663726806640625e+00 -6.166875362396240234e+00 9.705425240099430084e-03
-5.013652801513671875e+00 -6.097412586212158203e+00 9.644338861107826233e-03
-5.140550136566162109e+00 -6.174124240875244141e+00 9.815380908548831940e-03
-5.158355712890625000e+00 -6.118764877319335938e+00 9.777506813406944275e-03
-5.191258430480957031e+00 -6.081674575805664062e+00 9.768954478204250336e-03
-5.337022304534912109e+00 -6.175301551818847656e+00 9.971762076020240784e-03
-4.938216209411621094e+00 -5.643486976623535156e+00 9.161755442619323730e-03
-5.126595497131347656e+00 -5.786734580993652344e+00 9.445196017622947693e-03
-5.377673625946044922e+00 -5.995620250701904297e+00 9.839816018939018250e-03
-5.369991302490234375e+00 -5.913649082183837891e+00 9.759181179106235504e-03
-5.372336387634277344e+00 -5.843779087066650391e+00 9.698094800114631653e-03
-5.435343742370605469e+00 -5.839985370635986328e+00 9.746963158249855042e-03
-5.621943950653076172e+00 -5.966644763946533203e+00 1.001574378460645676e-02
-5.679156303405761719e+00 -5.953744888305664062e+00 1.005239691585302353e-02
-5.546085834503173828e+00 -5.743265151977539062e+00 9.754293598234653473e-03
-5.597299575805664062e+00 -5.725573539733886719e+00 9.782393462955951691e-03
-5.668903827667236328e+00 -5.728081226348876953e+00 9.845923632383346558e-03
-5.712437152862548828e+00 -5.701667308807373047e+00 9.860584512352943420e-03
-5.809266567230224609e+00 -5.727590084075927734e+00 9.966874495148658752e-03
-4.619943618774414062e+00 -3.613758087158203125e+00 1.740815341472625732e-01
-5.843585014343261719e+00 -5.691139698028564453e+00 9.965653531253337860e-03
-4.634910106658935547e+00 -3.579843521118164062e+00 1.738145351409912109e-01
-5.885601997375488281e+00 -5.662110328674316406e+00 9.977871552109718323e-03
-4.611484050750732422e+00 -3.516787052154541016e+00 1.721235513687133789e-01
-5.940530300140380859e+00 -5.645178318023681641e+00 1.001207996159791946e-02
-6.025364398956298828e+00 -5.655844211578369141e+00 1.009637769311666489e-02
-6.117151737213134766e+00 -5.671799659729003906e+00 1.019167341291904449e-02
-5.917327880859375000e+00 -5.419383049011230469e+00 9.803162887692451477e-03
-4.627452850341796875e+00 -3.614508867263793945e+00 1.188955754041671753e-01
-6.236721038818359375e+00 -5.641924858093261719e+00 1.027475204318761826e-02
-4.643210411071777344e+00 -3.581162691116333008e+00 1.187336221337318420e-01
-6.252579212188720703e+00 -5.586893081665039062e+00 1.024420745670795441e-02
-4.681005001068115234e+00 -3.564719676971435547e+00 1.191385090351104736e-01
-6.267248630523681641e+00 -5.531218528747558594e+00 1.021244283765554428e-02
-6.283731937408447266e+00 -5.477546215057373047e+00 1.018434297293424606e-02
-6.311160564422607422e+00 -5.433666706085205078e+00 1.017456874251365662e-02
-6.297911643981933594e+00 -5.355324745178222656e+00 1.010004337877035141e-02
-4.636929988861083984e+00 -3.616783380508422852e+00 6.261093169450759888e-02
-6.071055412292480469e+00 -5.098566532135009766e+00 9.685877710580825806e-03
-4.642398357391357422e+00 -3.575450658798217773e+00 6.238736212253570557e-02
-6.392404079437255859e+00 -5.301895618438720703e+00 1.014646980911493301e-02
-4.657085895538330078e+00 -3.541450738906860352e+00 6.229154765605926514e-02
-6.476647853851318359e+00 -5.305028438568115234e+00 1.022832561284303665e-02
-6.670015335083007812e+00 -5.395371437072753906e+00 1.048122346401214600e-02
-6.704557895660400391e+00 -5.355591773986816406e+00 1.048366725444793701e-02
-4.611131668090820312e+00 -3.637243986129760742e+00 7.175221573561429977e-03
-4.639879226684570312e+00 -3.616560935974121094e+00 2.208553552627563477e-01
-4.630995750427246094e+00 -3.607038974761962891e+00 7.171556353569030762e-03
-4.650104045867919922e+00 -3.578881025314331055e+00 2.202926278114318848e-01
-4.631638526916503906e+00 -3.562095642089843750e+00 7.138569839298725128e-03
-4.648902893066406250e+00 -3.532747507095336914e+00 2.192046791315078735e-01
-4.655797004699707031e+00 -3.535423517227172852e+00 7.142234593629837036e-03
-4.646198272705078125e+00 -3.483394861221313477e+00 7.094587199389934540e-03
-6.844894409179687500e+00 -5.066515445709228516e+00 1.040425524115562439e-02
-6.879082679748535156e+00 -5.026780605316162109e+00 1.040914189070463181e-02
-6.474284648895263672e+00 -4.670314311981201172e+00 9.753072634339332581e-03
-7.065697193145751953e+00 -5.031311988830566406e+00 1.059728860855102539e-02
-6.428843498229980469e+00 -4.518633365631103516e+00 9.600356221199035645e-03
-7.146625518798828125e+00 -4.957906246185302734e+00 1.062660943716764450e-02
-7.190939426422119141e+00 -4.923566341400146484e+00 1.064737886190414429e-02
-6.871356964111328125e+00 -4.643081665039062500e+00 1.013180892914533615e-02
-6.885572910308837891e+00 -4.591401100158691406e+00 1.011103857308626175e-02
-6.884377002716064453e+00 -4.529827117919921875e+00 1.006827875971794128e-02
-7.059660434722900391e+00 -4.583338260650634766e+00 1.028330344706773758e-02
-1.404820251464843750e+01 -6.983140945434570312e+00 4.656117260456085205e-01
-6.830821037292480469e+00 -4.375424385070800781e+00 9.910675697028636932e-03
-1.409527492523193359e+01 -6.899008750915527344e+00 4.657600522041320801e-01
-7.053662776947021484e+00 -4.457363605499267578e+00 1.019411720335483551e-02
-1.413734054565429688e+01 -6.812391757965087891e+00 4.657600522041320801e-01
-7.188653945922851562e+00 -4.481182575225830078e+00 1.034927740693092346e-02
-1.416352176666259766e+01 -6.718235969543457031e+00 4.652557373046875000e-01
-7.221977710723876953e+00 -4.440655708312988281e+00 1.035782881081104279e-02
-1.477733230590820312e+01 -6.901776313781738281e+00 1.074707388877868652e+00
-1.418817520141601562e+01 -6.623592853546142578e+00 4.647217392921447754e-01
-7.251653671264648438e+00 -4.397814273834228516e+00 1.036149356514215469e-02
-1.480398941040039062e+01 -6.803890228271484375e+00 1.073589682579040527e+00
-1.419766712188720703e+01 -6.522224426269531250e+00 4.637130796909332275e-01
-6.906896114349365234e+00 -4.130980491638183594e+00 9.832484647631645203e-03
-1.480908966064453125e+01 -6.696481227874755859e+00 1.070959568023681641e+00
-7.815051078796386719e+00 -3.532223463058471680e+00 2.545363903045654297e-01
-7.298185348510742188e+00 -4.304430484771728516e+00 1.035172026604413986e-02
-1.481069660186767578e+01 -6.588049888610839844e+00 1.068132281303405762e+00
-1.417917251586914062e+01 -6.934130191802978516e+00 8.907467722892761230e-01
-7.839316844940185547e+00 -3.485422611236572266e+00 2.546253800392150879e-01
-1.418058490753173828e+01 -6.928688049316406250e+00 3.195787072181701660e-01
-7.514637947082519531e+00 -4.370167732238769531e+00 1.062050182372331619e-02
-1.489198017120361328e+01 -6.515046596527099609e+00 1.071091055870056152e+00
-1.419176578521728516e+01 -6.832705497741699219e+00 8.888874053955078125e-01
-1.427318668365478516e+01 -6.241364955902099609e+00 4.623484313488006592e-01
-1.429671096801757812e+01 -6.877085685729980469e+00 3.212387263774871826e-01
-7.425063610076904297e+00 -4.257323265075683594e+00 1.045678835362195969e-02
-1.497567272186279297e+01 -6.442476272583007812e+00 1.074247121810913086e+00
-1.420545482635498047e+01 -6.732242584228515625e+00 8.871407508850097656e-01
-1.434610843658447266e+01 -6.168673038482666016e+00 4.634757637977600098e-01
-1.416604804992675781e+01 -6.707512378692626953e+00 3.173720538616180420e-01
-7.601652145385742188e+00 -4.296813011169433594e+00 1.066814828664064407e-02
-1.422477912902832031e+01 -6.634823799133300781e+00 8.857884407043457031e-01
-1.441867446899414062e+01 -6.095320701599121094e+00 4.646030962467193604e-01
-1.416706275939941406e+01 -6.601883411407470703e+00 3.164812922477722168e-01
-7.713482379913330078e+00 -4.297788619995117188e+00 1.078787818551063538e-02
-1.422529697418212891e+01 -6.529092788696289062e+00 8.833093047142028809e-01
-1.451210880279541016e+01 -6.030130863189697266e+00 4.664127230644226074e-01
-1.417640590667724609e+01 -6.500662803649902344e+00 3.157929778099060059e-01
-7.650302410125732422e+00 -4.201280593872070312e+00 1.066326163709163666e-02
-1.427237033843994141e+01 -6.444972038269042969e+00 8.837600350379943848e-01
-1.410031604766845703e+01 -6.994090557098388672e+00 7.395092844963073730e-01
-1.462841796875000000e+01 -5.973470211029052734e+00 4.689640104770660400e-01
-7.829340457916259766e+00 -3.532204389572143555e+00 1.739199608564376831e-01
-7.664503574371337891e+00 -4.148072242736816406e+00 1.064737886190414429e-02
-1.433354568481445312e+01 -6.367004394531250000e+00 8.851123452186584473e-01
-1.405500316619873047e+01 -6.864480018615722656e+00 7.349099516868591309e-01
-1.499505043029785156e+01 -6.016099929809570312e+00 4.795252084732055664e-01
-7.830761432647705078e+00 -3.475175619125366211e+00 1.734745800495147705e-01
-7.678340911865234375e+00 -4.094848632812500000e+00 1.063149701803922653e-02
-1.438972663879394531e+01 -6.286530017852783203e+00 8.861828446388244629e-01
-1.424089717864990234e+01 -6.847368240356445312e+00 7.424191236495971680e-01
-1.428907871246337891e+01 -6.236620426177978516e+00 3.156917691230773926e-01
-7.493520736694335938e+00 -3.937419176101684570e+00 1.034194603562355042e-02
-1.445921897888183594e+01 -6.211516857147216797e+00 8.880985975265502930e-01
-1.425646018981933594e+01 -6.747466564178466797e+00 7.410580515861511230e-01
-1.435372066497802734e+01 -6.160262107849121094e+00 3.162788450717926025e-01
-7.879872798919677734e+00 -4.078923702239990234e+00 1.084041222929954529e-02
-1.456788063049316406e+01 -6.152589797973632812e+00 8.924371004104614258e-01
-1.426861763000488281e+01 -6.646366596221923828e+00 7.395561933517456055e-01
-1.443454360961914062e+01 -6.090340137481689453e+00 3.172303438186645508e-01
-7.934151172637939453e+00 -4.045486927032470703e+00 1.088072918355464935e-02
-1.466345024108886719e+01 -6.087203502655029297e+00 8.959867358207702637e-01
-1.419653224945068359e+01 -6.507080554962158203e+00 7.337366342544555664e-01
-1.458338737487792969e+01 -6.047999858856201172e+00 3.196798861026763916e-01
-7.861417770385742188e+00 -3.947812318801879883e+00 1.074756123125553131e-02
-1.476893424987792969e+01 -6.025022983551025391e+00 9.001562595367431641e-01
-1.420067787170410156e+01 -6.403834819793701172e+00 7.319062948226928711e-01
-1.403224945068359375e+01 -6.945266723632812500e+00 5.877971649169921875e-01
-1.469984722137451172e+01 -5.990854740142822266e+00 3.214209377765655518e-01
-7.834751129150390625e+00 -3.528167247772216797e+00 9.148371964693069458e-02
-8.035188674926757812e+00 -3.973528146743774414e+00 1.095158979296684265e-02
-1.418400478363037109e+01 -6.291872978210449219e+00 7.290434241294860840e-01
-1.406471920013427734e+01 -6.854219913482666016e+00 5.873844623565673828e-01
-7.843452453613281250e+00 -3.474357843399047852e+00 9.133467823266983032e-02
-8.042336463928222656e+00 -3.915832757949829102e+00 1.092837750911712646e-02
-1.439538574218750000e+01 -6.280215263366699219e+00 7.379136085510253906e-01
-1.401551246643066406e+01 -6.724133968353271484e+00 5.835953950881958008e-01
-7.877457141876220703e+00 -3.431756973266601562e+00 9.148371964693069458e-02
-8.033748626708984375e+00 -3.850851535797119141e+00 1.088439486920833588e-02
-1.445200920104980469e+01 -6.199645042419433594e+00 7.388522624969482422e-01
-1.404656791687011719e+01 -6.633316040039062500e+00 5.831827521324157715e-01
-7.992109775543212891e+00 -3.770762443542480469e+00 1.079643052071332932e-02
-1.453211593627929688e+01 -6.128707408905029297e+00 7.410111427307128906e-01
-1.412506580352783203e+01 -6.564692020416259766e+00 5.847584009170532227e-01
-7.884489059448242188e+00 -3.661008119583129883e+00 1.062050182372331619e-02
-1.457036972045898438e+01 -6.039807319641113281e+00 7.410580515861511230e-01
-1.409964752197265625e+01 -6.447975158691406250e+00 5.820572376251220703e-01
-1.465899848937988281e+01 -6.067553997039794922e+00 1.689143180847167969e-01
-7.815847873687744141e+00 -3.571003437042236328e+00 1.049832813441753387e-02
-1.474406814575195312e+01 -6.006063938140869141e+00 7.480040192604064941e-01
-1.419818115234375000e+01 -6.387991428375244141e+00 5.844957828521728516e-01
-1.485248851776123047e+01 -6.041163921356201172e+00 1.707135289907455444e-01
-7.811161041259765625e+00 -3.511089563369750977e+00 1.046289689838886261e-02
-1.423071384429931641e+01 -6.297921657562255859e+00 5.842331647872924805e-01
-7.800547122955322266e+00 -3.448941946029663086e+00 1.042013708502054214e-02
-1.430574035644531250e+01 -6.226437091827392578e+00 5.857337713241577148e-01
-7.822480201721191406e+00 -3.401412725448608398e+00 1.042135898023843765e-02
-1.436664199829101562e+01 -6.148370265960693359e+00 5.866716504096984863e-01
-7.896533489227294922e+00 -3.376151800155639648e+00 1.049221865832805634e-02
-1.446396923065185547e+01 -6.085291862487792969e+00 5.891101956367492676e-01
-8.191821098327636719e+00 -3.443103790283203125e+00 1.085629500448703766e-02
-1.456013679504394531e+01 -6.020867347717285156e+00 5.915112495422363281e-01
-8.234974861145019531e+00 -3.401938438415527344e+00 1.088561676442623138e-02
-1.475696563720703125e+01 -5.996495723724365234e+00 5.980014204978942871e-01
-8.474363327026367188e+00 -3.440112829208374023e+00 1.117394492030143738e-02
-1.497074413299560547e+01 -5.976602077484130859e+00 6.051669716835021973e-01
-8.516674995422363281e+00 -3.396570444107055664e+00 1.120204478502273560e-02
-8.563426971435546875e+00 -3.354461669921875000e+00 1.123625319451093674e-02
-8.614647865295410156e+00 -3.313701868057250977e+00 1.127657014876604080e-02
-8.780758857727050781e+00 -3.315892934799194336e+00 1.146715972572565079e-02
-8.586214065551757812e+00 -3.182367324829101562e+00 1.118738390505313873e-02
-1.101773262023925781e+01 -2.701117753982543945e+00 3.366822302341461182e-01
-8.586783409118652344e+00 -3.122787952423095703e+00 1.116294879466295242e-02
-8.619910240173339844e+00 -3.075081586837768555e+00 1.118127536028623581e-02
-8.636729240417480469e+00 -3.021472692489624023e+00 1.117883156985044479e-02
-8.699563980102539062e+00 -2.983669281005859375e+00 1.123625319451093674e-02
-8.708228111267089844e+00 -2.927047491073608398e+00 1.122403517365455627e-02
-1.101998615264892578e+01 -2.765409469604492188e+00 2.300577759742736816e-01
-8.738372802734375000e+00 -2.877626180648803711e+00 1.123991888016462326e-02
-1.101538085937500000e+01 -2.692517518997192383e+00 2.296124100685119629e-01
-8.752057075500488281e+00 -2.822726249694824219e+00 1.123503036797046661e-02
-8.773027420043945312e+00 -2.770176172256469727e+00 1.123991888016462326e-02
-8.803236007690429688e+00 -2.720427274703979492e+00 1.125702261924743652e-02
-8.826462745666503906e+00 -2.668385982513427734e+00 1.126557495445013046e-02
-8.900207519531250000e+00 -2.631187677383422852e+00 1.133887749165296555e-02
-1.102157783508300781e+01 -2.757759332656860352e+00 1.209633499383926392e-01
-8.920027732849121094e+00 -2.577638149261474609e+00 1.134376600384712219e-02
-1.104606437683105469e+01 -2.691974401473999023e+00 1.210485249757766724e-01
-8.907766342163085938e+00 -2.514977455139160156e+00 1.130833476781845093e-02
-8.936527252197265625e+00 -2.463994503021240234e+00 1.132543943822383881e-02
-8.928301811218261719e+00 -2.402877330780029297e+00 1.129611767828464508e-02
-9.041533470153808594e+00 -2.373952388763427734e+00 1.142073422670364380e-02
-8.490177154541015625e+00 -2.173589944839477539e+00 1.070724427700042725e-02
-8.559628486633300781e+00 -2.135493993759155273e+00 1.077810395509004593e-02
-8.881579399108886719e+00 -2.158014774322509766e+00 1.116661448031663895e-02
-8.555994987487792969e+00 -2.023389339447021484e+00 1.074145268648862839e-02
-8.584815979003906250e+00 -1.974663257598876953e+00 1.076222117990255356e-02
-8.240565299987792969e+00 -1.842314839363098145e+00 1.031628996133804321e-02
-9.110697746276855469e+00 -1.978230595588684082e+00 1.139019150286912918e-02
-9.236171722412109375e+00 -1.946208715438842773e+00 1.153191085904836655e-02
-9.145065307617187500e+00 -1.868481159210205078e+00 1.140363048762083054e-02
-9.276035308837890625e+00 -1.836021065711975098e+00 1.155268121510744095e-02
-8.944359779357910156e+00 -1.713408231735229492e+00 1.112629752606153488e-02
-9.394229888916015625e+00 -1.739898562431335449e+00 1.167241111397743225e-02
-9.083821296691894531e+00 -1.624823331832885742e+00 1.127412635833024979e-02
-9.449363708496093750e+00 -1.630437016487121582e+00 1.171517185866832733e-02
-9.421704292297363281e+00 -1.566194772720336914e+00 1.166874542832374573e-02
-9.348190307617187500e+00 -1.495088934898376465e+00 1.156611926853656769e-02
-9.275151252746582031e+00 -1.425096750259399414e+00 1.146471686661243439e-02
-9.155110359191894531e+00 -1.349205017089843750e+00 1.130589190870523453e-02
-9.384028434753417969e+00 -1.324163317680358887e+00 1.157833728939294815e-02
-9.449457168579101562e+00 -1.274310588836669922e+00 1.164919789880514145e-02
-9.490819931030273438e+00 -1.220642805099487305e+00 1.169073674827814102e-02
-9.553715705871582031e+00 -1.169187784194946289e+00 1.175915263593196869e-02
-9.443499565124511719e+00 -1.096930384635925293e+00 1.161498948931694031e-02
-9.511679649353027344e+00 -1.045741081237792969e+00 1.169073674827814102e-02
-9.560688018798828125e+00 -9.917957186698913574e-01 1.174327079206705093e-02
-9.850247383117675781e+00 -9.607809782028198242e-01 1.209146436303853989e-02
-9.886828422546386719e+00 -9.031429886817932129e-01 1.212933752685785294e-02
-9.955953598022460938e+00 -8.478924036026000977e-01 1.220752857625484467e-02
-9.981903076171875000e+00 -7.884414196014404297e-01 1.223318465054035187e-02
-1.027877902984619141e+01 -7.484574913978576660e-01 1.259115245193243027e-02
-1.028417587280273438e+01 -6.854404807090759277e-01 1.259237341582775116e-02
-9.791096687316894531e+00 -5.922563672065734863e-01 1.198395155370235443e-02
-1.031178379058837891e+01 -5.602712631225585938e-01 1.261680852621793747e-02
-9.919486045837402344e+00 -4.779312312602996826e-01 1.213300321251153946e-02
-1.010407161712646484e+01 -4.247006177902221680e-01 1.235535833984613419e-02
-9.971573829650878906e+00 -3.578535020351409912e-01 1.219042483717203140e-02
-1.076088047027587891e+01 8.480807542800903320e-01 3.203657865524291992e-01
-9.962586402893066406e+00 -2.963352799415588379e-01 1.217698492109775543e-02
-7.916960716247558594e+00 6.728511452674865723e-01 2.358169853687286377e-01
-9.473355293273925781e+00 -2.236138731241226196e-01 1.157711632549762726e-02
-7.862911701202392578e+00 7.168782353401184082e-01 2.343336641788482666e-01
-1.035041427612304688e+01 -1.807800829410552979e-01 1.264735125005245209e-02
-9.949355125427246094e+00 -1.127138733863830566e-01 1.215621642768383026e-02
-1.035185337066650391e+01 -5.375097319483757019e-02 1.264735125005245209e-02
-1.035598850250244141e+01 9.771589189767837524e-03 1.265223883092403412e-02
-1.076182937622070312e+01 8.555976748466491699e-01 2.185994237661361694e-01
-1.082472133636474609e+01 7.663480937480926514e-02 1.322523038834333420e-02
-7.889471530914306641e+00 6.759761571884155273e-01 1.603359431028366089e-01
-9.259184837341308594e+00 1.223710924386978149e-01 1.131322141736745834e-02
-7.883183479309082031e+00 7.241894006729125977e-01 1.602954566478729248e-01
-1.051702308654785156e+01 2.035438716411590576e-01 1.285137981176376343e-02
-1.057455635070800781e+01 2.695748507976531982e-01 1.292346138507127762e-02
-4.860805034637451172e+00 6.850341558456420898e-01 1.456909328699111938e-01
-1.133032417297363281e+01 3.584204316139221191e-01 1.384953409433364868e-02
-4.909911155700683594e+00 7.227068543434143066e-01 1.472929120063781738e-01
-1.080528545379638672e+01 4.081919491291046143e-01 1.321056950837373734e-02
-4.806584835052490234e+00 7.376573681831359863e-01 1.443262845277786255e-01
-1.372903347015380859e+01 1.601860165596008301e+00 2.798793613910675049e-01
-1.076781845092773438e+01 8.635209202766418457e-01 1.150120645761489868e-01
-1.066171360015869141e+01 4.682970345020294189e-01 1.303830556571483612e-02
-7.888182163238525391e+00 6.813267469406127930e-01 8.429746329784393311e-02
-1.084140968322753906e+01 5.428590774536132812e-01 1.326188165694475174e-02
-7.883852958679199219e+00 7.297149300575256348e-01 8.429746329784393311e-02
-1.101759052276611328e+01 6.194752454757690430e-01 1.348179299384355545e-02
-1.137088775634765625e+01 7.093561887741088867e-01 1.391917280852794647e-02
-4.856527328491210938e+00 6.878353953361511230e-01 9.931920468807220459e-02
-1.098322010040283203e+01 7.528533935546875000e-01 1.345002837479114532e-02
-4.846281051635742188e+00 7.167438864707946777e-01 9.919773787260055542e-02
-1.080687236785888672e+01 8.074160218238830566e-01 1.323989126831293106e-02
-4.795350074768066406e+00 7.393066287040710449e-01 9.824625402688980103e-02
-1.374287509918212891e+01 1.613049030303955078e+00 1.473236083984375000e-01
-7.867300510406494141e+00 6.363566517829895020e-01 9.643116965889930725e-03
-1.370790958404541016e+01 1.694276928901672363e+00 1.470574438571929932e-01
-7.869224548339843750e+00 6.851379275321960449e-01 9.650446474552154541e-03
-7.869851112365722656e+00 7.338739633560180664e-01 9.656555950641632080e-03
-4.885694026947021484e+00 6.648323535919189453e-01 5.249694362282752991e-02
-7.844303131103515625e+00 7.800705432891845703e-01 9.630898945033550262e-03
-4.863925457000732422e+00 6.896951198577880859e-01 2.308121323585510254e-01
-4.871622562408447266e+00 6.933888196945190430e-01 5.239047855138778687e-02
-1.078398036956787109e+01 1.139270186424255371e+00 1.324844267219305038e-02
-4.858375072479248047e+00 7.219446897506713867e-01 5.229466408491134644e-02
-1.014472866058349609e+01 1.134720206260681152e+00 1.247142162173986435e-02
-4.836066722869873047e+00 7.489867806434631348e-01 5.210302770137786865e-02
-1.328272724151611328e+01 1.568294525146484375e+00 1.634064130485057831e-02
-1.323712921142578125e+01 1.645325779914855957e+00 1.629666052758693695e-02
-4.904390811920166016e+00 6.401790976524353027e-01 6.042677443474531174e-03
-4.908297061920166016e+00 6.713439822196960449e-01 6.052451673895120621e-03
-4.891977310180664062e+00 6.979737877845764160e-01 1.855155080556869507e-01
-4.870427608489990234e+00 6.966339349746704102e-01 6.010912358760833740e-03
-4.892544746398925781e+00 7.287133336067199707e-01 1.857030838727951050e-01
-4.853204250335693359e+00 7.245855927467346191e-01 5.995030049234628677e-03
-4.863488674163818359e+00 7.566566467285156250e-01 6.013356614857912064e-03
-4.855792522430419922e+00 7.860047817230224609e-01 6.009690929204225540e-03
-1.419972515106201172e+01 2.567568540573120117e+00 1.762956753373146057e-02
-1.349860000610351562e+01 2.526422977447509766e+00 1.677802205085754395e-02
-1.348873519897460938e+01 2.610341310501098633e+00 1.678535155951976776e-02
-1.392255973815917969e+01 2.783028602600097656e+00 1.734612695872783661e-02
-1.490929412841796875e+01 3.266769886016845703e+00 1.864726841449737549e-02
-1.305991744995117188e+01 2.945649623870849609e+00 1.635652408003807068e-02
-1.497815895080566406e+01 3.475022077560424805e+00 1.878532394766807556e-02
-1.473236274719238281e+01 3.609074354171752930e+00 1.853120513260364532e-02
-1.397494220733642578e+01 3.881587266921997070e+00 1.771997474133968353e-02
-2.416154623031616211e+00 1.049602627754211426e+00 1.735838204622268677e-01
-2.389588356018066406e+00 1.055537939071655273e+00 1.721372753381729126e-01
-2.377989530563354492e+00 1.050910592079162598e+00 7.716190069913864136e-02
-2.362130641937255859e+00 1.060778498649597168e+00 1.706250011920928955e-01
-2.331378936767578125e+00 1.047457575798034668e+00 7.585658878087997437e-02
-2.375547647476196289e+00 1.084368109703063965e+00 1.720715314149856567e-01
-2.317634105682373047e+00 1.058421015739440918e+00 7.561925798654556274e-02
-2.278455972671508789e+00 1.057473063468933105e+00 7.455126941204071045e-02
-2.425251245498657227e+00 1.037382245063781738e+00 1.488616019487380981e-01
-2.413347005844116211e+00 1.049854040145874023e+00 1.485235244035720825e-01
-2.384032964706420898e+00 1.054545164108276367e+00 1.471149176359176636e-01
-2.346743583679199219e+00 1.039030313491821289e+00 5.196747183799743652e-02
-2.377517461776733398e+00 1.069153428077697754e+00 1.471149176359176636e-01
-2.337588787078857422e+00 1.052178978919982910e+00 5.190673843026161194e-02
-2.374544620513916016e+00 1.085381746292114258e+00 1.473402976989746094e-01
-2.326542854309082031e+00 1.064422488212585449e+00 5.180551111698150635e-02
-2.351698637008666992e+00 1.093431234359741211e+00 5.251406878232955933e-02
-2.398354768753051758e+00 1.027332425117492676e+00 1.225866824388504028e-01
-2.421310663223266602e+00 1.054795026779174805e+00 1.240885034203529358e-01
-2.391047000885009766e+00 1.059113740921020508e+00 1.228682696819305420e-01
-2.314384937286376953e+00 1.026606202125549316e+00 2.695645019412040710e-02
-2.384503364562988281e+00 1.073765039443969727e+00 1.228682696819305420e-01
-2.352708101272583008e+00 1.060929298400878906e+00 2.747811935842037201e-02
-2.325190067291259766e+00 1.064263701438903809e+00 1.201462149620056152e-01
-2.318883895874023438e+00 1.062846064567565918e+00 2.715873159468173981e-02
-2.412227630615234375e+00 1.001845002174377441e+00 3.191159572452306747e-03
-2.389454126358032227e+00 1.009621381759643555e+00 3.169168252497911453e-03
-2.377701759338378906e+00 1.021894693374633789e+00 3.161837812513113022e-03
-2.395722866058349609e+00 1.046105504035949707e+00 9.814126789569854736e-02
-2.363140106201171875e+00 1.032860398292541504e+00 3.150842385366559029e-03
-2.311626434326171875e+00 1.026318192481994629e+00 9.495242685079574585e-02
-2.356758117675781250e+00 1.047340869903564453e+00 3.150842385366559029e-03
-2.363957166671752930e+00 1.067957520484924316e+00 3.169168252497911453e-03
-2.352816104888916016e+00 1.080356001853942871e+00 3.163059707731008530e-03
-2.344330310821533203e+00 1.093926429748535156e+00 3.160616150125861168e-03
-8.151795387268066406e+00 6.591629505157470703e+00 3.111395835876464844e-01
-8.123570442199707031e+00 6.651655673980712891e+00 3.116142451763153076e-01
-8.086451530456542969e+00 6.704566001892089844e+00 3.117625713348388672e-01
-8.013008117675781250e+00 6.727064132690429688e+00 3.105165958404541016e-01
-8.133277893066406250e+00 6.668946266174316406e+00 2.129714787006378174e-01
-8.089128494262695312e+00 6.716170787811279297e+00 2.128905057907104492e-01
-8.034756660461425781e+00 6.754741191864013672e+00 2.125463485717773438e-01
-8.136080741882324219e+00 6.680600166320800781e+00 1.120843291282653809e-01
-8.081865310668945312e+00 6.719528675079345703e+00 1.119033396244049072e-01
-8.020593643188476562e+00 6.752247810363769531e+00 1.116265356540679932e-01
-8.120029449462890625e+00 6.593675613403320312e+00 1.277929730713367462e-02
-8.133487701416015625e+00 6.687834262847900391e+00 1.286481972783803940e-02
-8.055157661437988281e+00 6.701930999755859375e+00 3.933903872966766357e-01
-5.835407257080078125e+00 5.619585037231445312e+00 1.640406847000122070e-01
-8.092298507690429688e+00 6.737614631652832031e+00 1.286481972783803940e-02
-5.807259082794189453e+00 5.661565780639648438e+00 1.642228811979293823e-01
-8.051568984985351562e+00 6.787785053253173828e+00 1.286604069173336029e-02
-5.754621505737304688e+00 5.679534435272216797e+00 1.637167781591415405e-01
-5.818012714385986328e+00 5.610545158386230469e+00 8.605410158634185791e-02
-5.766304969787597656e+00 5.629373550415039062e+00 8.579859137535095215e-02
-5.819516181945800781e+00 5.619718551635742188e+00 9.883797727525234222e-03
-5.787785530090332031e+00 5.658117294311523438e+00 9.888685308396816254e-03
-5.744429588317871094e+00 5.685082912445068359e+00 9.874024428427219391e-03
-1.877152681350708008e+00 2.368854999542236328e+00 1.991611272096633911e-01
-1.896118640899658203e+00 2.393646955490112305e+00 9.063037484884262085e-02
-1.852209091186523438e+00 2.365369796752929688e+00 3.078118860721588135e-01
-1.855203390121459961e+00 2.370898246765136719e+00 1.983721256256103516e-01
-1.881395816802978516e+00 2.405236244201660156e+00 9.063037484884262085e-02
-1.838321328163146973e+00 2.375830650329589844e+00 4.184422791004180908e-01
-1.832184076309204102e+00 2.369607448577880859e+00 3.068945407867431641e-01
-1.830859541893005371e+00 2.369603395462036133e+00 1.973200887441635132e-01
-1.851938128471374512e+00 2.397749185562133789e+00 8.991838991641998291e-02
-1.722544193267822266e+00 2.254650354385375977e+00 8.361565470695495605e-01
-1.783891677856445312e+00 2.334104061126708984e+00 7.460906505584716797e-01
-1.784468889236450195e+00 2.334014654159545898e+00 6.309294104576110840e-01
-1.793912410736083984e+00 2.347215652465820312e+00 5.219758152961730957e-01
-1.809879302978515625e+00 2.368963956832885742e+00 4.152691364288330078e-01
-1.813987970352172852e+00 2.376060724258422852e+00 3.062829971313476562e-01
-1.817496061325073242e+00 2.382379293441772461e+00 1.974516063928604126e-01
-1.839615464210510254e+00 2.412246704101562500e+00 9.003705531358718872e-02
-1.710410475730895996e+00 2.267474651336669922e+00 8.370046019554138184e-01
-1.773039102554321289e+00 2.349647760391235352e+00 7.475675940513610840e-01
-1.751264214515686035e+00 2.319949150085449219e+00 6.242106556892395020e-01
-1.753970623016357422e+00 2.324378013610839844e+00 5.144941806793212891e-01
-1.787555694580078125e+00 2.369745254516601562e+00 4.134756028652191162e-01
-1.789793848991394043e+00 2.374436140060424805e+00 3.046522140502929688e-01
-1.805845499038696289e+00 2.397471666336059570e+00 1.977803558111190796e-01
-1.828988313674926758e+00 2.429078340530395508e+00 9.024471789598464966e-02
-1.713653445243835449e+00 2.301006078720092773e+00 8.454848527908325195e-01
-1.730793952941894531e+00 2.323175191879272461e+00 7.357522249221801758e-01
-1.734659194946289062e+00 2.327515363693237305e+00 6.233708262443542480e-01
-1.736145496368408203e+00 2.330358266830444336e+00 5.134502053260803223e-01
-1.766474008560180664e+00 2.371931076049804688e+00 4.119580090045928955e-01
-1.770439743995666504e+00 2.378988981246948242e+00 3.038368225097656250e-01
-1.788123726844787598e+00 2.404503583908081055e+00 1.974516063928604126e-01
-1.881542205810546875e+00 2.347157716751098633e+00 1.697653234004974365e-01
-1.836710095405578613e+00 2.470738410949707031e+00 9.137203544378280640e-02
-1.684729099273681641e+00 2.291384458541870117e+00 8.381353020668029785e-01
-1.714209556579589844e+00 2.330628156661987305e+00 7.347676157951354980e-01
-1.699485540390014648e+00 2.309764862060546875e+00 6.158123016357421875e-01
-1.717146158218383789e+00 2.334620952606201172e+00 5.120582580566406250e-01
-1.744259715080261230e+00 2.372351646423339844e+00 4.101644754409790039e-01
-1.750508189201354980e+00 2.382592201232910156e+00 3.029195070266723633e-01
-1.874000310897827148e+00 2.365671873092651367e+00 2.805020213127136230e-01
-1.770383596420288086e+00 2.411408185958862305e+00 1.971228420734405518e-01
-1.891892194747924805e+00 2.389971494674682617e+00 1.720190942287445068e-01
-1.793719530105590820e+00 2.444087743759155273e+00 8.997772634029388428e-02
-1.898640632629394531e+00 2.400217771530151367e+00 6.196822226047515869e-02
-1.674581885337829590e+00 2.307112693786621094e+00 8.401139974594116211e-01
-1.695890545845031738e+00 2.335612535476684570e+00 7.330445647239685059e-01
-1.668043375015258789e+00 2.296417713165283203e+00 6.095135211944580078e-01
-1.698738813400268555e+00 2.339535236358642578e+00 5.108402967453002930e-01
-1.714543819427490234e+00 2.362169265747070312e+00 4.065774381160736084e-01
-1.738776326179504395e+00 2.397314786911010742e+00 3.034291267395019531e-01
-1.855768561363220215e+00 2.372420310974121094e+00 2.799467444419860840e-01
-1.866124272346496582e+00 2.387375831604003906e+00 1.710048913955688477e-01
-1.885723710060119629e+00 2.414186239242553711e+00 6.202895566821098328e-02
-1.687769412994384766e+00 2.355550765991210938e+00 8.539651632308959961e-01
-1.669669985771179199e+00 2.329431295394897461e+00 7.278753519058227539e-01
-1.659618616104125977e+00 2.314554929733276367e+00 6.116130948066711426e-01
-1.694104433059692383e+00 2.363520860671997070e+00 5.137981772422790527e-01
-1.825613498687744141e+00 2.360204935073852539e+00 4.971860051155090332e-01
-1.694248914718627930e+00 2.364593982696533203e+00 4.051977992057800293e-01
-1.824312567710876465e+00 2.360224962234497070e+00 3.863759040832519531e-01
-1.717663526535034180e+00 2.399041175842285156e+00 3.023079335689544678e-01
-1.827177762985229492e+00 2.365638017654418945e+00 2.778182029724121094e-01
-1.849610328674316406e+00 2.396409988403320312e+00 1.708358526229858398e-01
-1.875759840011596680e+00 2.432044744491577148e+00 6.219090893864631653e-02
-1.668299317359924316e+00 2.358814239501953125e+00 8.514210581779479980e-01
-1.654225707054138184e+00 2.338049888610839844e+00 7.273830175399780273e-01
-1.811069965362548828e+00 2.367897748947143555e+00 7.250586748123168945e-01
-1.634653568267822266e+00 2.309531927108764648e+00 6.076238751411437988e-01
-1.781797051429748535e+00 2.331310510635375977e+00 6.001800298690795898e-01
-1.672745108604431152e+00 2.364224672317504883e+00 5.117102861404418945e-01
-1.792537212371826172e+00 2.347060680389404297e+00 4.920909106731414795e-01
-1.682567715644836426e+00 2.378988504409790039e+00 4.058876335620880127e-01
-1.805584549903869629e+00 2.365855932235717773e+00 3.854767680168151855e-01
-1.706355810165405273e+00 2.414409637451171875e+00 3.029195070266723633e-01
-1.812024235725402832e+00 2.376013040542602539e+00 2.777256667613983154e-01
-1.836686968803405762e+00 2.410096168518066406e+00 1.710048913955688477e-01
-1.849292993545532227e+00 2.428395748138427734e+00 6.180626899003982544e-02
-1.646656513214111328e+00 2.358781337738037109e+00 8.477462530136108398e-01
-1.729785442352294922e+00 2.288950443267822266e+00 8.129412531852722168e-01
-1.639848589897155762e+00 2.348155975341796875e+00 7.273830175399780273e-01
-1.760201811790466309e+00 2.330890178680419922e+00 7.104062438011169434e-01
-1.622131586074829102e+00 2.321923017501831055e+00 6.082537174224853516e-01
-1.744443535804748535e+00 2.311700105667114258e+00 5.923646688461303711e-01
-1.650877237319946289e+00 2.363948345184326172e+00 5.094484090805053711e-01
-1.762661099433898926e+00 2.337538242340087891e+00 4.878175556659698486e-01
-1.640158772468566895e+00 2.349473714828491211e+00 3.991274237632751465e-01
-1.781484961509704590e+00 2.364217758178710938e+00 3.834215700626373291e-01
-1.798609137535095215e+00 2.388677597045898438e+00 2.779107689857482910e-01
-1.819463133811950684e+00 2.418129444122314453e+00 1.707795262336730957e-01
-1.845172882080078125e+00 2.454081058502197266e+00 6.217066571116447449e-02
-1.645213961601257324e+00 2.387797832489013672e+00 8.545305132865905762e-01
-1.713406682014465332e+00 2.296436548233032227e+00 8.118507862091064453e-01
-1.636410832405090332e+00 2.374134302139282227e+00 7.323060631752014160e-01
-1.720892429351806641e+00 2.308150053024291992e+00 7.002440690994262695e-01
-1.605079054832458496e+00 2.327807903289794922e+00 6.072039604187011719e-01
-1.722617030143737793e+00 2.312146902084350586e+00 5.897595286369323730e-01
-1.637458920478820801e+00 2.375654935836791992e+00 5.097963809967041016e-01
-1.740038394927978516e+00 2.337232828140258789e+00 4.855165481567382812e-01
-1.755105972290039062e+00 2.359190464019775391e+00 3.808525800704956055e-01
-1.782136559486389160e+00 2.397271633148193359e+00 2.776331305503845215e-01
-1.818285226821899414e+00 2.447681665420532227e+00 1.720754355192184448e-01
-1.875635623931884766e+00 2.342249155044555664e+00 1.409840732812881470e-01
-1.831867933273315430e+00 2.467764854431152344e+00 6.223139911890029907e-02
-1.623519897460937500e+00 2.387536287307739258e+00 8.508557081222534180e-01
-1.700995683670043945e+00 2.309230566024780273e+00 8.126686811447143555e-01
-1.634896039962768555e+00 2.403363704681396484e+00 7.382137179374694824e-01
-1.703241586685180664e+00 2.313970804214477539e+00 6.988261342048645020e-01
-1.597366213798522949e+00 2.347312211990356445e+00 6.097234487533569336e-01
-1.693304657936096191e+00 2.302153587341308594e+00 5.845493078231811523e-01
-1.658299326896667480e+00 2.437767505645751953e+00 5.209318995475769043e-01
-1.718070387840270996e+00 2.337532997131347656e+00 4.833798706531524658e-01
-1.737661957740783691e+00 2.365918636322021484e+00 3.802103102207183838e-01
-1.767982721328735352e+00 2.408963918685913086e+00 2.777256667613983154e-01
-1.894751310348510742e+00 2.394388437271118164e+00 2.547902166843414307e-01
-1.809136867523193359e+00 2.466843366622924805e+00 1.726388782262802124e-01
-1.912653923034667969e+00 2.418746471405029297e+00 1.448794305324554443e-01
-1.821419477462768555e+00 2.485410213470458984e+00 6.239335611462593079e-02
-1.924544215202331543e+00 2.436403751373291016e+00 3.305678814649581909e-02
-1.606167197227478027e+00 2.393470287322998047e+00 8.494423031806945801e-01
-1.677740812301635742e+00 2.307173967361450195e+00 8.083068132400512695e-01
-1.622279524803161621e+00 2.416568994522094727e+00 7.391983866691589355e-01
-1.681585788726806641e+00 2.314159154891967773e+00 6.957538723945617676e-01
-1.596560597419738770e+00 2.377361059188842773e+00 6.149724721908569336e-01
-1.677420139312744141e+00 2.310121774673461914e+00 5.839481353759765625e-01
-1.648798942565917969e+00 2.456072807312011719e+00 5.226718187332153320e-01
-1.723970293998718262e+00 2.375973939895629883e+00 4.891324341297149658e-01
-1.717290878295898438e+00 2.368507385253906250e+00 3.789258301258087158e-01
-1.845794677734375000e+00 2.360465288162231445e+00 3.599582314491271973e-01
-1.731553077697753906e+00 2.389933109283447266e+00 2.743015289306640625e-01
-1.861002922058105469e+00 2.381627082824707031e+00 2.522123754024505615e-01
-1.891014456748962402e+00 2.421776294708251953e+00 1.443631798028945923e-01
-1.911403298377990723e+00 2.450531959533691406e+00 3.308872506022453308e-02
-1.591450810432434082e+00 2.403280496597290039e+00 8.494423031806945801e-01
-1.658503174781799316e+00 2.310390472412109375e+00 8.058532476425170898e-01
-1.613844394683837891e+00 2.436173677444458008e+00 7.421522140502929688e-01
-1.660558462142944336e+00 2.314959049224853516e+00 6.929178833961486816e-01
-1.593825459480285645e+00 2.405042409896850586e+00 6.195915937423706055e-01
-1.654081702232360840e+00 2.307630300521850586e+00 5.807418823242187500e-01
-1.655995130538940430e+00 2.499802350997924805e+00 5.298054218292236328e-01
-1.682363271713256836e+00 2.348817348480224609e+00 4.814075529575347900e-01
-1.694067835807800293e+00 2.366903543472290039e+00 3.769991099834442139e-01
-1.840984940528869629e+00 2.384320497512817383e+00 3.618665635585784912e-01
-1.832353115081787109e+00 2.374854326248168945e+00 2.502997815608978271e-01
-1.876119136810302734e+00 2.433333873748779297e+00 1.443631798028945923e-01
-1.874365925788879395e+00 2.433694124221801758e+00 3.270545601844787598e-02
-1.584544897079467773e+00 2.425045251846313477e+00 8.536825180053710938e-01
-1.682677388191223145e+00 2.374689817428588867e+00 8.246637582778930664e-01
-1.599926590919494629e+00 2.447652816772460938e+00 7.426445484161376953e-01
-1.645761370658874512e+00 2.324311494827270508e+00 6.926815509796142578e-01
-1.786064743995666504e+00 2.334307432174682617e+00 6.850597262382507324e-01
-1.598301529884338379e+00 2.444235086441040039e+00 6.271501779556274414e-01
-1.635930061340332031e+00 2.312137603759765625e+00 5.793390870094299316e-01
-1.777023553848266602e+00 2.325853824615478516e+00 5.700141787528991699e-01
-1.636315226554870605e+00 2.503322124481201172e+00 5.284135341644287109e-01
-1.666211128234863281e+00 2.356679439544677734e+00 4.809144735336303711e-01
-1.791700363159179688e+00 2.345911979675292969e+00 4.633050858974456787e-01
-1.674362778663635254e+00 2.369963645935058594e+00 3.758430480957031250e-01
-1.807659983634948730e+00 2.371094942092895508e+00 3.581691980361938477e-01
-1.811103820800781250e+00 2.377332925796508789e+00 2.493850588798522949e-01
-1.855707645416259766e+00 2.437646389007568359e+00 1.439407914876937866e-01
-1.860003113746643066e+00 2.445945262908935547e+00 3.271610289812088013e-02
-1.566516876220703125e+00 2.429884910583496094e+00 8.519864082336425781e-01
-1.654840588569641113e+00 2.366047859191894531e+00 8.181209564208984375e-01
-1.780128121376037598e+00 2.353804588317871094e+00 8.051276206970214844e-01
-1.592757582664489746e+00 2.469641447067260742e+00 7.463368177413940430e-01
-1.625345706939697266e+00 2.325604915618896484e+00 6.900818943977355957e-01
-1.764076471328735352e+00 2.335120439529418945e+00 6.821088194847106934e-01
-1.587514281272888184e+00 2.460568428039550781e+00 6.288298368453979492e-01
-1.624517083168029785e+00 2.326148271560668945e+00 5.803410410881042480e-01
-1.762127876281738281e+00 2.335930109024047852e+00 5.698230862617492676e-01
-1.609182357788085938e+00 2.495108842849731445e+00 5.245856642723083496e-01
-1.648897051811218262e+00 2.362814426422119141e+00 4.800927042961120605e-01
-1.778462052345275879e+00 2.358439207077026367e+00 4.636152088642120361e-01
-1.627166032791137695e+00 2.523960351943969727e+00 4.183042943477630615e-01
-1.659789443016052246e+00 2.380192756652832031e+00 3.758430480957031250e-01
-1.788300275802612305e+00 2.375795602798461914e+00 3.572150170803070068e-01
-1.803072094917297363e+00 2.397161245346069336e+00 2.502997815608978271e-01
-1.843116164207458496e+00 2.452180862426757812e+00 1.441285163164138794e-01
-1.858768820762634277e+00 2.475703716278076172e+00 3.296096995472908020e-02
-1.555181384086608887e+00 2.445116758346557617e+00 8.539651632308959961e-01
-1.634279251098632812e+00 2.367447614669799805e+00 8.151222467422485352e-01
-1.730442643165588379e+00 2.317528247833251953e+00 7.890724539756774902e-01
-1.588500738143920898e+00 2.496540546417236328e+00 7.515060305595397949e-01
