-1.610597595572471619e-02 -7.031336426734924316e-01 7.206059247255325317e-02
-2.024672552943229675e-02 -6.970553398132324219e-01 7.144904881715774536e-02
-3.916259855031967163e-02 -6.608253121376037598e-01 1.681227087974548340e-01
-2.640239335596561432e-02 -7.323582172393798828e-01 4.135670140385627747e-02
-1.317256968468427658e-02 -7.403094768524169922e-01 6.178496032953262329e-02
-2.575110271573066711e-02 -7.110610008239746094e-01 5.937343835830688477e-02
-3.857211396098136902e-02 -7.011651992797851562e-01 3.299327567219734192e-02
-4.391043260693550110e-02 -7.178649306297302246e-01 3.379112109541893005e-02
-8.020646870136260986e-02 -7.284315824508666992e-01 4.135670140385627747e-02
-7.683002203702926636e-02 -6.604884862899780273e-01 3.752529248595237732e-02
-8.221714198589324951e-02 -6.709056496620178223e-01 3.814508020877838135e-02
-8.207511901855468750e-02 -7.024411559104919434e-01 3.322793543338775635e-02
-5.814552307128906250e-02 -6.746493577957153320e-01 5.008329823613166809e-02
-1.169401258230209351e-01 -7.255954742431640625e-01 7.825035601854324341e-03
-9.120073169469833374e-02 -7.005911469459533691e-01 2.652365155518054962e-02
-1.065797358751296997e-01 -7.181513905525207520e-01 5.369755998253822327e-02
-1.109926998615264893e-01 -7.134170532226562500e-01 8.820892544463276863e-04
-1.237701922655105591e-01 -7.107962965965270996e-01 2.708639018237590790e-02
-3.168042659759521484e+00 -6.899412631988525391e+00 9.275375865399837494e-03
-3.369368076324462891e+00 -6.886956214904785156e+00 9.367005899548530579e-03
-3.455614089965820312e+00 -6.954811573028564453e+00 9.487956762313842773e-03
-3.501826524734497070e+00 -6.940619468688964844e+00 9.497730992734432220e-03
-3.537964582443237305e+00 -6.906541824340820312e+00 9.480626322329044342e-03
-3.619651079177856445e+00 -6.857299327850341797e+00 9.473295882344245911e-03
-3.641352891921997070e+00 -6.797057151794433594e+00 9.420761838555335999e-03
-3.631884098052978516e+00 -6.680580615997314453e+00 9.290036745369434357e-03
-3.664595842361450195e+00 -6.643284320831298828e+00 9.269267320632934570e-03
-3.696010112762451172e+00 -6.604093551635742188e+00 9.246054105460643768e-03
-3.729056835174560547e+00 -6.568246841430664062e+00 9.227728471159934998e-03
-3.743837118148803711e+00 -6.501046657562255859e+00 9.165420196950435638e-03
-3.777604103088378906e+00 -6.467590332031250000e+00 9.150759316980838776e-03
-3.832506656646728516e+00 -6.470101356506347656e+00 9.187411516904830933e-03
-3.835575580596923828e+00 -6.385599613189697266e+00 9.100668132305145264e-03
-3.863241195678710938e+00 -6.343155384063720703e+00 9.073791094124317169e-03
-3.909970283508300781e+00 -6.332094669342041016e+00 9.092116728425025940e-03
-3.942382335662841797e+00 -6.297812461853027344e+00 9.077455848455429077e-03
-3.992202281951904297e+00 -6.291235446929931641e+00 9.103111922740936279e-03
-4.022074222564697266e+00 -6.253164768218994141e+00 9.083564393222332001e-03
-4.062551498413085938e+00 -6.231718540191650391e+00 9.088451042771339417e-03
-4.095199584960937500e+00 -6.198330879211425781e+00 9.076233953237533569e-03
-3.995179176330566406e+00 -5.967011928558349609e+00 8.773244917392730713e-03
-4.028909683227539062e+00 -5.938248157501220703e+00 8.767135441303253174e-03
-4.102093219757080078e+00 -5.966979026794433594e+00 8.846548385918140411e-03
-4.205500602722167969e+00 -6.037702560424804688e+00 8.989490568637847900e-03
-4.114467620849609375e+00 -5.830401420593261719e+00 8.718267083168029785e-03
-3.961732387542724609e+00 -5.541475772857666016e+00 8.322426117956638336e-03
-4.186292648315429688e+00 -5.780281543731689453e+00 8.719488978385925293e-03
-4.234694004058837891e+00 -5.772224426269531250e+00 8.746366947889328003e-03
-4.407813549041748047e+00 -5.931542873382568359e+00 9.028586558997631073e-03
-4.302202224731445312e+00 -5.715828895568847656e+00 8.740258403122425079e-03
-4.104388713836669922e+00 -5.383941650390625000e+00 8.271113969385623932e-03
-3.737668037414550781e+00 -4.840995788574218750e+00 7.472102064639329910e-03
-4.297039985656738281e+00 -5.495448589324951172e+00 8.522789925336837769e-03
-4.328815937042236328e+00 -5.466627597808837891e+00 8.519125171005725861e-03
-4.361025810241699219e+00 -5.438402652740478516e+00 8.516681380569934845e-03
-4.360273361206054688e+00 -5.369621753692626953e+00 8.450708352029323578e-03
-4.391233444213867188e+00 -5.340449810028076172e+00 8.447042666375637054e-03
-4.432237148284912109e+00 -5.323395729064941406e+00 8.462925441563129425e-03
-4.458371639251708984e+00 -5.288454055786132812e+00 8.450708352029323578e-03
-4.455029487609863281e+00 -5.219165802001953125e+00 8.383513428270816803e-03
-4.450352191925048828e+00 -5.149363040924072266e+00 8.315095677971839905e-03
-4.509521961212158203e+00 -5.153566837310791016e+00 8.366408757865428925e-03
-4.523817539215087891e+00 -5.106338977813720703e+00 8.334644138813018799e-03
-4.562408924102783203e+00 -5.086673736572265625e+00 8.348082192242145538e-03
-4.576055526733398438e+00 -5.039335250854492188e+00 8.316317573189735413e-03
-4.571697235107421875e+00 -4.972880840301513672e+00 8.252787403762340546e-03
-4.610980987548828125e+00 -4.954251766204833984e+00 8.268670178949832916e-03
-4.609061717987060547e+00 -4.891658782958984375e+00 8.211248554289340973e-03
-4.638989448547363281e+00 -4.863286018371582031e+00 8.211248554289340973e-03
-4.637483596801757812e+00 -4.802359580993652344e+00 8.156270720064640045e-03
-4.611638069152832031e+00 -4.717323303222656250e+00 8.059754036366939545e-03
-7.406206130981445312e+00 -6.961583137512207031e+00 1.082197204232215881e-01
-4.629241466522216797e+00 -4.677566051483154297e+00 8.040206506848335266e-03
-4.669179439544677734e+00 -4.660376548767089844e+00 8.059754036366939545e-03
-4.575206756591796875e+00 -4.510880947113037109e+00 7.849616929888725281e-03
-4.723152637481689453e+00 -4.599936962127685547e+00 8.054867386817932129e-03
-4.660485744476318359e+00 -4.483514785766601562e+00 7.900930009782314301e-03
-4.680659294128417969e+00 -4.447945594787597656e+00 7.888711988925933838e-03
-7.622017860412597656e+00 -6.653357505798339844e+00 1.077193394303321838e-01
-4.363723278045654297e+00 -4.096107006072998047e+00 7.312055211514234543e-03
-4.593363761901855469e+00 -4.258949279785156250e+00 7.652918342500925064e-03
-4.769113063812255859e+00 -4.367790699005126953e+00 7.900930009782314301e-03
-4.807688713073730469e+00 -4.349179267883300781e+00 7.920476607978343964e-03
-4.888719081878662109e+00 -4.368237495422363281e+00 8.009662851691246033e-03
-8.044409751892089844e+00 -6.598426342010498047e+00 1.107748374342918396e-01
-4.856948852539062500e+00 -4.286545276641845703e+00 7.914368063211441040e-03
-8.252578735351562500e+00 -6.684893608093261719e+00 1.130744293332099915e-01
-4.864314079284667969e+00 -4.240235328674316406e+00 7.883825339376926422e-03
-8.262207031250000000e+00 -6.609146118164062500e+00 1.126485839486122131e-01
-4.886451244354248047e+00 -4.207046985626220703e+00 7.877716794610023499e-03
-8.208444595336914062e+00 -6.483947277069091797e+00 1.113710254430770874e-01
-4.878653049468994141e+00 -4.148481845855712891e+00 7.823959924280643463e-03
-8.291440010070800781e+00 -6.467283725738525391e+00 1.119565740227699280e-01
-4.845051288604736328e+00 -4.068949222564697266e+00 7.729887031018733978e-03
-8.241445541381835938e+00 -6.347340583801269531e+00 1.107535436749458313e-01
-4.933812141418457031e+00 -4.092131137847900391e+00 7.831290364265441895e-03
-8.243622779846191406e+00 -6.268809795379638672e+00 1.102638095617294312e-01
-4.947224140167236328e+00 -4.052276134490966797e+00 7.812964729964733124e-03
-8.267539024353027344e+00 -6.207303047180175781e+00 1.100721806287765503e-01
-4.978992462158203125e+00 -4.027504444122314453e+00 7.823959924280643463e-03
-8.281371116638183594e+00 -6.138593196868896484e+00 1.097527816891670227e-01
-4.992672920227050781e+00 -3.988140106201171875e+00 7.806856185197830200e-03
-8.335827827453613281e+00 -6.100065708160400391e+00 1.099763661623001099e-01
-5.023330688476562500e+00 -3.962385177612304688e+00 7.816629484295845032e-03
-8.587898254394531250e+00 -6.203975677490234375e+00 1.127976253628730774e-01
-5.052282333374023438e+00 -3.935174942016601562e+00 7.823959924280643463e-03
-8.258626937866210938e+00 -5.889326095581054688e+00 1.079961434006690979e-01
-5.094564914703369141e+00 -3.918122291564941406e+00 7.852060720324516296e-03
-8.539095878601074219e+00 -6.010635852813720703e+00 1.111793965101242065e-01
-5.124084949493408203e+00 -3.891022205352783203e+00 7.860612124204635620e-03
-7.977980136871337891e+00 -5.542775630950927734e+00 1.034288778901100159e-01
-5.131061077117919922e+00 -3.846910953521728516e+00 7.834956049919128418e-03
-8.149562835693359375e+00 -5.588156700134277344e+00 1.052068173885345459e-01
-5.279152870178222656e+00 -3.907570838928222656e+00 8.024323731660842896e-03
-8.312059402465820312e+00 -5.624911308288574219e+00 1.068569943308830261e-01
-5.168193340301513672e+00 -3.776575565338134766e+00 7.820295169949531555e-03
-1.123515510559082031e+01 -6.929580211639404297e+00 2.672873139381408691e-01
-8.427909851074218750e+00 -5.628224849700927734e+00 1.079003289341926575e-01
-5.164505481719970703e+00 -3.725486755371093750e+00 7.779978215694427490e-03
-4.076500415802001953e+00 -2.282366037368774414e+00 1.386600285768508911e-01
-1.128258705139160156e+01 -6.863629817962646484e+00 2.674087584018707275e-01
-8.695239067077636719e+00 -5.729916095733642578e+00 1.108706519007682800e-01
-5.191339969635009766e+00 -3.696627855300903320e+00 7.786086760461330414e-03
-4.116682529449462891e+00 -2.271798372268676758e+00 1.395500153303146362e-01
-1.136478424072265625e+01 -6.818447113037109375e+00 2.683602571487426758e-01
-8.156824111938476562e+00 -5.303620815277099609e+00 1.035885736346244812e-01
-5.150928974151611328e+00 -3.620427370071411133e+00 7.692013867199420929e-03
-4.144594192504882812e+00 -2.254137516021728516e+00 1.400246769189834595e-01
-1.142705821990966797e+01 -6.760804176330566406e+00 2.688461244106292725e-01
-8.352492332458496094e+00 -5.358217239379882812e+00 1.056539639830589294e-01
-5.266713142395019531e+00 -3.653734207153320312e+00 7.831290364265441895e-03
-4.133678913116455078e+00 -2.215443372726440430e+00 1.391940265893936157e-01
-1.145796394348144531e+01 -6.684515953063964844e+00 2.686032056808471680e-01
-8.373383522033691406e+00 -5.299380302429199219e+00 1.055049151182174683e-01
-5.191668510437011719e+00 -3.554684877395629883e+00 7.687126751989126205e-03
-1.149963092803955078e+01 -6.614583969116210938e+00 2.686234414577484131e-01
-8.616946220397949219e+00 -5.379761695861816406e+00 1.081558391451835632e-01
-5.195981979370117188e+00 -3.511005163192749023e+00 7.661470212042331696e-03
-1.154173946380615234e+01 -6.544885635375976562e+00 2.686639428138732910e-01
-8.309217453002929688e+00 -5.117051124572753906e+00 1.038973182439804077e-01
-5.233235359191894531e+00 -3.489598035812377930e+00 7.684683427214622498e-03
-4.133135318756103516e+00 -2.310345411300659180e+00 9.587765485048294067e-02
-8.250720024108886719e+00 -5.011463642120361328e+00 1.027794554829597473e-01
-5.262066841125488281e+00 -3.462368726730346680e+00 7.695678621530532837e-03
-4.134974002838134766e+00 -2.278187036514282227e+00 9.559422731399536133e-02
-8.639021873474121094e+00 -5.175021171569824219e+00 1.072189584374427795e-01
-5.278180122375488281e+00 -3.426748991012573242e+00 7.688348181545734406e-03
-4.150632381439208984e+00 -2.253726720809936523e+00 9.563472867012023926e-02
-8.699885368347167969e+00 -5.139207363128662109e+00 1.075809374451637268e-01
-5.313422203063964844e+00 -3.403467655181884766e+00 7.709118071943521500e-03
-4.145870208740234375e+00 -2.218311071395874023e+00 9.520958364009857178e-02
-8.751993179321289062e+00 -5.097808361053466797e+00 1.078364551067352295e-01
-5.342658519744873047e+00 -3.376142978668212891e+00 7.721334695816040039e-03
-1.189626598358154297e+01 -6.271691799163818359e+00 2.723079025745391846e-01
-8.782239913940429688e+00 -5.043512821197509766e+00 1.078258007764816284e-01
-5.386186599731445312e+00 -3.357580423355102539e+00 7.754321675747632980e-03
-1.196823978424072266e+01 -6.216091156005859375e+00 2.730772197246551514e-01
-4.110655307769775391e+00 -2.327265739440917969e+00 5.029315873980522156e-02
-5.393057346343994141e+00 -3.316087722778320312e+00 7.734774146229028702e-03
-4.133293151855468750e+00 -2.309545993804931641e+00 2.224582135677337646e-01
-1.205778026580810547e+01 -6.168950080871582031e+00 2.742514014244079590e-01
-4.110886573791503906e+00 -2.294202327728271484e+00 5.012281611561775208e-02
-5.460330486297607422e+00 -3.311454296112060547e+00 7.801969069987535477e-03
-4.142136573791503906e+00 -2.281249761581420898e+00 2.221766263246536255e-01
-1.213736915588378906e+01 -6.115994453430175781e+00 2.752028703689575195e-01
-4.129267215728759766e+00 -2.271345138549804688e+00 5.017605051398277283e-02
-5.400732517242431641e+00 -3.230151653289794922e+00 7.688348181545734406e-03
-4.142009735107421875e+00 -2.248167276382446289e+00 2.214257121086120605e-01
-1.221049118041992188e+01 -6.059182643890380859e+00 2.760126590728759766e-01
-4.144004821777343750e+00 -2.246442079544067383e+00 5.018669366836547852e-02
-5.407530784606933594e+00 -3.189332485198974609e+00 7.670022547245025635e-03
-1.228786373138427734e+01 -6.003897190093994141e+00 2.769236564636230469e-01
-4.150655269622802734e+00 -2.217203617095947266e+00 5.010152608156204224e-02
-5.411437988281250000e+00 -3.147043466567993164e+00 7.648031227290630341e-03
-1.232987689971923828e+01 -5.930987834930419922e+00 2.770451307296752930e-01
-9.154828071594238281e+00 -4.818373203277587891e+00 1.101467013359069824e-01
-5.419368267059326172e+00 -3.107313871383666992e+00 7.632148452103137970e-03
-1.237868785858154297e+01 -5.861211299896240234e+00 2.773285508155822754e-01
-8.561937332153320312e+00 -4.439449787139892578e+00 1.026836410164833069e-01
-4.115095138549804688e+00 -2.326046228408813477e+00 5.775118712335824966e-03
-4.139547348022460938e+00 -2.308362007141113281e+00 1.779373139142990112e-01
-1.248329162597656250e+01 -5.817242145538330078e+00 2.788671255111694336e-01
-8.616622924804687500e+00 -4.400930881500244141e+00 1.030136793851852417e-01
-4.103083133697509766e+00 -2.286150932312011719e+00 5.738466512411832809e-03
-4.146627426147460938e+00 -2.279068231582641602e+00 1.776371896266937256e-01
-1.256782531738281250e+01 -5.763040065765380859e+00 2.799603044986724854e-01
-8.816761970520019531e+00 -4.435152530670166016e+00 1.050790622830390930e-01
-4.125798702239990234e+00 -2.265745401382446289e+00 5.750684067606925964e-03
-4.132415771484375000e+00 -2.238351821899414062e+00 1.764366775751113892e-01
-1.262208843231201172e+01 -5.694450855255126953e+00 2.803854644298553467e-01
-8.497941970825195312e+00 -4.209637641906738281e+00 1.009695827960968018e-01
-4.138743877410888672e+00 -2.239911556243896484e+00 5.749462638050317764e-03
-1.267872428894042969e+01 -5.626629352569580078e+00 2.808713316917419434e-01
-8.901081085205078125e+00 -4.341527462005615234e+00 1.054410338401794434e-01
-4.140939235687255859e+00 -2.208357095718383789e+00 5.733579862862825394e-03
-1.275607681274414062e+01 -5.567525386810302734e+00 2.818228006362915039e-01
-8.704003334045410156e+00 -4.179485797882080078e+00 1.028007417917251587e-01
-5.561936378479003906e+00 -2.922481536865234375e+00 7.676131092011928558e-03
-1.284879875183105469e+01 -5.514386653900146484e+00 2.831184566020965576e-01
-8.736716270446777344e+00 -4.129418849945068359e+00 1.028859168291091919e-01
-5.563778400421142578e+00 -2.880024433135986328e+00 7.654139772057533264e-03
-1.288239288330078125e+01 -5.435443878173828125e+00 2.831184566020965576e-01
-8.650371551513671875e+00 -4.023859024047851562e+00 1.015764251351356506e-01
-5.587581157684326172e+00 -2.849011182785034180e+00 7.662692107260227203e-03
-1.301062393188476562e+01 -5.395745754241943359e+00 2.852036356925964355e-01
-8.426680564880371094e+00 -3.857090711593627930e+00 9.866998344659805298e-02
-5.627298355102539062e+00 -2.825892210006713867e+00 7.693235296756029129e-03
-1.308977985382080078e+01 -5.334679126739501953e+00 2.862158417701721191e-01
-8.163896560668945312e+00 -3.676388740539550781e+00 9.532704204320907593e-02
-5.528898239135742188e+00 -2.734127759933471680e+00 7.535631768405437469e-03
-1.310648727416992188e+01 -5.247943401336669922e+00 2.858716845512390137e-01
-9.046620368957519531e+00 -4.007316589355468750e+00 1.053452193737030029e-01
-5.537478923797607422e+00 -2.696211814880371094e+00 7.524636574089527130e-03
-1.320729255676269531e+01 -5.194504261016845703e+00 2.873697876930236816e-01
-8.849190711975097656e+00 -3.855085849761962891e+00 1.027688160538673401e-01
-5.644995212554931641e+00 -2.705840110778808594e+00 7.648031227290630341e-03
-1.329767322540283203e+01 -5.136062145233154297e+00 2.886451780796051025e-01
-8.941615104675292969e+00 -3.830245494842529297e+00 1.035672873258590698e-01
-5.706711769104003906e+00 -2.692487239837646484e+00 7.709118071943521500e-03
-1.334669971466064453e+01 -5.061107635498046875e+00 2.890298366546630859e-01
-9.168614387512207031e+00 -3.861075878143310547e+00 1.059201136231422424e-01
-5.764846801757812500e+00 -2.676793575286865234e+00 7.765317335724830627e-03
-1.343559646606445312e+01 -5.000741481781005859e+00 2.902849912643432617e-01
-9.125610351562500000e+00 -3.777211189270019531e+00 1.051535829901695251e-01
-5.783891201019287109e+00 -2.642617464065551758e+00 7.768982555717229843e-03
-1.352237510681152344e+01 -4.938787937164306641e+00 2.914996743202209473e-01
-9.143056869506835938e+00 -3.718885660171508789e+00 1.050897017121315002e-01
-5.699666976928710938e+00 -2.561980247497558594e+00 7.634591776877641678e-03
-1.356277751922607422e+01 -4.859432697296142578e+00 2.917223572731018066e-01
-8.526862144470214844e+00 -3.407427072525024414e+00 9.776504337787628174e-02
-5.681439876556396484e+00 -2.511997699737548828e+00 7.589388173073530197e-03
-1.362912559509277344e+01 -4.789047718048095703e+00 2.925118803977966309e-01
-8.816612243652343750e+00 -3.460630178451538086e+00 1.008418276906013489e-01
-5.717838287353515625e+00 -2.486261129379272461e+00 7.617487572133541107e-03
-1.374994564056396484e+01 -4.736918926239013672e+00 2.944755852222442627e-01
-8.843278884887695312e+00 -3.408625364303588867e+00 1.009057089686393738e-01
-5.763329029083251953e+00 -2.464103221893310547e+00 7.657804992049932480e-03
-1.379580307006835938e+01 -4.658218860626220703e+00 2.948399782180786133e-01
-9.033302307128906250e+00 -3.418356180191040039e+00 1.028326898813247681e-01
-5.779262065887451172e+00 -2.429081439971923828e+00 7.659026887267827988e-03
-1.393518161773681641e+01 -4.610222816467285156e+00 2.972085773944854736e-01
-8.029555320739746094e+00 -2.982326984405517578e+00 9.119626879692077637e-02
-5.782042980194091797e+00 -2.388611316680908203e+00 7.643144577741622925e-03
-1.398793601989746094e+01 -4.532644748687744141e+00 2.977349460124969482e-01
-7.949997425079345703e+00 -2.897392988204956055e+00 9.008906036615371704e-02
-5.808635711669921875e+00 -2.357978105545043945e+00 7.659026887267827988e-03
-1.410125255584716797e+01 -4.473942756652832031e+00 2.995569407939910889e-01
-9.160602569580078125e+00 -3.275067567825317383e+00 1.035779267549514771e-01
-5.859219551086425781e+00 -2.336739540100097656e+00 7.706673815846443176e-03
-1.413416767120361328e+01 -4.389113903045654297e+00 2.996783852577209473e-01
-9.407939910888671875e+00 -3.298531293869018555e+00 1.061436831951141357e-01
-5.883689403533935547e+00 -2.304756164550781250e+00 7.720113266259431839e-03
-1.415604972839355469e+01 -4.300852298736572266e+00 2.995771765708923340e-01
-9.358025550842285156e+00 -3.216689586639404297e+00 1.053558662533760071e-01
-5.916387081146240234e+00 -2.275791406631469727e+00 7.744547910988330841e-03
-1.430963802337646484e+01 -4.251784801483154297e+00 3.022696971893310547e-01
-9.217439651489257812e+00 -3.105257511138916016e+00 1.035566329956054688e-01
-5.902174472808837891e+00 -2.228847980499267578e+00 7.707896176725625992e-03
-1.440650558471679688e+01 -4.184539794921875000e+00 3.037678003311157227e-01
-9.194539070129394531e+00 -3.034851551055908203e+00 1.030882000923156738e-01
-5.911988735198974609e+00 -2.191200971603393555e+00 7.703009061515331268e-03
-1.445691776275634766e+01 -4.103161811828613281e+00 3.042941391468048096e-01
-9.277687072753906250e+00 -2.999293565750122070e+00 1.038121432065963745e-01
-5.913105010986328125e+00 -2.150441169738769531e+00 7.687126751989126205e-03
-1.455504417419433594e+01 -4.034675598144531250e+00 3.058327138423919678e-01
-9.009916305541992188e+00 -2.851787090301513672e+00 1.006182506680488586e-01
-5.921479225158691406e+00 -2.112438678741455078e+00 7.681017741560935974e-03
-1.464901351928710938e+01 -3.964095115661621094e+00 3.072903156280517578e-01
-9.212546348571777344e+00 -2.853852033615112305e+00 1.026836410164833069e-01
-5.943768501281738281e+00 -2.079367637634277344e+00 7.693235296756029129e-03
-1.476489448547363281e+01 -3.898382902145385742e+00 3.092135488986968994e-01
-9.225099563598632812e+00 -2.795821189880371094e+00 1.026304066181182861e-01
-5.970603942871093750e+00 -2.047724246978759766e+00 7.711561396718025208e-03
-1.483113765716552734e+01 -3.818682670593261719e+00 3.101042807102203369e-01
-9.250708580017089844e+00 -2.741721630096435547e+00 1.027262210845947266e-01
-6.002014160156250000e+00 -2.017422914505004883e+00 7.735995575785636902e-03
-1.487756347656250000e+01 -3.733448982238769531e+00 3.105901479721069336e-01
-9.065663337707519531e+00 -2.626474618911743164e+00 1.004904955625534058e-01
-6.029477119445800781e+00 -1.985561966896057129e+00 7.755543570965528488e-03
-1.496331882476806641e+01 -3.657522201538085938e+00 3.119060397148132324e-01
-8.960379600524902344e+00 -2.536482095718383789e+00 9.914907068014144897e-02
-5.892126083374023438e+00 -1.900337100028991699e+00 7.563732098788022995e-03
-9.501040458679199219e+00 -2.626670122146606445e+00 1.049513071775436401e-01
-5.883649349212646484e+00 -1.857824563980102539e+00 7.538075093179941177e-03
-9.321001052856445312e+00 -2.515435457229614258e+00 1.027901023626327515e-01
-6.167232990264892578e+00 -1.905834317207336426e+00 7.886269129812717438e-03
-9.527723312377929688e+00 -2.508606910705566406e+00 1.048980727791786194e-01
-6.166367053985595703e+00 -1.864194989204406738e+00 7.870386354625225067e-03
-8.189274787902832031e+00 -1.482245922088623047e+00 2.470011562108993530e-01
-9.791849136352539062e+00 -2.514005661010742188e+00 1.076341718435287476e-01
-6.170017719268798828e+00 -1.824055790901184082e+00 7.860612124204635620e-03
-8.185415267944335938e+00 -1.429733753204345703e+00 2.466155141592025757e-01
-9.505408287048339844e+00 -2.378391504287719727e+00 1.043231710791587830e-01
-6.156116008758544922e+00 -1.778945088386535645e+00 7.828847505152225494e-03
-9.581999778747558594e+00 -2.335175275802612305e+00 1.050045415759086609e-01
-6.108210086822509766e+00 -1.724563717842102051e+00 7.754321675747632980e-03
-9.026975631713867188e+00 -2.141321897506713867e+00 9.877644479274749756e-02
-6.126389503479003906e+00 -1.689178466796875000e+00 7.764095906168222427e-03
-9.647933006286621094e+00 -2.226181507110595703e+00 1.054197400808334351e-01
-6.207130432128906250e+00 -1.670527338981628418e+00 7.853281684219837189e-03
-8.178087234497070312e+00 -1.526286721229553223e+00 1.684539616107940674e-01
-9.417485237121582031e+00 -2.112231254577636719e+00 1.027581617236137390e-01
-6.237575054168701172e+00 -1.637742638587951660e+00 7.878938689827919006e-03
-8.208945274353027344e+00 -1.479980826377868652e+00 1.688993424177169800e-01
-9.726307868957519531e+00 -2.118900060653686523e+00 1.059839949011802673e-01
-6.311444282531738281e+00 -1.615807652473449707e+00 7.959572598338127136e-03
-8.211962699890136719e+00 -1.428555846214294434e+00 1.687778830528259277e-01
-9.756735801696777344e+00 -2.062903881072998047e+00 1.061756312847137451e-01
-6.261083602905273438e+00 -1.562042832374572754e+00 7.883825339376926422e-03
-9.810351371765136719e+00 -2.011434078216552734e+00 1.066227704286575317e-01
-6.323995590209960938e+00 -1.536582112312316895e+00 7.951020263135433197e-03
-9.901951789855957031e+00 -1.966982126235961914e+00 1.074851229786872864e-01
-6.308975696563720703e+00 -1.491996407508850098e+00 7.920476607978343964e-03
-9.704677581787109375e+00 -1.865972042083740234e+00 1.052174568176269531e-01
-6.160134315490722656e+00 -1.416942477226257324e+00 7.722556591033935547e-03
-8.198043823242187500e+00 -1.524181723594665527e+00 8.877956122159957886e-02
-6.383412837982177734e+00 -1.427117705345153809e+00 7.991337217390537262e-03
-8.170825958251953125e+00 -1.467311263084411621e+00 8.838564157485961914e-02
-6.351005077362060547e+00 -1.379010915756225586e+00 7.940024137496948242e-03
-8.182631492614746094e+00 -1.417660593986511230e+00 8.841758221387863159e-02
-6.487532138824462891e+00 -1.367026567459106445e+00 8.100070990622043610e-03
-9.981300354003906250e+00 -1.666267752647399902e+00 1.077406406402587891e-01
-6.372348308563232422e+00 -1.301971435546875000e+00 7.946133613586425781e-03
-9.990348815917968750e+00 -1.604833602905273438e+00 1.077299863100051880e-01
-6.364521980285644531e+00 -1.259740352630615234e+00 7.926586084067821503e-03
-1.020556259155273438e+01 -1.575231075286865234e+00 1.099444255232810974e-01
-6.398649692535400391e+00 -1.225744485855102539e+00 7.959572598338127136e-03
-1.021800327301025391e+01 -1.513020753860473633e+00 1.099763661623001099e-01
-6.419816017150878906e+00 -1.189009547233581543e+00 7.976676337420940399e-03
-8.250623703002929688e+00 -1.478761553764343262e+00 3.146823346614837646e-01
-1.019145298004150391e+01 -1.445241451263427734e+00 1.095930933952331543e-01
-6.436834812164306641e+00 -1.151356697082519531e+00 7.988894358277320862e-03
-9.875120162963867188e+00 -1.338624000549316406e+00 1.061011031270027161e-01
-6.457574367523193359e+00 -1.114219784736633301e+00 8.005998097360134125e-03
-1.023122978210449219e+01 -1.323017239570617676e+00 1.098379567265510559e-01
-6.465275764465332031e+00 -1.074739933013916016e+00 8.007219992578029633e-03
-1.012700748443603516e+01 -1.246411800384521484e+00 1.086349263787269592e-01
-6.468785762786865234e+00 -1.034575700759887695e+00 8.003554306924343109e-03
-1.014638328552246094e+01 -1.185642957687377930e+00 1.087626814842224121e-01
-6.495769023895263672e+00 -9.980536699295043945e-01 8.029211312532424927e-03
-1.013557720184326172e+01 -1.121384263038635254e+00 1.085710525512695312e-01
-6.545300006866455078e+00 -9.645926356315612793e-01 8.082967251539230347e-03
-9.837939262390136719e+00 -1.027390956878662109e+00 1.053132712841033936e-01
-6.557036876678466797e+00 -9.252516031265258789e-01 8.090297691524028778e-03
-1.026003170013427734e+01 -1.007869362831115723e+00 1.097634360194206238e-01
-6.575473785400390625e+00 -8.867383599281311035e-01 8.106179535388946533e-03
-1.017142772674560547e+01 -9.361894130706787109e-01 1.087520271539688110e-01
-6.593684673309326172e+00 -8.480336070060729980e-01 8.122062310576438904e-03
-1.014111614227294922e+01 -8.706818222999572754e-01 1.083687692880630493e-01
-6.608690261840820312e+00 -8.087743520736694336e-01 8.134280331432819366e-03
-1.048218345642089844e+01 -8.352060317993164062e-01 1.119565740227699280e-01
-6.627434730529785156e+00 -7.698242664337158203e-01 8.151384070515632629e-03
-1.008621501922607422e+01 -7.414042949676513672e-01 1.076767519116401672e-01
-6.648931503295898438e+00 -7.310023903846740723e-01 8.172153495252132416e-03
-1.047069168090820312e+01 -7.050997614860534668e-01 1.117330044507980347e-01
-6.685121059417724609e+00 -6.934934258460998535e-01 8.211248554289340973e-03
-1.056864070892333984e+01 -6.465793251991271973e-01 1.127337589859962463e-01
-6.717118263244628906e+00 -6.551794409751892090e-01 8.245457895100116730e-03
-1.052448368072509766e+01 -5.790822505950927734e-01 1.122227311134338379e-01
-6.730970382690429688e+00 -6.148613691329956055e-01 8.257674984633922577e-03
-1.057478046417236328e+01 -5.167883038520812988e-01 1.127231046557426453e-01
-6.732623577117919922e+00 -5.733796358108520508e-01 8.255231194198131561e-03
-1.060872173309326172e+01 -4.532160460948944092e-01 1.130531430244445801e-01
-6.724052429199218750e+00 -5.311133265495300293e-01 8.240570314228534698e-03
-1.058632183074951172e+01 -3.871999084949493408e-01 1.127869859337806702e-01
-6.530704975128173828e+00 -4.755384624004364014e-01 7.999889552593231201e-03
-1.031763935089111328e+01 -3.139932155609130859e-01 1.099018380045890808e-01
-6.671194076538085938e+00 -4.446352124214172363e-01 8.168488740921020508e-03
-1.056628417968750000e+01 -2.566774785518646240e-01 1.125314757227897644e-01
-6.614904403686523438e+00 -4.001308083534240723e-01 8.096406236290931702e-03
-1.061364936828613281e+01 -1.926740258932113647e-01 1.130212023854255676e-01
-6.832917213439941406e+00 -3.712536394596099854e-01 8.360300213098526001e-03
-1.067262554168701172e+01 -1.282431185245513916e-01 1.136386916041374207e-01
-6.885008335113525391e+00 -3.317269086837768555e-01 8.421386592090129852e-03
-1.069820880889892578e+01 -6.290167570114135742e-02 1.139048486948013306e-01
-6.770017623901367188e+00 -2.845615744590759277e-01 8.278444409370422363e-03
-1.103137493133544922e+01 2.827840391546487808e-03 1.174500659108161926e-01
-6.667703151702880859e+00 -2.392862886190414429e-01 8.151384070515632629e-03
-1.096515464782714844e+01 7.009316980838775635e-02 1.167474091053009033e-01
-6.923933029174804688e+00 -2.059511095285415649e-01 8.462925441563129425e-03
-1.097051715850830078e+01 1.374479383230209351e-01 1.168112829327583313e-01
-6.840090274810791016e+00 -1.614569574594497681e-01 8.359078317880630493e-03
-1.097846603393554688e+01 2.049271464347839355e-01 1.169071123003959656e-01
-6.805956840515136719e+00 -1.188726872205734253e-01 8.316317573189735413e-03
-1.103498077392578125e+01 2.737240493297576904e-01 1.175245940685272217e-01
-6.818557739257812500e+00 -7.724581658840179443e-02 8.330978453159332275e-03
-1.083619880676269531e+01 3.353352248668670654e-01 1.154272705316543579e-01
-6.918901920318603516e+00 -3.592571243643760681e-02 8.453151211142539978e-03
-1.083093929290771484e+01 4.017073810100555420e-01 1.153953298926353455e-01
-6.996992111206054688e+00 6.602143868803977966e-03 8.548445999622344971e-03
-1.088721275329589844e+01 4.707055389881134033e-01 1.160234659910202026e-01
-6.991819858551025391e+00 4.949935525655746460e-02 8.542337454855442047e-03
-1.097799968719482422e+01 5.421355366706848145e-01 1.170242130756378174e-01
-6.991384506225585938e+00 9.239942580461502075e-02 8.542337454855442047e-03
-1.103037643432617188e+01 6.125901341438293457e-01 1.176204085350036621e-01
-6.885705947875976562e+00 1.332642585039138794e-01 8.414056152105331421e-03
-1.102241802215576172e+01 6.800134181976318359e-01 1.175778210163116455e-01
-6.998721599578857422e+00 1.784168779850006104e-01 8.553333580493927002e-03
-1.122112560272216797e+01 1.581395387649536133e+00 3.363262414932250977e-01
-1.104796791076660156e+01 7.496637701988220215e-01 1.178972125053405762e-01
-7.111437797546386719e+00 2.249612957239151001e-01 8.692610077559947968e-03
-1.124878978729248047e+01 1.655748367309570312e+00 3.374535441398620605e-01
-1.138121509552001953e+01 8.424623608589172363e-01 1.215063035488128662e-01
-7.184870243072509766e+00 2.714232802391052246e-01 8.784241043031215668e-03
-1.140274429321289062e+01 9.144385457038879395e-01 1.217937618494033813e-01
-7.115134716033935547e+00 3.125197887420654297e-01 8.701162412762641907e-03
-1.140090370178222656e+01 9.847314357757568359e-01 1.218363419175148010e-01
-7.194980621337890625e+00 3.602724075317382812e-01 8.801344782114028931e-03
-1.166049575805664062e+01 1.079273939132690430e+00 1.246789097785949707e-01
-7.152698040008544922e+00 4.021677076816558838e-01 8.752475492656230927e-03
-1.169445323944091797e+01 1.154830098152160645e+00 1.251154094934463501e-01
-7.235928535461425781e+00 4.514028429985046387e-01 8.857544511556625366e-03
-1.124049472808837891e+01 1.592003941535949707e+00 2.298755794763565063e-01
-1.151112365722656250e+01 1.208090543746948242e+00 1.232310160994529724e-01
-7.089359760284423828e+00 4.859456717967987061e-01 8.681614883244037628e-03
-1.125721931457519531e+01 1.664893746376037598e+00 2.304221987724304199e-01
-1.153231430053710938e+01 1.281902313232421875e+00 1.235397532582283020e-01
-7.022422313690185547e+00 5.246676802635192871e-01 8.603423833847045898e-03
-1.149841213226318359e+01 1.349608540534973145e+00 1.232629567384719849e-01
-7.098810672760009766e+00 5.741963982582092285e-01 8.701162412762641907e-03
-1.106517028808593750e+01 1.367638349533081055e+00 1.187063306570053101e-01
-7.271486282348632812e+00 6.330955624580383301e-01 8.917408995330333710e-03
-1.183499240875244141e+01 1.536571979522705078e+00 1.270636767148971558e-01
-7.255516529083251953e+00 6.765864491462707520e-01 8.902748115360736847e-03
-1.177877330780029297e+01 1.602824330329895020e+00 1.265633106231689453e-01
-7.270135402679443359e+00 7.229729294776916504e-01 8.925961330533027649e-03
-1.121928501129150391e+01 1.596865534782409668e+00 1.206546053290367126e-01
-7.274513244628906250e+00 7.685135602951049805e-01 8.936956524848937988e-03
-1.121125411987304688e+01 1.665969848632812500e+00 1.206759065389633179e-01
-7.103695392608642578e+00 7.945709824562072754e-01 8.732927963137626648e-03
-1.165735244750976562e+01 1.805434703826904297e+00 1.255944967269897461e-01
-7.143375873565673828e+00 8.434199690818786621e-01 8.787905797362327576e-03
-1.186620140075683594e+01 1.912408590316772461e+00 1.279686242341995239e-01
-7.269058227539062500e+00 9.035168290138244629e-01 8.949173614382743835e-03
-1.216194152832031250e+01 2.036711215972900391e+00 1.312902718782424927e-01
-7.508299827575683594e+00 9.800720810890197754e-01 9.250941686332225800e-03
-1.239353942871093750e+01 2.153755903244018555e+00 1.339305490255355835e-01
-7.498181343078613281e+00 1.025581598281860352e+00 9.246054105460643768e-03
-1.234958362579345703e+01 2.224266052246093750e+00 1.336005181074142456e-01
-7.532334327697753906e+00 1.077375531196594238e+00 9.296145290136337280e-03
-1.212534046173095703e+01 2.260777473449707031e+00 1.313222050666809082e-01
-7.473163127899169922e+00 1.115746617317199707e+00 9.231393225491046906e-03
-1.231252193450927734e+01 2.373943090438842773e+00 1.335047036409378052e-01
-7.467164039611816406e+00 1.161733746528625488e+00 9.232615120708942413e-03
-1.261644458770751953e+01 2.512929201126098633e+00 1.369647532701492310e-01
-7.541829109191894531e+00 1.220792174339294434e+00 9.334019385278224945e-03
-1.240195655822753906e+01 2.549422025680541992e+00 1.348035484552383423e-01
-7.472068786621093750e+00 1.256596803665161133e+00 9.257049299776554108e-03
-1.224717426300048828e+01 2.596027135848999023e+00 1.332917660474777222e-01
-7.484905242919921875e+00 1.306030631065368652e+00 9.282706305384635925e-03
-1.278297424316406250e+01 2.791667699813842773e+00 1.393069475889205933e-01
-7.311431884765625000e+00 1.322039842605590820e+00 9.077455848455429077e-03
-1.249341487884521484e+01 2.808854341506958008e+00 1.363366246223449707e-01
-7.692422866821289062e+00 1.439728140830993652e+00 9.561260230839252472e-03
-1.218659877777099609e+01 2.818539381027221680e+00 1.331746727228164673e-01
-7.699152946472167969e+00 1.489940762519836426e+00 9.580808691680431366e-03
-1.273039531707763672e+01 3.026718616485595703e+00 1.393175870180130005e-01
-7.615340232849121094e+00 1.522256612777709961e+00 9.487956762313842773e-03
-1.284757900238037109e+01 3.137990236282348633e+00 1.408080756664276123e-01
-7.661681175231933594e+00 1.580470442771911621e+00 9.557595476508140564e-03
-1.314718437194824219e+01 3.296780109405517578e+00 1.443106979131698608e-01
-7.838659763336181641e+00 1.667186379432678223e+00 9.790945798158645630e-03
-1.257762336730957031e+01 3.236113071441650391e+00 1.382742524147033691e-01
-7.874194145202636719e+00 1.725311756134033203e+00 9.848368354141712189e-03
-1.303322315216064453e+01 3.438735723495483398e+00 1.435122340917587280e-01
-7.857606410980224609e+00 1.772274255752563477e+00 9.841036982834339142e-03
-1.323968315124511719e+01 3.580243587493896484e+00 1.460247635841369629e-01
-7.809566974639892578e+00 1.811866044998168945e+00 9.794611483812332153e-03
-1.321264743804931641e+01 3.660078525543212891e+00 1.459715217351913452e-01
-7.796357154846191406e+00 1.859286665916442871e+00 9.792167693376541138e-03
-1.318897914886474609e+01 3.740808248519897461e+00 1.459608823060989380e-01
-7.867361068725585938e+00 1.927314162254333496e+00 9.896014817059040070e-03
-1.252813529968261719e+01 3.636573791503906250e+00 1.388917267322540283e-01
-7.834051132202148438e+00 1.970185279846191406e+00 9.869136847555637360e-03
-1.315741825103759766e+01 3.906929731369018555e+00 1.461312174797058105e-01
-7.803417205810546875e+00 2.013469934463500977e+00 9.845923632383346558e-03
-1.313606834411621094e+01 3.988460302352905273e+00 1.461631655693054199e-01
-7.799617290496826172e+00 2.063615083694458008e+00 9.856919758021831512e-03
-1.317628860473632812e+01 4.089140415191650391e+00 1.468871086835861206e-01
-7.857264041900634766e+00 2.130538225173950195e+00 9.946106001734733582e-03
-7.904745101928710938e+00 2.195569515228271484e+00 1.002307515591382980e-02
-1.369780063629150391e+01 4.435987472534179688e+00 1.532961875200271606e-01
-7.942102909088134766e+00 2.258527755737304688e+00 1.008782628923654556e-02
-1.470991039276123047e+01 4.863680362701416016e+00 1.649538874626159668e-01
-7.975144386291503906e+00 2.320909023284912109e+00 1.014769170433282852e-02
-1.350495243072509766e+01 4.557385921478271484e+00 1.517524719238281250e-01
-8.110269546508789062e+00 2.414308786392211914e+00 1.033828221261501312e-02
-8.142178535461425781e+00 2.478295087814331055e+00 1.039814669638872147e-02
-8.141141891479492188e+00 2.532663345336914062e+00 1.041647139936685562e-02
-8.121636390686035156e+00 2.581357240676879883e+00 1.041158474981784821e-02
-8.211221694946289062e+00 2.665413141250610352e+00 1.054719742387533188e-02
-8.203254699707031250e+00 2.718577146530151367e+00 1.055819261819124222e-02
-1.473435592651367188e+01 5.584370136260986328e+00 1.677645146846771240e-01
-8.319986343383789062e+00 2.814035892486572266e+00 1.073045656085014343e-02
-1.284986972808837891e+01 5.501738071441650391e+00 2.830374836921691895e-01
-8.285548210144042969e+00 2.859161853790283203e+00 1.070846524089574814e-02
-1.283512020111083984e+01 5.588861942291259766e+00 2.834626138210296631e-01
-8.419716835021972656e+00 2.963398694992065430e+00 1.090516429394483566e-02
-8.205600738525390625e+00 2.944747447967529297e+00 1.065104454755783081e-02
-8.394926071166992188e+00 3.070964574813842773e+00 1.092104613780975342e-02
-6.316758155822753906e+00 3.170741558074951172e+00 2.097700089216232300e-01
-8.388106346130371094e+00 3.126958131790161133e+00 1.093692891299724579e-02
-6.314105033874511719e+00 3.218064785003662109e+00 2.103336751461029053e-01
-8.565079689025878906e+00 3.252927303314208984e+00 1.119349244982004166e-02
-1.284615325927734375e+01 5.510596275329589844e+00 1.488247364759445190e-01
-8.560814857482910156e+00 3.311553478240966797e+00 1.121426187455654144e-02
-1.280934906005859375e+01 5.588115215301513672e+00 1.487928032875061035e-01
-8.595229148864746094e+00 3.385642290115356445e+00 1.128634437918663025e-02
-8.726510047912597656e+00 3.499357461929321289e+00 1.148670725524425507e-02
-8.792830467224121094e+00 3.588735103607177734e+00 1.160277239978313446e-02
-6.285693645477294922e+00 3.160558462142944336e+00 1.424601078033447266e-01
-8.797426223754882812e+00 3.653742313385009766e+00 1.163820177316665649e-02
-6.168231964111328125e+00 3.149060726165771484e+00 1.402332186698913574e-01
-8.821820259094238281e+00 3.727503538131713867e+00 1.170051097869873047e-02
-6.258862495422363281e+00 3.243896484375000000e+00 1.427435278892517090e-01
-8.960481643676757812e+00 3.851058244705200195e+00 1.191553473472595215e-02
-8.911943435668945312e+00 3.895153045654296875e+00 1.188254822045564651e-02
-9.025862693786621094e+00 4.011084079742431641e+00 1.206703018397092819e-02
-6.316297054290771484e+00 3.132946968078613281e+00 7.506711781024932861e-02
-9.171497344970703125e+00 4.143378257751464844e+00 1.229549292474985123e-02
-6.300527095794677734e+00 3.173443555831909180e+00 7.510969787836074829e-02
-9.171346664428710938e+00 4.211259841918945312e+00 1.232970133423805237e-02
-6.264911651611328125e+00 3.203847885131835938e+00 7.491806894540786743e-02
-9.079182624816894531e+00 4.236586093902587891e+00 1.224051509052515030e-02
-6.244247913360595703e+00 3.241767644882202148e+00 7.490742206573486328e-02
-9.419871330261230469e+00 4.466148853302001953e+00 1.273653749376535416e-02
-9.423823356628417969e+00 4.539052009582519531e+00 1.277929730713367462e-02
-9.425436973571777344e+00 4.611292362213134766e+00 1.281961519271135330e-02
-6.306436061859130859e+00 3.133457899093627930e+00 8.603423833847045898e-03
-6.389070510864257812e+00 3.220749855041503906e+00 2.686129510402679443e-01
-6.303161144256591797e+00 3.180202722549438477e+00 8.625415153801441193e-03
-6.292686462402343750e+00 3.220736742019653320e+00 2.653865814208984375e-01
-6.263058662414550781e+00 3.208332061767578125e+00 8.597315289080142975e-03
-6.257450103759765625e+00 3.254083156585693359e+00 8.616863749921321869e-03
-9.600573539733886719e+00 5.067698478698730469e+00 1.326310355216264725e-02
-9.944806098937988281e+00 5.327680110931396484e+00 1.378356013447046280e-02
-9.990999221801757812e+00 5.431586742401123047e+00 1.389351673424243927e-02
-1.014136314392089844e+01 5.594220161437988281e+00 1.415007933974266052e-02
-1.029533481597900391e+01 5.761829376220703125e+00 1.441397331655025482e-02
-1.006586265563964844e+01 5.714793205261230469e+00 1.414152793586254120e-02
-1.028364753723144531e+01 5.922169685363769531e+00 1.449827291071414948e-02
-1.026438617706298828e+01 5.995244503021240234e+00 1.452270802110433578e-02
-1.026870441436767578e+01 6.082575321197509766e+00 1.458134967833757401e-02
-1.034605979919433594e+01 6.214466571807861328e+00 1.474506128579378128e-02
-1.030773353576660156e+01 6.277831554412841797e+00 1.474506128579378128e-02
-8.215668678283691406e+00 5.932891368865966797e+00 2.051976174116134644e-01
-1.063659095764160156e+01 6.567930221557617188e+00 1.527284923940896988e-02
-1.062745285034179688e+01 6.652704238891601562e+00 1.531805377453565598e-02
-1.061598491668701172e+01 6.736540317535400391e+00 1.536081451922655106e-02
-1.058117866516113281e+01 6.805879592895507812e+00 1.537058781832456589e-02
-1.060456085205078125e+01 6.913273334503173828e+00 1.546588260680437088e-02
-8.233062744140625000e+00 5.954065322875976562e+00 1.081771329045295715e-01
-8.197181701660156250e+00 6.005061626434326172e+00 1.081877797842025757e-01
-2.949356794357299805e+00 2.538386583328247070e+00 1.154906898736953735e-01
-8.236559867858886719e+00 5.888511657714843750e+00 1.237001921981573105e-02
-3.053498268127441406e+00 2.567046165466308594e+00 8.077530562877655029e-02
-8.226190567016601562e+00 5.957709312438964844e+00 1.240911427885293961e-02
-2.976022243499755859e+00 2.533241271972656250e+00 7.913550734519958496e-02
-8.182223320007324219e+00 6.002748489379882812e+00 1.239811908453702927e-02
-2.924827814102172852e+00 2.520776748657226562e+00 7.818401604890823364e-02
-3.028457164764404297e+00 2.578729629516601562e+00 1.868836730718612671e-01
-3.014090538024902344e+00 2.598567962646484375e+00 1.869775354862213135e-01
-2.995079278945922852e+00 2.614385604858398438e+00 1.867898106575012207e-01
-2.958440780639648438e+00 2.585134506225585938e+00 4.182934388518333435e-02
-3.014054536819458008e+00 2.509489297866821289e+00 4.791625775396823883e-03
-3.003951787948608398e+00 2.532447814941406250e+00 4.800178110599517822e-03
-3.032001256942749023e+00 2.586257934570312500e+00 1.496129035949707031e-01
-3.002807617187500000e+00 2.563167572021484375e+00 4.823390860110521317e-03
-3.022881746292114258e+00 2.610691785812377930e+00 1.499505490064620972e-01
-2.989293813705444336e+00 2.583505868911743164e+00 4.827056080102920532e-03
-3.012071847915649414e+00 2.633795022964477539e+00 1.502131670713424683e-01
-2.971127510070800781e+00 2.599823713302612305e+00 4.823390860110521317e-03
-2.946137189865112305e+00 2.610047578811645508e+00 4.808729980140924454e-03
-8.989387750625610352e-02 6.951722502708435059e-01 7.463061716407537460e-03
-4.426839202642440796e-02 7.114899158477783203e-01 4.022981971502304077e-02
-1.411009579896926880e-02 7.225440740585327148e-01 2.144869603216648102e-02
-5.215492099523544312e-03 7.178869247436523438e-01 6.672449409961700439e-02
-3.034528717398643494e-02 7.103118300437927246e-01 7.569524925202131271e-03
-3.524366021156311035e-02 7.740760445594787598e-01 1.732057332992553711e-01
-3.067122399806976318e-02 6.977705359458923340e-01 1.030127257108688354e-01
