-3.144261360168457031e+00 -5.344160079956054688e+00 1.207504987716674805e+00
-2.859538316726684570e+00 -5.292882919311523438e+00 1.112817168235778809e+00
-3.646579265594482422e+00 -5.270136356353759766e+00 1.132339596748352051e+00
-3.345114469528198242e+00 -5.232495784759521484e+00 1.034804344177246094e+00
-3.176049470901489258e+00 -5.396033763885498047e+00 9.827401638031005859e-01
-2.862751245498657227e+00 -5.289995193481445312e+00 8.871350884437561035e-01
-3.650537252426147461e+00 -5.273889064788818359e+00 8.934494256973266602e-01
-3.418422698974609375e+00 -5.343055248260498047e+00 8.215625882148742676e-01
-3.167460203170776367e+00 -5.370714187622070312e+00 7.490184307098388672e-01
-2.861925363540649414e+00 -5.281860351562500000e+00 6.642826795578002930e-01
-3.607258558273315430e+00 -5.207479476928710938e+00 6.490550041198730469e-01
-3.407211780548095703e+00 -5.321439743041992188e+00 5.872865915298461914e-01
-3.158777236938476562e+00 -5.351720809936523438e+00 5.185612440109252930e-01
-2.823890686035156250e+00 -5.205156326293945312e+00 4.379891455173492432e-01
-3.661050319671630859e+00 -5.281194686889648438e+00 4.234393239021301270e-01
-3.367150545120239258e+00 -5.254831314086914062e+00 3.522081077098846436e-01
-3.168643236160278320e+00 -5.364158153533935547e+00 2.927156090736389160e-01
-3.398523330688476562e+00 -6.256534099578857422e+00 2.672998905181884766e-01
-3.807852983474731445e+00 -5.490915775299072266e+00 1.983188539743423462e-01
-3.487529993057250977e+00 -5.438517093658447266e+00 1.308195590972900391e-01
-3.791994571685791016e+00 -5.407051563262939453e+00 1.946226358413696289e+00
-2.907137155532836914e+00 -5.324946880340576172e+00 1.595000505447387695e+00
-3.747735261917114258e+00 -5.345926284790039062e+00 1.658088684082031250e+00
-3.384903907775878906e+00 -5.231826782226562500e+00 1.515580534934997559e+00
-3.188372611999511719e+00 -5.352327346801757812e+00 1.452063202857971191e+00
-2.921361207962036133e+00 -5.339915752410888672e+00 1.360559463500976562e+00
-3.746475219726562500e+00 -5.346113681793212891e+00 1.401902079582214355e+00
-3.369501113891601562e+00 -5.204035758972167969e+00 1.268093228340148926e+00
-3.184537172317504883e+00 -5.337410449981689453e+00 1.210372209548950195e+00
-2.900942087173461914e+00 -5.291619777679443359e+00 1.116273045539855957e+00
-3.718417406082153320e+00 -5.304105758666992188e+00 1.144518971443176270e+00
-3.356237888336181641e+00 -5.179587364196777344e+00 1.028394341468811035e+00
-3.215681314468383789e+00 -5.387472152709960938e+00 9.847558736801147461e-01
-2.903251171112060547e+00 -5.287071704864501953e+00 8.896155357360839844e-01
-3.714675188064575195e+00 -5.296801090240478516e+00 9.011754393577575684e-01
-3.385314226150512695e+00 -5.220466136932373047e+00 8.058917522430419922e-01
-3.209018230438232422e+00 -5.365663528442382812e+00 7.510460615158081055e-01
-2.902900218963623047e+00 -5.279878139495849609e+00 6.662610173225402832e-01
-3.680289268493652344e+00 -5.243875026702880859e+00 6.563935279846191406e-01
-3.371502161026000977e+00 -5.195193290710449219e+00 5.756260156631469727e-01
-3.200767755508422852e+00 -5.347629547119140625e+00 5.200580954551696777e-01
-2.842790603637695312e+00 -5.164143085479736328e+00 4.359976351261138916e-01
-3.748442649841308594e+00 -5.337020874023437500e+00 4.297514557838439941e-01
-3.409118890762329102e+00 -5.249143600463867188e+00 3.532223105430603027e-01
-3.225109577178955078e+00 -5.384033203125000000e+00 2.948744595050811768e-01
-3.412248134613037109e+00 -6.190929889678955078e+00 2.653865814208984375e-01
-3.849518060684204102e+00 -5.478898048400878906e+00 1.987341791391372681e-01
-3.567691564559936523e+00 -5.489108562469482422e+00 1.325605809688568115e-01
-3.874546051025390625e+00 -5.453275680541992188e+00 1.971384644508361816e+00
-3.465397834777832031e+00 -5.288880825042724609e+00 1.791633248329162598e+00
-3.272331476211547852e+00 -5.423803329467773438e+00 1.728168725967407227e+00
-2.951003074645996094e+00 -5.327312946319580078e+00 1.601102828979492188e+00
-3.437189102172851562e+00 -5.241836547851562500e+00 1.524561047554016113e+00
-3.267982959747314453e+00 -5.410189628601074219e+00 1.473173379898071289e+00
-2.969701290130615234e+00 -5.350048542022705078e+00 1.367758274078369141e+00
-3.819393873214721680e+00 -5.379627227783203125e+00 1.416809201240539551e+00
-3.431469678878784180e+00 -5.229132652282714844e+00 1.279315352439880371e+00
-3.253301382064819336e+00 -5.377397537231445312e+00 1.223943948745727539e+00
-2.943871974945068359e+00 -5.292625904083251953e+00 1.120274662971496582e+00
-3.771990537643432617e+00 -5.310895919799804688e+00 1.150956630706787109e+00
-3.428565979003906250e+00 -5.220733642578125000e+00 1.040721297264099121e+00
-3.264023542404174805e+00 -5.392994403839111328e+00 9.894075393676757812e-01
-2.966452598571777344e+00 -5.324468612670898438e+00 8.989537954330444336e-01
-3.770625591278076172e+00 -5.307011604309082031e+00 9.068318605422973633e-01
-3.425452947616577148e+00 -5.212027549743652344e+00 8.078185319900512695e-01
-3.250118017196655273e+00 -5.359455585479736328e+00 7.529543638229370117e-01
-2.941536903381347656e+00 -5.273251533508300781e+00 6.676898598670959473e-01
-3.755053758621215820e+00 -5.281189441680908203e+00 6.639359593391418457e-01
-3.464597225189208984e+00 -5.267580986022949219e+00 5.859909653663635254e-01
-3.218008995056152344e+00 -5.302332401275634766e+00 5.175634026527404785e-01
-2.914785385131835938e+00 -5.218869209289550781e+00 4.421197474002838135e-01
-3.795582294464111328e+00 -5.334245681762695312e+00 4.313952326774597168e-01
-3.465964555740356445e+00 -5.265655040740966797e+00 3.557578027248382568e-01
-3.300087690353393555e+00 -5.433296680450439453e+00 2.986759543418884277e-01
-3.408226251602172852e+00 -6.094867706298828125e+00 2.621602416038513184e-01
-3.604604959487915039e+00 -5.472124099731445312e+00 1.326820403337478638e-01
-3.936511993408203125e+00 -5.469103813171386719e+00 1.985801100730895996e+00
-3.520137786865234375e+00 -5.301181316375732422e+00 1.803083062171936035e+00
-3.321659564971923828e+00 -5.429957389831542969e+00 1.736591100692749023e+00
-3.001640319824218750e+00 -5.341144561767578125e+00 1.610764861106872559e+00
-3.890041351318359375e+00 -5.406530380249023438e+00 1.691565513610839844e+00
-3.500479698181152344e+00 -5.267585754394531250e+00 1.538268208503723145e+00
-3.331127882003784180e+00 -5.439035892486572266e+00 1.486565947532653809e+00
-3.012528657913208008e+00 -5.349583148956298828e+00 1.372339248657226562e+00
-3.872882604598999023e+00 -5.384665012359619141e+00 1.424367785453796387e+00
-3.478681087493896484e+00 -5.230821132659912109e+00 1.284926414489746094e+00
-3.279563188552856445e+00 -5.346457481384277344e+00 1.221459031105041504e+00
-3.004802703857421875e+00 -5.324989795684814453e+00 1.131006360054016113e+00
-3.847641944885253906e+00 -5.347602367401123047e+00 1.164006114006042480e+00
-3.493326187133789062e+00 -5.248867988586425781e+00 1.050582766532897949e+00
-3.321337699890136719e+00 -5.412439823150634766e+00 9.966951608657836914e-01
-3.020485639572143555e+00 -5.344061851501464844e+00 9.053738713264465332e-01
-3.866184711456298828e+00 -5.371396064758300781e+00 9.218698143959045410e-01
-3.472211837768554688e+00 -5.213196754455566406e+00 8.112866878509521484e-01
-3.298542976379394531e+00 -5.364785671234130859e+00 7.565324902534484863e-01
-2.988523244857788086e+00 -5.281054496765136719e+00 6.709871292114257812e-01
-3.817040443420410156e+00 -5.299216270446777344e+00 6.691340804100036621e-01
-3.554839611053466797e+00 -5.333218574523925781e+00 5.957081317901611328e-01
-3.464083194732666016e+00 -5.629617214202880859e+00 5.515742301940917969e-01
-3.020987033843994141e+00 -5.331906318664550781e+00 4.532575607299804688e-01
-3.863833665847778320e+00 -5.360232830047607422e+00 4.354060888290405273e-01
-3.529235124588012695e+00 -5.290802001953125000e+00 3.589130938053131104e-01
-3.345934629440307617e+00 -5.433359146118164062e+00 2.998023331165313721e-01
-3.116189956665039062e+00 -5.493227481842041016e+00 2.370996922254562378e-01
-3.640333652496337891e+00 -5.453229427337646484e+00 1.327630132436752319e-01
-4.015770912170410156e+00 -5.507627487182617188e+00 2.008697986602783203e+00
-3.597718238830566406e+00 -5.346533298492431641e+00 1.825982809066772461e+00
-3.340168714523315430e+00 -5.385697841644287109e+00 1.728958249092102051e+00
-3.062616586685180664e+00 -5.372197628021240234e+00 1.625766515731811523e+00
-3.983085155487060547e+00 -5.464802265167236328e+00 1.717411637306213379e+00
-3.547389030456542969e+00 -5.267768859863281250e+00 1.544649124145507812e+00
-3.373172044754028320e+00 -5.432559967041015625e+00 1.490424871444702148e+00
-3.061270952224731445e+00 -5.358962059020996094e+00 1.379537940025329590e+00
-3.934060811996459961e+00 -5.399520397186279297e+00 1.434655785560607910e+00
-3.550132989883422852e+00 -5.267873764038085938e+00 1.299354791641235352e+00
-3.364142417907714844e+00 -5.409586429595947266e+00 1.240574121475219727e+00
-3.058424711227416992e+00 -5.343148231506347656e+00 1.138827681541442871e+00
-3.909382820129394531e+00 -5.363682746887207031e+00 1.172705650329589844e+00
-3.546977043151855469e+00 -5.259228229522705078e+00 1.056992769241333008e+00
-3.373793601989746094e+00 -5.422994613647460938e+00 1.002432107925415039e+00
-3.064536571502685547e+00 -5.345167160034179688e+00 9.087297916412353516e-01
-3.918326377868652344e+00 -5.373982429504394531e+00 9.264225959777832031e-01
-3.545744180679321289e+00 -5.253443717956542969e+00 8.209203481674194336e-01
-3.351356506347656250e+00 -5.376463413238525391e+00 7.610647678375244141e-01
-3.034230947494506836e+00 -5.285892009735107422e+00 6.739546060562133789e-01
-3.878215789794921875e+00 -5.315072536468505859e+00 6.741283535957336426e-01
-3.576907634735107422e+00 -5.295628547668457031e+00 5.939497947692871094e-01
-3.078492641448974609e+00 -5.356501579284667969e+00 4.569455683231353760e-01
-3.926661252975463867e+00 -5.377523422241210938e+00 4.387594163417816162e-01
-3.565546274185180664e+00 -5.274837493896484375e+00 3.593074977397918701e-01
-3.378151893615722656e+00 -5.411031723022460938e+00 2.997084558010101318e-01
-3.165287494659423828e+00 -5.500853538513183594e+00 2.382626831531524658e-01
-3.736466884613037109e+00 -5.523539543151855469e+00 1.350304037332534790e-01
-3.382402658462524414e+00 -5.411530971527099609e+00 6.794473528861999512e-02
-4.091089725494384766e+00 -5.539208889007568359e+00 2.029333353042602539e+00
-3.654304981231689453e+00 -5.359333515167236328e+00 1.837977886199951172e+00
-3.375719547271728516e+00 -5.369184970855712891e+00 1.730274200439453125e+00
-3.106172800064086914e+00 -5.371723651885986328e+00 1.631360292434692383e+00
-4.033236503601074219e+00 -5.462872505187988281e+00 1.724550127983093262e+00
-3.625102281570434570e+00 -5.312520503997802734e+00 1.564264535903930664e+00
-3.426675319671630859e+00 -5.443904399871826172e+00 1.499277472496032715e+00
-3.108772993087768555e+00 -5.365409851074218750e+00 1.386082172393798828e+00
-4.018789291381835938e+00 -5.445292949676513672e+00 1.453342199325561523e+00
-3.600621700286865234e+00 -5.272690296173095703e+00 1.305967688560485840e+00
-3.373715877532958984e+00 -5.351477622985839844e+00 1.231972336769104004e+00
-3.103001356124877930e+00 -5.344690799713134766e+00 1.143193125724792480e+00
-3.972635030746459961e+00 -5.380789756774902344e+00 1.181753277778625488e+00
-3.605894565582275391e+00 -5.276456356048583984e+00 1.064882040023803711e+00
-3.423868894577026367e+00 -5.428930759429931641e+00 1.007393956184387207e+00
-3.119158029556274414e+00 -5.363892555236816406e+00 9.151498675346374512e-01
-3.979470968246459961e+00 -5.388080596923828125e+00 9.330449104309082031e-01
-3.599185943603515625e+00 -5.262694835662841797e+00 8.258014321327209473e-01
-3.410270690917968750e+00 -5.396925926208496094e+00 7.669090032577514648e-01
-3.078109741210937500e+00 -5.286931037902832031e+00 6.764824390411376953e-01
-3.915485620498657227e+00 -5.297575950622558594e+00 6.749437451362609863e-01
-3.575591087341308594e+00 -5.224280357360839844e+00 5.883971452713012695e-01
-3.378977537155151367e+00 -5.343271732330322266e+00 5.275421142578125000e-01
-3.121345996856689453e+00 -5.354743480682373047e+00 4.584207832813262939e-01
-3.997559070587158203e+00 -5.404671669006347656e+00 4.429675042629241943e-01
-3.630003929138183594e+00 -5.299812793731689453e+00 3.625191152095794678e-01
-3.435862064361572266e+00 -5.429028987884521484e+00 3.018673360347747803e-01
-3.119396209716796875e+00 -5.344964027404785156e+00 2.323351949453353882e-01
-4.916838169097900391e+00 -6.645104885101318359e+00 2.453398555517196655e-01
-3.796290397644042969e+00 -5.538443565368652344e+00 1.359616518020629883e-01
-3.453541278839111328e+00 -5.450645923614501953e+00 6.870061904191970825e-02
-4.165796756744384766e+00 -5.568535804748535156e+00 2.049403429031372070e+00
-3.728684186935424805e+00 -5.396970272064208984e+00 1.858696699142456055e+00
-3.308530807495117188e+00 -5.191353321075439453e+00 1.679476737976074219e+00
-3.132714271545410156e+00 -5.341718196868896484e+00 1.628054857254028320e+00
-4.130530357360839844e+00 -5.523403167724609375e+00 1.751626849174499512e+00
-3.676971912384033203e+00 -5.318150997161865234e+00 1.572535991668701172e+00
-3.347386837005615234e+00 -5.246258735656738281e+00 1.450474381446838379e+00
-3.171796560287475586e+00 -5.397559165954589844e+00 1.399389028549194336e+00
-4.069687366485595703e+00 -5.444024085998535156e+00 1.459640979766845703e+00
-3.665238618850708008e+00 -5.297226428985595703e+00 1.317590594291687012e+00
-3.334606170654296875e+00 -5.218190670013427734e+00 1.205975770950317383e+00
-3.152700662612915039e+00 -5.354360103607177734e+00 1.149377465248107910e+00
-4.047448158264160156e+00 -5.412304878234863281e+00 1.194106698036193848e+00
-3.675263881683349609e+00 -5.307755470275878906e+00 1.075729727745056152e+00
-3.363996744155883789e+00 -5.262158393859863281e+00 9.802592992782592773e-01
-3.174626588821411133e+00 -5.382999420166015625e+00 9.217158555984497070e-01
-4.048054218292236328e+00 -5.411146163940429688e+00 9.413226842880249023e-01
-3.653438568115234375e+00 -5.272302150726318359e+00 8.308109641075134277e-01
-3.390305995941162109e+00 -5.293128967285156250e+00 7.551012635231018066e-01
-3.160017013549804688e+00 -5.351820945739746094e+00 6.872534155845642090e-01
-4.028997898101806641e+00 -5.381755352020263672e+00 6.888055205345153809e-01
-3.655808925628662109e+00 -5.271791458129882812e+00 5.962634086608886719e-01
-3.355232238769531250e+00 -5.234345912933349609e+00 5.188107490539550781e-01
-3.172921180725097656e+00 -5.367254257202148438e+00 4.611499309539794922e-01
-4.093466281890869141e+00 -5.463892459869384766e+00 4.498714208602905273e-01
-3.714824199676513672e+00 -5.352901935577392578e+00 3.677028119564056396e-01
-3.474503040313720703e+00 -5.416252613067626953e+00 3.023366630077362061e-01
-3.168421030044555664e+00 -5.353241920471191406e+00 2.335357069969177246e-01
-3.842178583145141602e+00 -5.532290458679199219e+00 1.363867819309234619e-01
-3.489082336425781250e+00 -5.432718276977539062e+00 6.874320656061172485e-02
-4.258974075317382812e+00 -5.620851993560791016e+00 2.078236341476440430e+00
-3.783798456192016602e+00 -5.405518054962158203e+00 1.869601368904113770e+00
-3.185206174850463867e+00 -5.355644702911376953e+00 1.638225436210632324e+00
-4.190677642822265625e+00 -5.532722473144531250e+00 1.762703776359558105e+00
-3.755248546600341797e+00 -5.360747814178466797e+00 1.591915011405944824e+00
-3.387976169586181641e+00 -5.238705158233642578e+00 1.454106092453002930e+00
-3.223839759826660156e+00 -5.409852981567382812e+00 1.407678365707397461e+00
-4.159673213958740234e+00 -5.493781089782714844e+00 1.479797124862670898e+00
-3.746037721633911133e+00 -5.343628883361816406e+00 1.334824442863464355e+00
-3.360691785812377930e+00 -5.188569068908691406e+00 1.203873038291931152e+00
-3.208684206008911133e+00 -5.373751163482666016e+00 1.157744526863098145e+00
-4.119228839874267578e+00 -5.438392639160156250e+00 1.205416202545166016e+00
-3.717959642410278320e+00 -5.299639701843261719e+00 1.078688263893127441e+00
-3.371509790420532227e+00 -5.203280448913574219e+00 9.731267690658569336e-01
-3.219274759292602539e+00 -5.382946491241455078e+00 9.250717163085937500e-01
-4.121854305267333984e+00 -5.439886093139648438e+00 9.507041573524475098e-01
-3.729027509689331055e+00 -5.311471462249755859e+00 8.405730724334716797e-01
-3.378388643264770508e+00 -5.203939914703369141e+00 7.453210353851318359e-01
-3.202497243881225586e+00 -5.348533153533935547e+00 6.893416643142700195e-01
-4.113635063171386719e+00 -5.425103187561035156e+00 6.975710391998291016e-01
-3.742466926574707031e+00 -5.326658725738525391e+00 6.050550937652587891e-01
-3.380771398544311523e+00 -5.203631877899169922e+00 5.178128480911254883e-01
-3.223740816116333008e+00 -5.377622127532958984e+00 4.637315273284912109e-01
-4.137168884277343750e+00 -5.452185630798339844e+00 4.509891569614410400e-01
-3.762529850006103516e+00 -5.351242542266845703e+00 3.691677451133728027e-01
-3.541429996490478516e+00 -5.446753025054931641e+00 3.052464723587036133e-01
-3.203265190124511719e+00 -5.337127208709716797e+00 2.336857616901397705e-01
-4.967795848846435547e+00 -6.544458866119384766e+00 2.438565343618392944e-01
-3.881229877471923828e+00 -5.515969753265380859e+00 1.365689784288406372e-01
-3.569810390472412109e+00 -5.484117031097412109e+00 6.966943293809890747e-02
-4.312654018402099609e+00 -5.619725704193115234e+00 2.087564468383789062e+00
-3.832478523254394531e+00 -5.404173851013183594e+00 1.877234578132629395e+00
-3.448082923889160156e+00 -5.266589641571044922e+00 1.717377424240112305e+00
-3.270450830459594727e+00 -5.422959327697753906e+00 1.664923191070556641e+00
-4.266432762145996094e+00 -5.561504840850830078e+00 1.780180692672729492e+00
-3.807753324508666992e+00 -5.365339279174804688e+00 1.600186586380004883e+00
-3.439276218414306641e+00 -5.247141361236572266e+00 1.462277889251708984e+00
-3.273629426956176758e+00 -5.417533874511718750e+00 1.414877176284790039e+00
-4.240900993347167969e+00 -5.530221462249755859e+00 1.496593952178955078e+00
-3.803716182708740234e+00 -5.355688571929931641e+00 1.343641877174377441e+00
-3.416166067123413086e+00 -5.203955173492431641e+00 1.212283730506896973e+00
-3.273172378540039062e+00 -5.406113624572753906e+00 1.169021844863891602e+00
-4.187284946441650391e+00 -5.458332061767578125e+00 1.215507745742797852e+00
-3.784694433212280273e+00 -5.324967384338378906e+00 1.088549733161926270e+00
-3.417472362518310547e+00 -5.203965187072753906e+00 9.771581888198852539e-01
-3.270710468292236328e+00 -5.393545150756835938e+00 9.303245544433593750e-01
-4.191937446594238281e+00 -5.462422370910644531e+00 9.591198563575744629e-01
-3.785115242004394531e+00 -5.321624755859375000e+00 8.458395600318908691e-01
-3.436996459960937500e+00 -5.223754882812500000e+00 7.511653304100036621e-01
-3.246087312698364258e+00 -5.346624374389648438e+00 6.916497349739074707e-01
-4.175323009490966797e+00 -5.436841964721679688e+00 7.023614645004272461e-01
-3.727732896804809570e+00 -5.237077713012695312e+00 5.974665284156799316e-01
-4.203987121582031250e+00 -5.470212936401367188e+00 4.546055197715759277e-01
-3.823677062988281250e+00 -5.367901802062988281e+00 3.719286024570465088e-01
-3.625349760055541992e+00 -5.501657009124755859e+00 3.095642030239105225e-01
-3.301409959793090820e+00 -5.424931526184082031e+00 2.384127527475357056e-01
-3.629824161529541016e+00 -5.502174377441406250e+00 7.018046081066131592e-02
-4.380607128143310547e+00 -5.636328220367431641e+00 2.103677272796630859e+00
-3.848163604736328125e+00 -5.356334209442138672e+00 1.868783593177795410e+00
-3.507535934448242188e+00 -5.286331653594970703e+00 1.730800628662109375e+00
-3.329395055770874023e+00 -5.444870948791503906e+00 1.677890658378601074e+00
-4.343291759490966797e+00 -5.590329170227050781e+00 1.797903776168823242e+00
-3.837766647338867188e+00 -5.337929248809814453e+00 1.599004864692687988e+00
-3.497273206710815430e+00 -5.264878273010253906e+00 1.473173379898071289e+00
-3.338928937911987305e+00 -5.449770927429199219e+00 1.428620100021362305e+00
-4.324530601501464844e+00 -5.568186759948730469e+00 1.514020681381225586e+00
-3.878848075866699219e+00 -5.391098022460937500e+00 1.358471035957336426e+00
-3.469779729843139648e+00 -5.215585231781005859e+00 1.219929814338684082e+00
-3.322229385375976562e+00 -5.411906242370605469e+00 1.174660444259643555e+00
-4.247281074523925781e+00 -5.466752052307128906e+00 1.223163247108459473e+00
-3.852455377578735352e+00 -5.350474834442138672e+00 1.098575711250305176e+00
-3.489294767379760742e+00 -5.242934703826904297e+00 9.884772300720214844e-01
-3.334314107894897461e+00 -5.423097133636474609e+00 9.389332532882690430e-01
-4.281900405883789062e+00 -5.509326457977294922e+00 9.719505310058593750e-01
-3.857700109481811523e+00 -5.353816986083984375e+00 8.547025322914123535e-01
-3.483855962753295898e+00 -5.224871158599853516e+00 7.543856501579284668e-01
-3.282479524612426758e+00 -5.332530975341796875e+00 6.924191117286682129e-01
-4.272731781005859375e+00 -5.493570804595947266e+00 7.130635380744934082e-01
-3.791827440261840820e+00 -5.258525848388671875e+00 6.025564074516296387e-01
-3.530662536621093750e+00 -5.291066169738769531e+00 5.307852029800415039e-01
-3.317220449447631836e+00 -5.382653713226318359e+00 4.676408171653747559e-01
-4.286503314971923828e+00 -5.507309436798095703e+00 4.598656296730041504e-01
-3.885753870010375977e+00 -5.384820461273193359e+00 3.747458457946777344e-01
-3.679009675979614258e+00 -5.509213924407958984e+00 3.112537860870361328e-01
-3.345653772354125977e+00 -5.422431945800781250e+00 2.392005920410156250e-01
-5.092560291290283203e+00 -6.540577888488769531e+00 2.460221648216247559e-01
-3.707976579666137695e+00 -5.546300888061523438e+00 7.103216648101806641e-02
-3.415575981140136719e+00 -5.531435966491699219e+00 7.942467927932739258e-03
-4.470875740051269531e+00 -5.680194377899169922e+00 2.130248785018920898e+00
-3.566283226013183594e+00 -5.303939342498779297e+00 1.743697404861450195e+00
-3.380576848983764648e+00 -5.453109264373779297e+00 1.686789870262145996e+00
-4.435646533966064453e+00 -5.637460708618164062e+00 1.821780681610107422e+00
-3.553441047668457031e+00 -5.278868198394775391e+00 1.483161091804504395e+00
-3.389297962188720703e+00 -5.456538200378417969e+00 1.435818910598754883e+00
-4.389441013336181641e+00 -5.580739974975585938e+00 1.524728655815124512e+00
-3.936667919158935547e+00 -5.401241302490234375e+00 1.367087960243225098e+00
-3.537381410598754883e+00 -5.247099399566650391e+00 1.232354640960693359e+00
-3.374078273773193359e+00 -5.421474456787109375e+00 1.181208610534667969e+00
-4.331285476684570312e+00 -5.504823207855224609e+00 1.237604618072509766e+00
-3.919507741928100586e+00 -5.373755455017089844e+00 1.108272910118103027e+00
-3.544598817825317383e+00 -5.255825996398925781e+00 9.949895143508911133e-01
-3.384273052215576172e+00 -5.429401874542236328e+00 9.436023831367492676e-01
-4.348703384399414062e+00 -5.524976253509521484e+00 9.794005155563354492e-01
-3.915619373321533203e+00 -5.364490032196044922e+00 8.602259159088134766e-01
-3.560874700546264648e+00 -5.270032405853271484e+00 7.640464901924133301e-01
-3.317242383956909180e+00 -5.315662860870361328e+00 6.928587555885314941e-01
-4.322363376617431641e+00 -5.487569332122802734e+00 7.157135605812072754e-01
-3.858673334121704102e+00 -5.282599449157714844e+00 6.080165505409240723e-01
-3.375021219253540039e+00 -5.401949405670166016e+00 4.711075425148010254e-01
-4.346158027648925781e+00 -5.513817787170410156e+00 4.626271724700927734e-01
-3.959375381469726562e+00 -5.416491985321044922e+00 3.786335885524749756e-01
-3.700988054275512695e+00 -5.469163417816162109e+00 3.102682232856750488e-01
-3.385751247406005859e+00 -5.412814617156982422e+00 2.396882921457290649e-01
-5.167255401611328125e+00 -6.553161621093750000e+00 2.476834654808044434e-01
-3.681928157806396484e+00 -5.434864521026611328e+00 6.989300996065139771e-02
-4.561845779418945312e+00 -5.723163127899169922e+00 2.156820297241210938e+00
-3.636241912841796875e+00 -5.336969375610351562e+00 1.761858224868774414e+00
-3.430955171585083008e+00 -5.459285736083984375e+00 1.695180654525756836e+00
-4.513037204742431641e+00 -5.663957118988037109e+00 1.839257478713989258e+00
-4.009123325347900391e+00 -5.434304237365722656e+00 1.642489433288574219e+00
-3.611008882522583008e+00 -5.293974876403808594e+00 1.493602633476257324e+00
-3.430515050888061523e+00 -5.448026657104492188e+00 1.439090967178344727e+00
-4.459540843963623047e+00 -5.598823070526123047e+00 1.537116289138793945e+00
-4.019196987152099609e+00 -5.443980216979980469e+00 1.384121417999267578e+00
-3.597193717956542969e+00 -5.265820503234863281e+00 1.241912245750427246e+00
-3.413576602935791016e+00 -5.410648822784423828e+00 1.183391332626342773e+00
-4.401186943054199219e+00 -5.523582458496093750e+00 1.247870206832885742e+00
-3.992850780487060547e+00 -5.404345989227294922e+00 1.119613647460937500e+00
-3.602421283721923828e+00 -5.271497249603271484e+00 1.002122044563293457e+00
-3.432848453521728516e+00 -5.432787895202636719e+00 9.478337764739990234e-01
-4.425118923187255859e+00 -5.551629543304443359e+00 9.889199137687683105e-01
-3.982067823410034180e+00 -5.385816097259521484e+00 8.675474524497985840e-01
-3.607727527618408203e+00 -5.269384384155273438e+00 7.671475410461425781e-01
-3.368925809860229492e+00 -5.325447559356689453e+00 6.968153715133666992e-01
-4.427911758422851562e+00 -5.551156520843505859e+00 7.275367975234985352e-01
-3.991102695465087891e+00 -5.394096374511718750e+00 6.236565709114074707e-01
-3.618983268737792969e+00 -5.281868457794189453e+00 5.342777371406555176e-01
-3.388893842697143555e+00 -5.350809097290039062e+00 4.684521853923797607e-01
-4.425351142883300781e+00 -5.543975353240966797e+00 4.674270153045654297e-01
-4.029371738433837891e+00 -5.441844463348388672e+00 3.821269273757934570e-01
-3.772324085235595703e+00 -5.501548290252685547e+00 3.134126663208007812e-01
-3.448331594467163086e+00 -5.438354969024658203e+00 2.417516559362411499e-01
-3.785379409790039062e+00 -5.514395236968994141e+00 7.121314853429794312e-02
-3.447299957275390625e+00 -5.432533740997314453e+00 7.860612124204635620e-03
-4.620975494384765625e+00 -5.724920749664306641e+00 2.168127298355102539e+00
-3.701257705688476562e+00 -5.361399173736572266e+00 1.777386903762817383e+00
-3.330842733383178711e+00 -5.228501796722412109e+00 1.629834651947021484e+00
-4.582397937774658203e+00 -5.679154872894287109e+00 1.853288173675537109e+00
-3.679415225982666016e+00 -5.323794841766357422e+00 1.508357167243957520e+00
-3.352039337158203125e+00 -5.251655101776123047e+00 1.392626523971557617e+00
-4.562559127807617188e+00 -5.656587600708007812e+00 1.560631752014160156e+00
-4.065432548522949219e+00 -5.436477661132812500e+00 1.388530135154724121e+00
-3.666864871978759766e+00 -5.297724246978759766e+00 1.254719376564025879e+00
-3.362477064132690430e+00 -5.257884979248046875e+00 1.154470443725585938e+00
-4.480755805969238281e+00 -5.553185462951660156e+00 1.260745525360107422e+00
-4.056077480316162109e+00 -5.420021533966064453e+00 1.127995967864990234e+00
-3.657756567001342773e+00 -5.282594680786132812e+00 1.008479356765747070e+00
-3.364205598831176758e+00 -5.252505302429199219e+00 9.199649095535278320e-01
-4.511354923248291016e+00 -5.589111804962158203e+00 1.000508904457092285e+00
-4.050707340240478516e+00 -5.408908843994140625e+00 8.752544522285461426e-01
-3.660365104675292969e+00 -5.276517391204833984e+00 7.714413404464721680e-01
-3.362372636795043945e+00 -5.243596553802490234e+00 6.887921094894409180e-01
-4.510646343231201172e+00 -5.584244728088378906e+00 7.354869246482849121e-01
-4.042636394500732422e+00 -5.394206523895263672e+00 6.265254616737365723e-01
-3.646777629852294922e+00 -5.253014564514160156e+00 5.336125493049621582e-01
-3.338693141937255859e+00 -5.200674057006835938e+00 4.570931196212768555e-01
-4.495039463043212891e+00 -5.560950756072998047e+00 4.711748659610748291e-01
-4.098628997802734375e+00 -5.464942455291748047e+00 3.855075836181640625e-01
-3.803730010986328125e+00 -5.475016593933105469e+00 3.132249116897583008e-01
-3.478934288024902344e+00 -5.412890911102294922e+00 2.415640652179718018e-01
-3.828850269317626953e+00 -5.505020141601562500e+00 7.139413803815841675e-02
-3.479486227035522461e+00 -5.409596920013427734e+00 7.858168333768844604e-03
-4.818096160888671875e+00 -5.894758224487304688e+00 2.243601799011230469e+00
-4.198997020721435547e+00 -5.551880359649658203e+00 1.972377538681030273e+00
-3.757309198379516602e+00 -5.371790885925292969e+00 1.788441419601440430e+00
-3.345548868179321289e+00 -5.181153774261474609e+00 1.621443986892700195e+00
-4.632489681243896484e+00 -5.669694900512695312e+00 1.859442114830017090e+00
-4.181647777557373047e+00 -5.524931907653808594e+00 1.685265183448791504e+00
-3.738825798034667969e+00 -5.339410781860351562e+00 1.519252657890319824e+00
-3.392681360244750977e+00 -5.244098663330078125e+00 1.396116733551025391e+00
-4.613880157470703125e+00 -5.648930549621582031e+00 1.566300630569458008e+00
-4.163190364837646484e+00 -5.496557235717773438e+00 1.410372972488403320e+00
-3.728607892990112305e+00 -5.316914558410644531e+00 1.264659285545349121e+00
-3.372211933135986328e+00 -5.202498912811279297e+00 1.146830916404724121e+00
-4.592005729675292969e+00 -5.620146274566650391e+00 1.282320618629455566e+00
-4.114283084869384766e+00 -5.428048133850097656e+00 1.134899020195007324e+00
-3.716199636459350586e+00 -5.297253608703613281e+00 1.015611886978149414e+00
-3.373207807540893555e+00 -5.196083545684814453e+00 9.136907458305358887e-01
-4.588813304901123047e+00 -5.614239215850830078e+00 1.010028362274169922e+00
-4.119779586791992188e+00 -5.431360721588134766e+00 8.829614520072937012e-01
-3.739487171173095703e+00 -5.320566654205322266e+00 7.812214493751525879e-01
-3.288321256637573242e+00 -5.059522151947021484e+00 6.672502160072326660e-01
-4.578206539154052734e+00 -5.597273826599121094e+00 7.408888936042785645e-01
-4.096127033233642578e+00 -5.396265029907226562e+00 6.296719312667846680e-01
-3.392297029495239258e+00 -5.213526248931884766e+00 4.600435197353363037e-01
-4.602391242980957031e+00 -5.622835159301757812e+00 4.788020551204681396e-01
-4.155637264251708984e+00 -5.470697402954101562e+00 3.877050280570983887e-01
-3.828053474426269531e+00 -5.438505172729492188e+00 3.124740123748779297e-01
-3.510445356369018555e+00 -5.388930797576904297e+00 2.414515316486358643e-01
-3.589615821838378906e+00 -5.506262779235839844e+00 8.030433207750320435e-03
-4.883531570434570312e+00 -5.900554180145263672e+00 2.257170438766479492e+00
-4.302607536315917969e+00 -5.616902828216552734e+00 2.004818916320800781e+00
-3.755615949630737305e+00 -5.299832344055175781e+00 1.772122979164123535e+00
-4.249755859375000000e+00 -5.543896675109863281e+00 1.698972225189208984e+00
-3.794620990753173828e+00 -5.348936080932617188e+00 1.528559327125549316e+00
-3.440313339233398438e+00 -5.246850967407226562e+00 1.402442932128906250e+00
-4.652816295623779297e+00 -5.625788211822509766e+00 1.567770361900329590e+00
-4.240369319915771484e+00 -5.527654647827148438e+00 1.425001859664916992e+00
-3.785038471221923828e+00 -5.327543258666992188e+00 1.272687673568725586e+00
-3.431605577468872070e+00 -5.223623275756835938e+00 1.156107544898986816e+00
-4.637702941894531250e+00 -5.605521678924560547e+00 1.285452485084533691e+00
-4.174540996551513672e+00 -5.437911033630371094e+00 1.142295122146606445e+00
-3.805291652679443359e+00 -5.354070663452148438e+00 1.030962347984313965e+00
-3.432758569717407227e+00 -5.217437744140625000e+00 9.211321473121643066e-01
-4.657276153564453125e+00 -5.627179622650146484e+00 1.017478346824645996e+00
-4.194715499877929688e+00 -5.460244178771972656e+00 8.918244242668151855e-01
-3.788188219070434570e+00 -5.320168018341064453e+00 7.845610976219177246e-01
-3.382179975509643555e+00 -5.134706020355224609e+00 6.798896193504333496e-01
-4.651805877685546875e+00 -5.616577625274658203e+00 7.472082376480102539e-01
-4.171642303466796875e+00 -5.426287651062011719e+00 6.361500620841979980e-01
-3.763591289520263672e+00 -5.281720638275146484e+00 5.411797165870666504e-01
-3.436300992965698242e+00 -5.210929393768310547e+00 4.616662263870239258e-01
-4.645083427429199219e+00 -5.604477405548095703e+00 4.796568155288696289e-01
-4.237221717834472656e+00 -5.507610797882080078e+00 3.921562135219573975e-01
-4.068395614624023438e+00 -5.705260276794433594e+00 3.292287588119506836e-01
-3.634288549423217773e+00 -5.504890918731689453e+00 2.476416230201721191e-01
-3.589707851409912109e+00 -5.433238506317138672e+00 7.955906912684440613e-03
-5.002819538116455078e+00 -5.969728469848632812e+00 2.295331716537475586e+00
-4.371786117553710938e+00 -5.635247707366943359e+00 2.020903348922729492e+00
-3.926466941833496094e+00 -5.469480037689208984e+00 1.836870193481445312e+00
-4.333149433135986328e+00 -5.581420898437500000e+00 1.718587517738342285e+00
-3.883638143539428711e+00 -5.403845787048339844e+00 1.551031470298767090e+00
-3.504309892654418945e+00 -5.273599147796630859e+00 1.415313482284545898e+00
-4.310270786285400391e+00 -5.547952175140380859e+00 1.437025427818298340e+00
-3.850339889526367188e+00 -5.349628448486328125e+00 1.283583283424377441e+00
-3.478305578231811523e+00 -5.224568843841552734e+00 1.161018610000610352e+00
-4.233257293701171875e+00 -5.444900512695312500e+00 1.149198174476623535e+00
-3.862316370010375977e+00 -5.364293575286865234e+00 1.037474632263183594e+00
-3.479525804519653320e+00 -5.218500137329101562e+00 9.250717163085937500e-01
-4.697441577911376953e+00 -5.605329036712646484e+00 1.018720030784606934e+00
-4.268941402435302734e+00 -5.486845016479492188e+00 9.004305601119995117e-01
-3.841670751571655273e+00 -5.325811862945556641e+00 7.888547778129577637e-01
-3.477634906768798828e+00 -5.209752082824707031e+00 6.926389336585998535e-01
-5.149621963500976562e+00 -6.140548229217529297e+00 8.211035132408142090e-01
-4.239725589752197266e+00 -5.445370674133300781e+00 6.414250731468200684e-01
-3.943495988845825195e+00 -5.462954521179199219e+00 5.622181892395019531e-01
-3.529162883758544922e+00 -5.280954837799072266e+00 4.697798788547515869e-01
-5.252840995788574219e+00 -6.259190559387207031e+00 5.384385585784912109e-01
-4.302231311798095703e+00 -5.521673679351806641e+00 3.950297534465789795e-01
-4.149536132812500000e+00 -5.744157314300537109e+00 3.329364061355590820e-01
-3.669664621353149414e+00 -5.484979152679443359e+00 2.477541714906692505e-01
-3.637999773025512695e+00 -5.433546066284179688e+00 7.988894358277320862e-03
-5.087762355804443359e+00 -5.995967864990234375e+00 2.317380428314208984e+00
-4.449672222137451172e+00 -5.663544654846191406e+00 2.040804386138916016e+00
-3.983217000961303711e+00 -5.477274417877197266e+00 1.847661256790161133e+00
-3.568749427795410156e+00 -5.309733390808105469e+00 1.681958913803100586e+00
-4.417762279510498047e+00 -5.618891716003417969e+00 1.738439202308654785e+00
-3.954554080963134766e+00 -5.431879043579101562e+00 1.566012859344482422e+00
-3.548594236373901367e+00 -5.269806861877441406e+00 1.420112609863281250e+00
-4.384819984436035156e+00 -5.572988033294677734e+00 1.450451850891113281e+00
-3.916631698608398438e+00 -5.371904373168945312e+00 1.294670104980468750e+00
-3.530645132064819336e+00 -5.233288288116455078e+00 1.167748570442199707e+00
-4.336151123046875000e+00 -5.507174015045166016e+00 1.167935132980346680e+00
-3.924265623092651367e+00 -5.380401611328125000e+00 1.045227408409118652e+00
-3.536957979202270508e+00 -5.234759330749511719e+00 9.317836165428161621e-01
-4.346719264984130859e+00 -5.516633510589599609e+00 9.096788763999938965e-01
-3.925238847732543945e+00 -5.371883392333984375e+00 7.992312908172607422e-01
-3.561326742172241211e+00 -5.264880657196044922e+00 7.028603553771972656e-01
-5.404838085174560547e+00 -6.365139007568359375e+00 8.555538654327392578e-01
-4.301417827606201172e+00 -5.455220699310302734e+00 6.456820964813232422e-01
-3.976941823959350586e+00 -5.438654899597167969e+00 5.622181892395019531e-01
-3.514527320861816406e+00 -5.189837932586669922e+00 4.635840058326721191e-01
-5.343484401702880859e+00 -6.288434028625488281e+00 5.437644720077514648e-01
-4.372519969940185547e+00 -5.541415691375732422e+00 3.983540534973144531e-01
-4.192371845245361328e+00 -5.729067802429199219e+00 3.335465192794799805e-01
-3.704933166503906250e+00 -5.464840888977050781e+00 2.478667199611663818e-01
-3.699904441833496094e+00 -5.453324317932128906e+00 8.051201701164245605e-03
-5.144460201263427734e+00 -5.987919330596923828e+00 2.326426029205322266e+00
-4.534058570861816406e+00 -5.698625087738037109e+00 2.063431501388549805e+00
-4.040781497955322266e+00 -5.485353946685791016e+00 1.858715653419494629e+00
-3.635560035705566406e+00 -5.338095664978027344e+00 1.697977542877197266e+00
-4.496338844299316406e+00 -5.647170066833496094e+00 1.755691289901733398e+00
-4.009195804595947266e+00 -5.436513423919677734e+00 1.574411511421203613e+00
-3.625416755676269531e+00 -5.313230514526367188e+00 1.437782168388366699e+00
-4.445795536041259766e+00 -5.579692363739013672e+00 1.459269165992736816e+00
-3.975177049636840820e+00 -5.382512569427490234e+00 1.303080797195434570e+00
-3.593211174011230469e+00 -5.256173610687255859e+00 1.177752614021301270e+00
-4.400608062744140625e+00 -5.519026279449462891e+00 1.176153063774108887e+00
-3.998297691345214844e+00 -5.411841869354248047e+00 1.056081295013427734e+00
-3.605338573455810547e+00 -5.266018867492675781e+00 9.412677884101867676e-01
-4.398424625396728516e+00 -5.512339115142822266e+00 9.134039878845214844e-01
-4.000064373016357422e+00 -5.404358863830566406e+00 8.076995015144348145e-01
-3.614355802536010742e+00 -5.273263931274414062e+00 7.069269418716430664e-01
-5.478164672851562500e+00 -6.371835231781005859e+00 8.609559535980224609e-01
-4.345371723175048828e+00 -5.441952705383300781e+00 6.472553610801696777e-01
-4.035150051116943359e+00 -5.447783946990966797e+00 5.657107830047607422e-01
-3.610065698623657227e+00 -5.261095523834228516e+00 4.719189405441284180e-01
-5.430777549743652344e+00 -6.312259197235107422e+00 5.486958026885986328e-01
-4.450690269470214844e+00 -5.569860935211181641e+00 4.023545086383819580e-01
-4.246480464935302734e+00 -5.728915691375732422e+00 3.350483477115631104e-01
-3.793845653533935547e+00 -5.522725105285644531e+00 2.515432834625244141e-01
-4.992660522460937500e+00 -5.800982475280761719e+00 2.271544486284255981e-01
-3.769552230834960938e+00 -5.483259201049804688e+00 8.129392750561237335e-03
-5.252242088317871094e+00 -6.038021564483642578e+00 2.358368396759033203e+00
-4.599121093750000000e+00 -5.708157539367675781e+00 2.077062129974365234e+00
-4.106094837188720703e+00 -5.502983570098876953e+00 1.873191595077514648e+00
-3.702302217483520508e+00 -5.365039825439453125e+00 1.713741898536682129e+00
-4.580306053161621094e+00 -5.680745124816894531e+00 1.774833917617797852e+00
-4.077447891235351562e+00 -5.458625793457031250e+00 1.588031053543090820e+00
-3.695134639739990234e+00 -5.344669342041015625e+00 1.452397823333740234e+00
-5.692596912384033203e+00 -6.548872470855712891e+00 1.863393783569335938e+00
-4.531010150909423828e+00 -5.615593433380126953e+00 1.475901842117309570e+00
-4.072216510772705078e+00 -5.443691730499267578e+00 1.323916196823120117e+00
-3.652830123901367188e+00 -5.273635864257812500e+00 1.186665296554565430e+00
-4.490779876708984375e+00 -5.561759471893310547e+00 1.191109776496887207e+00
-4.077597141265869141e+00 -5.448901653289794922e+00 1.068175554275512695e+00
-3.664648532867431641e+00 -5.282814979553222656e+00 9.482714533805847168e-01
-4.501348972320556641e+00 -5.570869445800781250e+00 9.276617765426635742e-01
-4.062332153320312500e+00 -5.418638706207275391e+00 8.135437369346618652e-01
-3.672156810760498047e+00 -5.287724971771240234e+00 7.118727564811706543e-01
-5.507360935211181641e+00 -6.326846599578857422e+00 8.594270348548889160e-01
-4.431270122528076172e+00 -5.480225563049316406e+00 6.550291180610656738e-01
-4.039794445037841797e+00 -5.384659290313720703e+00 5.617192387580871582e-01
-3.652526378631591797e+00 -5.253584384918212891e+00 4.732466340065002441e-01
-5.524461269378662109e+00 -6.342020511627197266e+00 5.542189478874206543e-01
-4.543817520141601562e+00 -5.615404605865478516e+00 4.076508581638336182e-01
-4.298345088958740234e+00 -5.725118637084960938e+00 3.363624513149261475e-01
-3.826519489288330078e+00 -5.497702121734619141e+00 2.514682412147521973e-01
-4.978253364562988281e+00 -5.712965965270996094e+00 2.248998135328292847e-01
-5.327863693237304688e+00 -6.049591541290283203e+00 2.375611782073974609e+00
-4.637100696563720703e+00 -5.683557987213134766e+00 2.078425407409667969e+00
-4.185153961181640625e+00 -5.537719249725341797e+00 1.893721103668212891e+00
-3.745127201080322266e+00 -5.356488704681396484e+00 1.718318700790405273e+00
-6.132406234741210938e+00 -6.965570449829101562e+00 2.356917858123779297e+00
-4.635355472564697266e+00 -5.677371978759765625e+00 1.782632827758789062e+00
-4.161985874176025391e+00 -5.501073360443115234e+00 1.607779264450073242e+00
-3.734018087387084961e+00 -5.330687999725341797e+00 1.454797267913818359e+00
-5.664850234985351562e+00 -6.436755180358886719e+00 1.841348052024841309e+00
-4.606913089752197266e+00 -5.638517379760742188e+00 1.489328265190124512e+00
-4.148814201354980469e+00 -5.475714683532714844e+00 1.337870359420776367e+00
-3.719576358795166016e+00 -5.300221920013427734e+00 1.197760820388793945e+00
-5.767921447753906250e+00 -6.551565170288085938e+00 1.542264580726623535e+00
-4.579766750335693359e+00 -5.601300239562988281e+00 1.205573439598083496e+00
-4.139000892639160156e+00 -5.460783004760742188e+00 1.075463175773620605e+00
-3.723730802536010742e+00 -5.298271179199218750e+00 9.551293253898620605e-01
-5.719266414642333984e+00 -6.494014263153076172e+00 1.205384135246276855e+00
-4.580662727355957031e+00 -5.598407268524169922e+00 9.369101524353027344e-01
-4.121322154998779297e+00 -5.427612781524658203e+00 8.186724185943603516e-01
-3.729698419570922852e+00 -5.300860881805419922e+00 7.167087197303771973e-01
-5.584884643554687500e+00 -6.336967945098876953e+00 8.654405474662780762e-01
-4.489413738250732422e+00 -5.482978343963623047e+00 6.586382985115051270e-01
-4.119786262512207031e+00 -5.421659469604492188e+00 5.682054162025451660e-01
-3.747865676879882812e+00 -5.320759296417236328e+00 4.813602864742279053e-01
-5.604191780090332031e+00 -6.354402065277099609e+00 5.582955479621887207e-01
-4.600967884063720703e+00 -5.615220546722412109e+00 4.096792936325073242e-01
-4.352136611938476562e+00 -5.723285675048828125e+00 3.378173410892486572e-01
-3.879184961318969727e+00 -5.501069545745849609e+00 2.527062594890594482e-01
-5.000648975372314453e+00 -5.668070793151855469e+00 2.243361473083496094e-01
-5.415315151214599609e+00 -6.073346138000488281e+00 2.397943258285522461e+00
-4.943964481353759766e+00 -5.984329223632812500e+00 2.199466943740844727e+00
-4.275933265686035156e+00 -5.586245059967041016e+00 1.919251561164855957e+00
-3.735996007919311523e+00 -5.274218082427978516e+00 1.699248790740966797e+00
-6.144074916839599609e+00 -6.893081665039062500e+00 2.345102548599243164e+00
-4.241865158081054688e+00 -5.535729408264160156e+00 1.625484585762023926e+00
-3.797720432281494141e+00 -5.351449489593505859e+00 1.466795206069946289e+00
-4.659534931182861328e+00 -5.632034778594970703e+00 1.495139718055725098e+00
-4.248663425445556641e+00 -5.536591053009033203e+00 1.359088182449340820e+00
-3.794761419296264648e+00 -5.337405204772949219e+00 1.211402773857116699e+00
-4.649275779724121094e+00 -5.615642070770263672e+00 1.214777469635009766e+00
-4.192281246185302734e+00 -5.461143493652343750e+00 1.080579996109008789e+00
-3.780843973159790039e+00 -5.309976100921630859e+00 9.614034295082092285e-01
-4.656053543090820312e+00 -5.619833946228027344e+00 9.452593922615051270e-01
-4.197521686553955078e+00 -5.458102226257324219e+00 8.271406292915344238e-01
-3.807154178619384766e+00 -5.341006278991699219e+00 7.252815365791320801e-01
-5.645518779754638672e+00 -6.327075004577636719e+00 8.688040971755981445e-01
-4.652617931365966797e+00 -5.611699104309082031e+00 6.775174140930175781e-01
-4.181541442871093750e+00 -5.433396816253662109e+00 5.721137523651123047e-01
-3.731782436370849609e+00 -5.229473114013671875e+00 4.751643836498260498e-01
-5.703554630279541016e+00 -6.387627601623535156e+00 5.642789602279663086e-01
-4.667848587036132812e+00 -5.626071453094482422e+00 4.125528335571289062e-01
-4.428008556365966797e+00 -5.749496936798095703e+00 3.409618139266967773e-01
-4.067381858825683594e+00 -5.693452835083007812e+00 2.626854479312896729e-01
-5.001374244689941406e+00 -5.599261760711669922e+00 2.228231579065322876e-01
-5.530251026153564453e+00 -6.126157283782958984e+00 2.432147026062011719e+00
-5.065163612365722656e+00 -6.054981231689453125e+00 2.236815214157104492e+00
-4.353278160095214844e+00 -5.615563392639160156e+00 1.938465118408203125e+00
-3.860197067260742188e+00 -5.379273414611816406e+00 1.740693926811218262e+00
-6.167423248291015625e+00 -6.834384918212890625e+00 2.337964057922363281e+00
-4.326504707336425781e+00 -5.574995994567871094e+00 1.644778847694396973e+00
-3.859538078308105469e+00 -5.368458271026611328e+00 1.477920532226562500e+00
-4.295806884765625000e+00 -5.527468204498291016e+00 1.363293528556823730e+00
-3.852726221084594727e+00 -5.349128246307373047e+00 1.219406008720397949e+00
-5.831391811370849609e+00 -6.462013721466064453e+00 1.537914752960205078e+00
-4.686180114746093750e+00 -5.590033054351806641e+00 1.215434908866882324e+00
-4.288166522979736328e+00 -5.515650272369384766e+00 1.096550703048706055e+00
-3.867177486419677734e+00 -5.361295700073242188e+00 9.749730825424194336e-01
-5.829055786132812500e+00 -6.457159519195556641e+00 1.211730360984802246e+00
-4.689173698425292969e+00 -5.589639663696289062e+00 9.450024962425231934e-01
-4.290721416473388672e+00 -5.509008407592773438e+00 8.388291001319885254e-01
-3.852073907852172852e+00 -5.334467411041259766e+00 7.275896072387695312e-01
-5.784262657165527344e+00 -6.403044223785400391e+00 8.840928077697753906e-01
-5.275314331054687500e+00 -6.283881187438964844e+00 7.625656723976135254e-01
-4.254621505737304688e+00 -5.458726406097412109e+00 5.775189399719238281e-01
-3.843258857727050781e+00 -5.316393375396728516e+00 4.851958155632019043e-01
-5.782789707183837891e+00 -6.396923542022705078e+00 5.682240128517150879e-01
-5.032379150390625000e+00 -5.990252971649169922e+00 4.415138065814971924e-01
-4.505592823028564453e+00 -5.776566028594970703e+00 3.442001044750213623e-01
-4.098138809204101562e+00 -5.662722110748291016e+00 2.624228596687316895e-01
-4.992728710174560547e+00 -5.521020412445068359e+00 2.209245413541793823e-01
-5.605916023254394531e+00 -6.133883953094482422e+00 2.448824882507324219e+00
-5.139531612396240234e+00 -6.067838191986083984e+00 2.253172159194946289e+00
-4.444248199462890625e+00 -5.660835266113281250e+00 1.963469147682189941e+00
-6.115103244781494141e+00 -6.693372726440429688e+00 2.302517890930175781e+00
-4.403960227966308594e+00 -5.603475093841552734e+00 1.661122202873229980e+00
-3.952156305313110352e+00 -5.426719188690185547e+00 1.500607371330261230e+00
-4.367280483245849609e+00 -5.548826694488525391e+00 1.375144958496093750e+00
-3.918510913848876953e+00 -5.370666027069091797e+00 1.229773879051208496e+00
-4.359208106994628906e+00 -5.536581993103027344e+00 1.106009125709533691e+00
-3.933269500732421875e+00 -5.382997035980224609e+00 9.832900166511535645e-01
-5.767672061920166016e+00 -6.310874938964843750e+00 1.190897941589355469e+00
-4.353342533111572266e+00 -5.519216060638427734e+00 8.444347977638244629e-01
-3.915834426879882812e+00 -5.353249073028564453e+00 7.334147095680236816e-01
-5.880508422851562500e+00 -6.429829120635986328e+00 8.927564024925231934e-01
-5.459514141082763672e+00 -6.422852039337158203e+00 7.834807038307189941e-01
-4.318906784057617188e+00 -5.471629142761230469e+00 5.816767215728759766e-01
-3.882877588272094727e+00 -5.302366256713867188e+00 4.860809147357940674e-01
-5.898731231689453125e+00 -6.445235729217529297e+00 5.757196545600891113e-01
-5.124025821685791016e+00 -6.023904323577880859e+00 4.463030695915222168e-01
