-9.022989273071289062e+00 -5.363984584808349609e+00 2.553066730499267578e+00
-7.412517547607421875e+00 -4.786316871643066406e+00 2.056540966033935547e+00
-8.020660400390625000e+00 -5.605832576751708984e+00 2.187322378158569336e+00
-7.046855926513671875e+00 -3.843765974044799805e+00 1.723770499229431152e+00
-7.854963302612304688e+00 -5.479825496673583984e+00 1.771631121635437012e+00
-8.555360794067382812e+00 -5.077908515930175781e+00 1.657724976539611816e+00
-7.744222164154052734e+00 -5.394536018371582031e+00 1.391985058784484863e+00
-8.069726943969726562e+00 -5.190747261047363281e+00 1.152629733085632324e+00
-7.837259292602539062e+00 -5.453252315521240234e+00 1.055774331092834473e+00
-7.843483448028564453e+00 -5.451489925384521484e+00 7.064769268035888672e-01
-7.008561134338378906e+00 -4.149909496307373047e+00 4.596566259860992432e-01
-9.686572074890136719e+00 -6.221205711364746094e+00 5.408926010131835938e-01
-7.804769992828369141e+00 -5.418524265289306641e+00 3.566999733448028564e-01
-7.224062442779541016e+00 -3.928980588912963867e+00 2.440641969442367554e-01
-7.116097450256347656e+00 -4.210229873657226562e+00 1.674214899539947510e-01
-5.844388008117675781e+00 -3.749240159988403320e+00 7.392796128988265991e-02
-4.586395263671875000e+00 -3.181769847869873047e+00 6.819698028266429901e-03
-6.855408668518066406e+00 -4.021893501281738281e+00 2.252081871032714844e+00
-6.767418861389160156e+00 -4.316148757934570312e+00 2.189820766448974609e+00
-8.343596458435058594e+00 -5.766412734985351562e+00 2.666470527648925781e+00
-9.596645355224609375e+00 -5.156261444091796875e+00 2.766763210296630859e+00
-8.832755088806152344e+00 -5.177808761596679688e+00 2.490203142166137695e+00
-7.957704544067382812e+00 -5.489460468292236328e+00 2.160927057266235352e+00
-8.772866249084472656e+00 -4.715619564056396484e+00 2.138861179351806641e+00
-9.246678352355957031e+00 -5.416117191314697266e+00 2.191909790039062500e+00
-7.650327682495117188e+00 -5.267575263977050781e+00 1.718154668807983398e+00
-8.621261596679687500e+00 -5.045746326446533203e+00 1.664463758468627930e+00
-7.817121982574462891e+00 -5.374379634857177734e+00 1.399134635925292969e+00
-8.108969688415527344e+00 -5.145922660827636719e+00 1.153703093528747559e+00
-7.879584789276123047e+00 -5.411250114440917969e+00 1.056983232498168945e+00
-7.885009765625000000e+00 -5.408902168273925781e+00 7.072145342826843262e-01
-7.025271415710449219e+00 -4.101793766021728516e+00 4.590932428836822510e-01
-9.673091888427734375e+00 -6.129040241241455078e+00 5.380297303199768066e-01
-7.871668815612792969e+00 -5.393691539764404297e+00 3.582381606101989746e-01
-7.293846607208251953e+00 -3.909133672714233398e+00 2.456068396568298340e-01
-7.200520038604736328e+00 -4.200745582580566406e+00 1.687981188297271729e-01
-5.930654048919677734e+00 -3.753415584564208984e+00 7.472644001245498657e-02
-4.588504314422607422e+00 -3.141704320907592773e+00 6.794041953980922699e-03
-9.949161529541015625e+00 -5.265031337738037109e+00 3.317206621170043945e+00
-6.767526149749755859e+00 -3.914717435836791992e+00 2.215278625488281250e+00
-6.808472633361816406e+00 -4.283791065216064453e+00 2.194558382034301758e+00
-7.851500034332275391e+00 -5.355428218841552734e+00 2.498656034469604492e+00
-1.105690002441406250e+01 -5.853709697723388672e+00 3.177346944808959961e+00
-9.268163681030273438e+00 -5.356909751892089844e+00 2.603641271591186523e+00
-7.737859249114990234e+00 -4.862894058227539062e+00 2.130086421966552734e+00
-7.998498439788818359e+00 -5.445472717285156250e+00 2.162890434265136719e+00
-1.018231868743896484e+01 -5.392966747283935547e+00 2.474377155303955078e+00
-9.666604995727539062e+00 -5.582704544067382812e+00 2.283289432525634766e+00
-7.401100635528564453e+00 -5.029310703277587891e+00 1.655219912528991699e+00
-8.973296165466308594e+00 -5.178125381469726562e+00 1.726262688636779785e+00
-7.934854030609130859e+00 -5.377855777740478516e+00 1.059950709342956543e+00
-7.923830509185791016e+00 -5.364332199096679688e+00 7.077308893203735352e-01
-6.996659278869628906e+00 -4.027727603912353516e+00 4.555998742580413818e-01
-7.093996047973632812e+00 -4.434112071990966797e+00 3.930564224720001221e-01
-7.138905048370361328e+00 -4.827498912811279297e+00 3.235360383987426758e-01
-7.358354568481445312e+00 -3.885776996612548828e+00 2.469715029001235962e-01
-7.281625747680664062e+00 -4.188388824462890625e+00 1.700937598943710327e-01
-5.989197254180908203e+00 -3.739196300506591797e+00 7.517357915639877319e-02
-4.643323421478271484e+00 -3.137565374374389648e+00 6.846575997769832611e-03
-1.000509548187255859e+01 -5.216301918029785156e+00 3.325121402740478516e+00
-7.189242839813232422e+00 -4.099996089935302734e+00 2.345043897628784180e+00
-1.118557834625244141e+01 -6.942364692687988281e+00 3.591621875762939453e+00
-7.862549781799316406e+00 -5.292569637298583984e+00 2.491790771484375000e+00
-1.030629634857177734e+01 -5.375625133514404297e+00 2.952116727828979492e+00
-7.029886245727539062e+00 -4.005864143371582031e+00 1.967915177345275879e+00
-7.147172451019287109e+00 -4.801965236663818359e+00 1.924677848815917969e+00
-9.196729660034179688e+00 -4.798932075500488281e+00 2.227674245834350586e+00
-9.732179641723632812e+00 -5.541222095489501953e+00 2.290704011917114258e+00
-8.010723114013671875e+00 -5.363914012908935547e+00 1.421896696090698242e+00
-7.984226226806640625e+00 -5.340119361877441406e+00 1.062148928642272949e+00
-8.021277427673339844e+00 -5.358823299407958984e+00 7.134841680526733398e-01
-6.998664855957031250e+00 -3.971908330917358398e+00 4.541349112987518311e-01
-8.590349197387695312e+00 -5.296385765075683594e+00 4.741551578044891357e-01
-9.746818542480468750e+00 -6.504237651824951172e+00 4.399099946022033691e-01
-7.456543922424316406e+00 -3.879305362701416016e+00 2.494634538888931274e-01
-7.283706188201904297e+00 -4.130315303802490234e+00 1.695471554994583130e-01
-6.090360641479492188e+00 -3.750616312026977539e+00 7.615303993225097656e-02
-4.670807838439941406e+00 -3.114563226699829102e+00 6.858793552964925766e-03
-8.623060226440429688e+00 -4.428678989410400391e+00 2.856726884841918945e+00
-7.244456768035888672e+00 -4.072780609130859375e+00 2.354858160018920898e+00
-1.139746189117431641e+01 -6.977364063262939453e+00 3.645840883255004883e+00
-7.069137096405029297e+00 -4.695723056793212891e+00 2.231169939041137695e+00
-9.971834182739257812e+00 -5.123589038848876953e+00 2.847255229949951172e+00
-8.929953575134277344e+00 -5.016252994537353516e+00 2.491148471832275391e+00
-9.070686340332031250e+00 -5.546417713165283203e+00 2.478063821792602539e+00
-7.144780635833740234e+00 -4.736989021301269531e+00 1.916170358657836914e+00
-9.886865615844726562e+00 -5.082113265991210938e+00 2.387243747711181641e+00
-9.705597877502441406e+00 -5.925339221954345703e+00 2.214491844177246094e+00
-8.041832923889160156e+00 -5.313568592071533203e+00 1.421604752540588379e+00
-7.977853298187255859e+00 -5.265295982360839844e+00 1.056983232498168945e+00
-7.016805171966552734e+00 -3.925478219985961914e+00 4.537405073642730713e-01
-8.668772697448730469e+00 -5.271603107452392578e+00 4.766894876956939697e-01
-9.733129501342773438e+00 -6.409136772155761719e+00 4.375089704990386963e-01
-7.524683952331542969e+00 -3.856273651123046875e+00 2.509467899799346924e-01
-7.000847339630126953e+00 -3.913342952728271484e+00 1.624008715152740479e-01
-6.165392398834228516e+00 -3.744841575622558594e+00 7.680246233940124512e-02
-4.695678234100341797e+00 -3.089692831039428711e+00 6.867345422506332397e-03
-8.614122390747070312e+00 -4.357500076293945312e+00 2.844854354858398438e+00
-6.638989448547363281e+00 -3.678963422775268555e+00 2.150668621063232422e+00
-8.371098518371582031e+00 -5.054316043853759766e+00 2.667791366577148438e+00
-6.829272270202636719e+00 -4.476242542266845703e+00 2.146754264831542969e+00
-9.450480461120605469e+00 -4.782647609710693359e+00 2.689963340759277344e+00
-6.488567829132080078e+00 -3.592648029327392578e+00 1.803902506828308105e+00
-9.422846794128417969e+00 -6.164449691772460938e+00 2.516936779022216797e+00
-1.005306625366210938e+01 -5.089805603027343750e+00 2.419787406921386719e+00
-9.285083770751953125e+00 -5.136814117431640625e+00 2.170467376708984375e+00
-8.478590965270996094e+00 -5.103077888488769531e+00 1.553188323974609375e+00
-8.041135787963867188e+00 -5.242513179779052734e+00 1.415768265724182129e+00
-8.005012512207031250e+00 -5.212991237640380859e+00 1.056323766708374023e+00
-7.038136482238769531e+00 -3.880903720855712891e+00 4.535714685916900635e-01
-7.057051181793212891e+00 -4.232397556304931641e+00 3.866267204284667969e-01
-7.113429546356201172e+00 -4.621777057647705078e+00 3.184714019298553467e-01
-7.666882991790771484e+00 -3.869935035705566406e+00 2.548923790454864502e-01
-7.399519920349121094e+00 -4.076807022094726562e+00 1.710654944181442261e-01
-6.223424434661865234e+00 -3.728008747100830078e+00 7.723896205425262451e-02
-4.720418930053710938e+00 -3.064634323120117188e+00 6.875897757709026337e-03
-8.327317237854003906e+00 -4.148445129394531250e+00 2.741677522659301758e+00
-6.810895919799804688e+00 -3.719784498214721680e+00 2.198921442031860352e+00
-1.043115425109863281e+01 -6.211123943328857422e+00 3.312103986740112305e+00
-6.791641235351562500e+00 -4.392238616943359375e+00 2.126413106918334961e+00
-1.175934410095214844e+01 -5.860750198364257812e+00 3.336854219436645508e+00
-6.503666400909423828e+00 -3.549043655395507812e+00 1.802011847496032715e+00
-9.485092163085937500e+00 -6.122394084930419922e+00 2.523481130599975586e+00
-9.180521965026855469e+00 -5.005642890930175781e+00 2.138805150985717773e+00
-8.500631332397460938e+00 -4.236638069152832031e+00 1.678152203559875488e+00
-1.053729248046875000e+01 -5.740645408630371094e+00 1.999427437782287598e+00
-8.519937515258789062e+00 -5.057008743286132812e+00 1.555049061775207520e+00
-8.079495429992675781e+00 -5.191176414489746094e+00 1.061929106712341309e+00
-7.160944938659667969e+00 -3.891515493392944336e+00 4.599383473396301270e-01
-9.124011993408203125e+00 -5.396194458007812500e+00 4.980435967445373535e-01
-9.697473526000976562e+00 -6.216409683227539062e+00 4.324443340301513672e-01
-7.724497318267822266e+00 -3.839726448059082031e+00 2.560196816921234131e-01
-7.616814613342285156e+00 -4.135807991027832031e+00 1.754990369081497192e-01
-6.238433361053466797e+00 -3.685175418853759766e+00 7.714314758777618408e-02
-4.893232345581054688e+00 -3.134318590164184570e+00 7.099474314600229263e-03
-1.127633190155029297e+01 -5.531465053558349609e+00 3.701363801956176758e+00
-1.004028034210205078e+01 -5.403803348541259766e+00 3.230773687362670898e+00
-6.911715030670166016e+00 -4.058272361755371094e+00 2.186662435531616211e+00
-6.822539329528808594e+00 -4.353083610534667969e+00 2.127684354782104492e+00
-9.781670570373535156e+00 -4.800395488739013672e+00 2.767255544662475586e+00
-7.207376003265380859e+00 -3.875854969024658203e+00 1.990366339683532715e+00
-9.508485794067382812e+00 -6.055167675018310547e+00 2.519772768020629883e+00
-9.248540878295898438e+00 -4.540762901306152344e+00 2.212557077407836914e+00
-9.215378761291503906e+00 -4.951536655426025391e+00 2.139807224273681641e+00
-9.223476409912109375e+00 -5.400499820709228516e+00 2.081450223922729492e+00
-8.522047042846679688e+00 -4.182229995727539062e+00 1.677282214164733887e+00
-8.370946884155273438e+00 -4.494048118591308594e+00 1.583106160163879395e+00
-8.837283134460449219e+00 -5.172306060791015625e+00 1.607147693634033203e+00
-8.150805473327636719e+00 -5.172595977783203125e+00 1.423793435096740723e+00
-7.212853431701660156e+00 -3.862586498260498047e+00 4.617414176464080811e-01
-9.438251495361328125e+00 -5.504156589508056641e+00 5.133434534072875977e-01
-8.812312126159667969e+00 -5.572998046875000000e+00 3.914396166801452637e-01
-7.813450336456298828e+00 -3.824335575103759766e+00 2.581853270530700684e-01
-7.657915592193603516e+00 -4.097484588623046875e+00 1.758634299039840698e-01
-6.310178756713867188e+00 -3.675515174865722656e+00 7.774998992681503296e-02
-4.924206733703613281e+00 -3.111714124679565430e+00 7.116578519344329834e-03
-1.020876693725585938e+01 -4.930303096771240234e+00 3.340951204299926758e+00
-1.007154846191406250e+01 -5.341194152832031250e+00 3.230228424072265625e+00
-6.932311534881591797e+00 -4.013369560241699219e+00 2.185346364974975586e+00
-8.785667419433593750e+00 -5.530087471008300781e+00 2.729273796081542969e+00
-9.529057502746582031e+00 -4.604090213775634766e+00 2.687747955322265625e+00
-9.961330413818359375e+00 -5.278288364410400391e+00 2.741894006729125977e+00
-9.339808464050292969e+00 -5.400630474090576172e+00 2.514609336853027344e+00
-1.157547950744628906e+01 -5.595338344573974609e+00 2.760972261428833008e+00
-8.863745689392089844e+00 -4.692740440368652344e+00 2.051433563232421875e+00
-9.220735549926757812e+00 -5.323191642761230469e+00 2.073421716690063477e+00
-8.537795066833496094e+00 -4.125148773193359375e+00 1.675368428230285645e+00
-8.424521446228027344e+00 -4.456437110900878906e+00 1.588036894798278809e+00
-8.192453384399414062e+00 -5.128786087036132812e+00 1.425544381141662598e+00
-7.349445343017578125e+00 -3.877894639968872070e+00 4.689534306526184082e-01
-7.005598545074462891e+00 -4.028092861175537109e+00 3.796807825565338135e-01
-7.087077140808105469e+00 -4.421298503875732422e+00 3.135943412780761719e-01
-7.957432270050048828e+00 -3.834465503692626953e+00 2.621606290340423584e-01
-7.677606582641601562e+00 -4.047621726989746094e+00 1.757419705390930176e-01
-6.324808120727539062e+00 -3.632245540618896484e+00 7.765416800975799561e-02
-4.981395244598388672e+00 -3.105246305465698242e+00 7.171556353569030762e-03
-1.014526557922363281e+01 -4.823091506958007812e+00 3.310422420501708984e+00
-6.823636531829833984e+00 -3.565273284912109375e+00 2.181474208831787109e+00
-6.835315704345703125e+00 -3.901414394378662109e+00 2.147182226181030273e+00
-9.019091606140136719e+00 -5.600044727325439453e+00 2.791059970855712891e+00
-9.741810798645019531e+00 -4.633372306823730469e+00 2.739686250686645508e+00
-9.694636344909667969e+00 -5.061031818389892578e+00 2.659887552261352539e+00
-9.591902732849121094e+00 -5.468143939971923828e+00 2.573400259017944336e+00
-9.748814582824707031e+00 -6.041356563568115234e+00 2.563619613647460938e+00
-1.145156288146972656e+01 -5.449010848999023438e+00 2.723389387130737305e+00
-1.033346366882324219e+01 -5.389938831329345703e+00 2.383887290954589844e+00
-9.293318748474121094e+00 -5.289333820343017578e+00 2.082406044006347656e+00
-8.549606323242187500e+00 -4.066339492797851562e+00 1.672758460044860840e+00
-8.428963661193847656e+00 -4.392808914184570312e+00 1.583763480186462402e+00
-8.281848907470703125e+00 -5.114287376403808594e+00 1.435612201690673828e+00
-7.427139759063720703e+00 -3.860816955566406250e+00 4.723904728889465332e-01
-6.984126567840576172e+00 -3.958924531936645508e+00 3.771933913230895996e-01
-8.643440246582031250e+00 -5.318844795227050781e+00 3.810102045536041260e-01
-8.057575225830078125e+00 -3.821979522705078125e+00 2.646822631359100342e-01
-8.024373054504394531e+00 -4.167716503143310547e+00 1.830906867980957031e-01
-5.776148796081542969e+00 -3.270192384719848633e+00 7.067019492387771606e-02
-4.996095657348632812e+00 -3.072003602981567383e+00 7.165447808802127838e-03
-8.655115127563476562e+00 -4.049747943878173828e+00 2.816021680831909180e+00
-1.132029056549072266e+01 -5.826583385467529297e+00 3.607529163360595703e+00
-6.523652553558349609e+00 -3.670640707015991211e+00 2.042165756225585938e+00
-7.014602661132812500e+00 -3.283640861511230469e+00 1.967010974884033203e+00
-9.693536758422851562e+00 -4.985009670257568359e+00 2.651143550872802734e+00
-9.075112342834472656e+00 -5.100007534027099609e+00 2.426309823989868164e+00
-9.075420379638671875e+00 -5.547272682189941406e+00 2.377543210983276367e+00
-8.509770393371582031e+00 -3.985362291336059570e+00 2.017924308776855469e+00
-1.031144142150878906e+01 -5.298223972320556641e+00 2.371262311935424805e+00
-9.251123428344726562e+00 -5.190426826477050781e+00 2.065775871276855469e+00
-8.594908714294433594e+00 -4.023405551910400391e+00 1.676760196685791016e+00
-8.425923347473144531e+00 -4.325689792633056641e+00 1.578175187110900879e+00
-8.302848815917968750e+00 -4.656483650207519531e+00 1.494112372398376465e+00
-8.335041046142578125e+00 -5.076755046844482422e+00 1.439405918121337891e+00
-7.512008190155029297e+00 -3.846570730209350586e+00 4.762781858444213867e-01
-7.016134262084960938e+00 -3.920381307601928711e+00 3.776157796382904053e-01
-7.048539161682128906e+00 -4.278000354766845703e+00 3.095426559448242188e-01
-3.254268169403076172e+00 -1.519219279289245605e+00 1.065908223390579224e-01
-8.169954299926757812e+00 -4.179877281188964844e+00 1.858236938714981079e-01
-6.560130119323730469e+00 -3.661075353622436523e+00 7.998571544885635376e-02
-5.151658535003662109e+00 -3.124258041381835938e+00 7.360924500972032547e-03
-1.131894111633300781e+01 -5.211741924285888672e+00 3.672247886657714844e+00
-8.545404434204101562e+00 -4.332225322723388672e+00 2.714711189270019531e+00
-6.670916080474853516e+00 -3.699794530868530273e+00 2.081119298934936523e+00
-9.249389648437500000e+00 -5.586953163146972656e+00 2.840895891189575195e+00
-1.067033100128173828e+01 -4.915350437164306641e+00 2.983624219894409180e+00
-9.645928382873535156e+00 -4.885921478271484375e+00 2.629873752593994141e+00
-7.010497093200683594e+00 -3.883333444595336914e+00 1.867911219596862793e+00
-9.051618576049804688e+00 -5.456717014312744141e+00 2.362491607666015625e+00
-1.150957679748535156e+01 -5.304389476776123047e+00 2.721499919891357422e+00
-9.268559455871582031e+00 -4.690709114074707031e+00 2.124777793884277344e+00
-9.258747100830078125e+00 -5.120265007019042969e+00 2.060423612594604492e+00
-8.436462402343750000e+00 -4.265895843505859375e+00 1.575216889381408691e+00
-8.339045524597167969e+00 -4.609752178192138672e+00 1.495507836341857910e+00
-8.446599006652832031e+00 -5.073912143707275391e+00 1.453267216682434082e+00
-7.602328300476074219e+00 -3.834125280380249023e+00 4.805040657520294189e-01
-7.162554264068603516e+00 -3.944721698760986328e+00 3.841862976551055908e-01
-8.820384025573730469e+00 -5.279609680175781250e+00 3.859247863292694092e-01
-3.238096237182617188e+00 -1.487539410591125488e+00 1.057601645588874817e-01
-7.989199161529541016e+00 -4.025740623474121094e+00 1.811472177505493164e-01
-6.606126308441162109e+00 -3.633766412734985352e+00 8.027315884828567505e-02
-5.110656738281250000e+00 -3.056658983230590820e+00 7.275403477251529694e-03
-8.540837287902832031e+00 -4.264238834381103516e+00 2.704897165298461914e+00
-7.300451755523681641e+00 -3.990569114685058594e+00 2.269833564758300781e+00
-1.097042465209960938e+01 -4.972221374511718750e+00 3.058947324752807617e+00
-1.072520542144775391e+01 -5.350165843963623047e+00 2.915123462677001953e+00
-6.941874027252197266e+00 -3.789844036102294922e+00 1.843396186828613281e+00
-8.616805076599121094e+00 -3.907283067703247070e+00 2.031781673431396484e+00
-8.668470382690429688e+00 -4.320405006408691406e+00 1.981095194816589355e+00
-9.059011459350585938e+00 -4.937467098236083984e+00 2.009194850921630859e+00
-1.100702381134033203e+01 -4.988809585571289062e+00 2.135229110717773438e+00
-8.468659400939941406e+00 -4.217128276824951172e+00 1.576367378234863281e+00
-8.368907928466796875e+00 -4.559442996978759766e+00 1.495817899703979492e+00
-8.206903457641601562e+00 -4.861648559570312500e+00 1.406867742538452148e+00
-7.697246551513671875e+00 -3.822935104370117188e+00 4.850116074085235596e-01
-9.568409919738769531e+00 -5.193466186523437500e+00 5.115130543708801270e-01
-9.222655296325683594e+00 -5.443812370300292969e+00 4.020565748214721680e-01
-3.227124214172363281e+00 -1.458585977554321289e+00 1.051075085997581482e-01
-7.991360664367675781e+00 -3.965533494949340820e+00 1.806411147117614746e-01
-6.586981296539306641e+00 -3.570765972137451172e+00 7.977278530597686768e-02
-5.264547348022460938e+00 -3.105001688003540039e+00 7.467215415090322495e-03
-1.173338031768798828e+01 -5.229022502899169922e+00 3.785601139068603516e+00
-7.324800014495849609e+00 -3.945699214935302734e+00 2.269833564758300781e+00
-6.696280956268310547e+00 -3.933448314666748047e+00 2.041743040084838867e+00
-1.094938278198242188e+01 -4.881922245025634766e+00 3.044670104980468750e+00
-9.392061233520507812e+00 -4.613389015197753906e+00 2.545031547546386719e+00
-7.062770366668701172e+00 -3.799780130386352539e+00 1.869273304939270020e+00
-1.096336746215820312e+01 -6.427106857299804688e+00 2.840661287307739258e+00
-8.686156272888183594e+00 -3.874651193618774414e+00 2.042489767074584961e+00
-1.014512538909912109e+01 -4.978899478912353516e+00 2.311544895172119141e+00
-1.019598579406738281e+01 -5.476279258728027344e+00 2.253869056701660156e+00
-9.112816810607910156e+00 -5.331569671630859375e+00 1.952977657318115234e+00
-8.505002975463867188e+00 -4.170297622680664062e+00 1.578339695930480957e+00
-8.385412216186523438e+00 -4.501931667327880859e+00 1.493802309036254883e+00
-8.232308387756347656e+00 -4.808705329895019531e+00 1.406138181686401367e+00
-7.832672119140625000e+00 -3.830461025238037109e+00 4.920546412467956543e-01
-7.324048519134521484e+00 -3.917302370071411133e+00 3.902405202388763428e-01
-8.659091949462890625e+00 -5.039774894714355469e+00 3.761331439018249512e-01
-3.227792739868164062e+00 -1.435102462768554688e+00 1.048405095934867859e-01
-7.927509307861328125e+00 -3.873411417007446289e+00 1.786571592092514038e-01
-6.838084697723388672e+00 -3.652779102325439453e+00 8.254082500934600830e-02
-5.286957740783691406e+00 -3.074651241302490234e+00 7.472102064639329910e-03
-6.643427371978759766e+00 -2.911940097808837891e+00 2.137598276138305664e+00
-9.901889801025390625e+00 -5.255787849426269531e+00 3.058379650115966797e+00
-6.641621589660644531e+00 -3.846723079681396484e+00 2.017842054367065430e+00
-1.159248638153076172e+01 -5.083618640899658203e+00 3.214762210845947266e+00
-9.282855987548828125e+00 -4.489257335662841797e+00 2.507927894592285156e+00
-9.562378883361816406e+00 -5.069163799285888672e+00 2.522554159164428711e+00
-9.594109535217285156e+00 -5.545582294464111328e+00 2.477016687393188477e+00
-8.788556098937988281e+00 -3.855848550796508789e+00 2.060966253280639648e+00
-8.644088745117187500e+00 -4.176622390747070312e+00 1.963660955429077148e+00
-7.377727508544921875e+00 -3.904451131820678711e+00 1.625553607940673828e+00
-9.114695549011230469e+00 -5.257865428924560547e+00 1.946429491043090820e+00
-8.425975799560546875e+00 -4.457324028015136719e+00 1.496128082275390625e+00
-8.235940933227539062e+00 -4.743290424346923828e+00 1.401760935783386230e+00
-7.949584484100341797e+00 -3.827371835708618164e+00 4.979144334793090820e-01
-9.570446968078613281e+00 -5.043522834777832031e+00 5.082747936248779297e-01
-6.996258735656738281e+00 -4.014704227447509766e+00 3.028273284435272217e-01
-3.247527599334716797e+00 -1.420075774192810059e+00 1.051965057849884033e-01
-7.978156089782714844e+00 -3.837697982788085938e+00 1.792644858360290527e-01
-6.869217872619628906e+00 -3.615410089492797852e+00 8.264728635549545288e-02
-5.284904003143310547e+00 -3.030215501785278320e+00 7.442780770361423492e-03
-1.150773906707763672e+01 -4.960108280181884766e+00 3.692883491516113281e+00
-1.066073989868164062e+01 -5.079702854156494141e+00 3.346090078353881836e+00
-1.017845344543457031e+01 -5.322793006896972656e+00 3.133654356002807617e+00
-6.776800155639648438e+00 -3.869681596755981445e+00 2.051659345626831055e+00
-1.095150661468505859e+01 -4.722625732421875000e+00 3.028916358947753906e+00
-1.037267398834228516e+01 -4.938001155853271484e+00 2.794122934341430664e+00
-1.061366462707519531e+01 -5.543310165405273438e+00 2.790858030319213867e+00
-9.462615013122558594e+00 -5.392387866973876953e+00 2.434478759765625000e+00
-8.829106330871582031e+00 -3.809209108352661133e+00 2.064955234527587891e+00
-8.855348587036132812e+00 -4.211874485015869141e+00 2.005743741989135742e+00
-7.385879039764404297e+00 -3.850939989089965820e+00 1.622112751007080078e+00
-9.118577957153320312e+00 -5.185798168182373047e+00 1.940427064895629883e+00
-1.035876846313476562e+01 -4.922513484954833984e+00 1.911002278327941895e+00
-8.264029502868652344e+00 -4.692178249359130859e+00 1.401615142822265625e+00
-9.167077064514160156e+00 -3.943640708923339844e+00 6.575801968574523926e-01
-8.090207099914550781e+00 -3.834107160568237305e+00 5.052391290664672852e-01
-7.501889705657958984e+00 -3.894789695739746094e+00 3.971395492553710938e-01
-6.972923278808593750e+00 -3.944638490676879883e+00 3.007639646530151367e-01
-8.796093940734863281e+00 -3.782226085662841797e+00 2.841729521751403809e-01
-8.006072044372558594e+00 -3.790812015533447266e+00 1.793657243251800537e-01
-6.998684883117675781e+00 -3.628887653350830078e+00 8.393549174070358276e-02
-5.308620452880859375e+00 -3.000683546066284180e+00 7.450111210346221924e-03
-1.154678821563720703e+01 -4.893146991729736328e+00 3.695710182189941406e+00
-1.146436119079589844e+01 -5.376553058624267578e+00 3.587900638580322266e+00
-1.120920181274414062e+01 -5.774510860443115234e+00 3.440018892288208008e+00
-6.823172092437744141e+00 -3.840836524963378906e+00 2.058524608612060547e+00
-1.059032535552978516e+01 -4.490010261535644531e+00 2.921347618103027344e+00
-1.039397907257080078e+01 -4.870140075683593750e+00 2.791759490966796875e+00
-1.048207187652587891e+01 -5.392980575561523438e+00 2.747502565383911133e+00
-9.656334877014160156e+00 -5.424562931060791016e+00 2.475707769393920898e+00
-8.807309150695800781e+00 -3.735873460769653320e+00 2.054457426071166992e+00
-1.019867134094238281e+01 -4.774287223815917969e+00 2.303328752517700195e+00
-8.958953857421875000e+00 -5.022519588470458984e+00 1.899865150451660156e+00
-1.104103469848632812e+01 -5.163923263549804688e+00 2.030984401702880859e+00
-8.322015762329101562e+00 -4.657810688018798828e+00 1.406575918197631836e+00
-1.122864913940429688e+01 -4.758330345153808594e+00 1.698740482330322266e+00
-8.123534202575683594e+00 -3.789036989212036133e+00 5.058589577674865723e-01
-9.564027786254882812e+00 -4.891132831573486328e+00 5.047079324722290039e-01
-6.996995925903320312e+00 -3.901779174804687500e+00 3.007639646530151367e-01
-9.026287078857421875e+00 -3.815754175186157227e+00 2.908478677272796631e-01
-3.234328031539916992e+00 -1.507204174995422363e+00 7.225240021944046021e-02
-7.043082714080810547e+00 -3.597246885299682617e+00 8.420164883136749268e-02
-5.355760097503662109e+00 -2.984115839004516602e+00 7.490428164601325989e-03
-1.140127277374267578e+01 -4.749175071716308594e+00 3.639740228652954102e+00
-1.140977764129638672e+01 -5.265790939331054688e+00 3.560639142990112305e+00
-8.770994186401367188e+00 -4.450561046600341797e+00 2.683320045471191406e+00
-6.926949501037597656e+00 -3.843474626541137695e+00 2.082679510116577148e+00
-8.864167213439941406e+00 -3.694164991378784180e+00 2.438887119293212891e+00
-8.654475212097167969e+00 -3.990511894226074219e+00 2.317919015884399414e+00
-1.193618774414062500e+01 -6.048780918121337891e+00 3.118860244750976562e+00
-1.007278060913085938e+01 -5.577473640441894531e+00 2.573653936386108398e+00
-8.877893447875976562e+00 -3.701704263687133789e+00 2.065585136413574219e+00
-8.793372154235839844e+00 -4.859021663665771484e+00 1.858393788337707520e+00
-1.124759006500244141e+01 -4.687462806701660156e+00 2.152976274490356445e+00
-8.360834121704101562e+00 -4.612394332885742188e+00 1.408326864242553711e+00
-3.282062768936157227e+00 -1.506393194198608398e+00 2.037972658872604370e-01
-7.708809375762939453e+00 -3.882871150970458984e+00 4.055404067039489746e-01
-7.141657829284667969e+00 -3.925195932388305664e+00 3.059411644935607910e-01
-9.026453971862792969e+00 -3.750709056854248047e+00 2.901062071323394775e-01
-3.241697549819946289e+00 -1.486496806144714355e+00 7.221190631389617920e-02
-7.053409576416015625e+00 -3.548121929168701172e+00 8.406324684619903564e-02
-5.576446056365966797e+00 -3.062390804290771484e+00 7.772647775709629059e-03
-8.863819122314453125e+00 -3.628541707992553711e+00 2.822523117065429688e+00
-1.150582408905029297e+01 -5.224722385406494141e+00 3.580540180206298828e+00
-8.758439064025878906e+00 -4.376821517944335938e+00 2.671212673187255859e+00
-6.925795078277587891e+00 -3.787442684173583984e+00 2.075305938720703125e+00
-9.002368927001953125e+00 -3.687094211578369141e+00 2.470640659332275391e+00
-8.691185951232910156e+00 -3.942954063415527344e+00 2.321227550506591797e+00
-8.899639129638671875e+00 -4.441560745239257812e+00 2.318261861801147461e+00
-9.388936996459960938e+00 -5.123798847198486328e+00 2.390850067138671875e+00
-8.946579933166503906e+00 -3.666068077087402344e+00 2.076293230056762695e+00
-8.635119438171386719e+00 -3.913884401321411133e+00 1.939212799072265625e+00
-8.445655822753906250e+00 -4.207628250122070312e+00 1.837540864944458008e+00
-1.035584449768066406e+01 -5.639743328094482422e+00 2.181252479553222656e+00
-1.106198978424072266e+01 -4.530651569366455078e+00 2.112088203430175781e+00
-1.050881958007812500e+01 -5.713544368743896484e+00 1.764202356338500977e+00
-1.120944499969482422e+01 -5.071271896362304688e+00 1.593543648719787598e+00
-3.306712865829467773e+00 -1.493211865425109863e+00 2.047551125288009644e-01
-9.457779884338378906e+00 -4.691282749176025391e+00 4.960255026817321777e-01
-7.210420131683349609e+00 -3.905574321746826172e+00 3.078544437885284424e-01
-9.252882003784179688e+00 -3.778386116027832031e+00 2.966327965259552002e-01
-3.212481021881103516e+00 -1.449309706687927246e+00 7.136163860559463501e-02
-7.053542613983154297e+00 -3.494123458862304688e+00 8.380773663520812988e-02
-5.601287841796875000e+00 -3.031448364257812500e+00 7.781200110912322998e-03
-8.881466865539550781e+00 -3.572296380996704102e+00 2.821109533309936523e+00
-1.007064151763916016e+01 -4.498686313629150391e+00 3.125271320343017578e+00
-7.088523864746093750e+00 -3.488130331039428711e+00 2.155341625213623047e+00
-9.830801010131835938e+00 -5.297975540161132812e+00 2.935990810394287109e+00
-8.825210571289062500e+00 -3.551458597183227539e+00 2.415994644165039062e+00
-8.724088668823242188e+00 -3.893511772155761719e+00 2.323590993881225586e+00
-8.925850868225097656e+00 -4.386440753936767578e+00 2.318035125732421875e+00
-1.080056762695312500e+01 -5.808441638946533203e+00 2.741188287734985352e+00
-9.040555000305175781e+00 -3.639951467514038086e+00 2.092880010604858398e+00
-8.723398208618164062e+00 -3.889552593231201172e+00 1.953641176223754883e+00
-1.042231178283691406e+01 -5.593299388885498047e+00 2.187982559204101562e+00
-1.116107463836669922e+01 -5.979735851287841797e+00 1.867506861686706543e+00
-3.299388885498046875e+00 -1.465598583221435547e+00 2.037409245967864990e-01
-7.937186241149902344e+00 -3.876530885696411133e+00 4.150206744670867920e-01
-7.324169635772705078e+00 -3.909253835678100586e+00 3.116810619831085205e-01
-9.320420265197753906e+00 -3.739405632019042969e+00 2.980567812919616699e-01
-3.234107494354248047e+00 -1.435248851776123047e+00 7.164506614208221436e-02
-6.807924747467041016e+00 -3.320584774017333984e+00 8.064577728509902954e-02
-5.672725200653076172e+00 -3.025256395339965820e+00 7.854503579437732697e-03
-8.458950042724609375e+00 -3.342199087142944336e+00 2.680336713790893555e+00
-9.575711250305175781e+00 -4.207305908203125000e+00 2.963609695434570312e+00
-6.985639095306396484e+00 -3.384419679641723633e+00 2.117704153060913086e+00
-9.887893676757812500e+00 -5.250709056854248047e+00 2.943364381790161133e+00
-8.805373191833496094e+00 -3.480850696563720703e+00 2.404671430587768555e+00
-1.141344261169433594e+01 -5.010002613067626953e+00 3.031633853912353516e+00
-1.035439968109130859e+01 -5.009832859039306641e+00 2.680994033813476562e+00
-9.946945190429687500e+00 -5.270943641662597656e+00 2.516282558441162109e+00
-1.160569953918457031e+01 -4.590189456939697266e+00 2.680137634277343750e+00
-8.783886909484863281e+00 -3.852086067199707031e+00 1.961857438087463379e+00
-1.132074260711669922e+01 -4.959887981414794922e+00 2.059418439865112305e+00
-1.082716083526611328e+01 -5.226916313171386719e+00 1.887022376060485840e+00
-1.160334396362304688e+01 -5.078875541687011719e+00 1.640556216239929199e+00
-1.272579765319824219e+01 -5.017796516418457031e+00 9.013865590095520020e-01
-8.612060546875000000e+00 -3.762404918670654297e+00 5.303686857223510742e-01
-9.502933502197265625e+00 -4.569241046905517578e+00 4.954153895378112793e-01
-7.353324890136718750e+00 -3.867030620574951172e+00 3.119061291217803955e-01
-9.384106636047363281e+00 -3.698271751403808594e+00 2.993620932102203369e-01
-3.253848791122436523e+00 -1.420176863670349121e+00 7.188799232244491577e-02
-7.183326721191406250e+00 -3.449287891387939453e+00 8.484042435884475708e-02
-5.706229686737060547e+00 -2.998299360275268555e+00 7.875273004174232483e-03
-8.921952247619628906e+00 -3.461997032165527344e+00 2.820261478424072266e+00
-1.011537265777587891e+01 -4.370567798614501953e+00 3.122272253036499023e+00
-6.974925994873046875e+00 -3.326542139053344727e+00 2.108228921890258789e+00
-1.020871353149414062e+01 -5.341028213500976562e+00 3.029051542282104492e+00
-8.756994247436523438e+00 -3.399746656417846680e+00 2.385717868804931641e+00
-1.119060993194580078e+01 -4.830512523651123047e+00 2.964516401290893555e+00
-1.201772975921630859e+01 -5.723878383636474609e+00 3.102516889572143555e+00
-1.007253170013427734e+01 -5.258589744567871094e+00 2.539841890335083008e+00
-1.269448184967041016e+01 -4.930955410003662109e+00 2.924530982971191406e+00
-8.826249122619628906e+00 -3.806263685226440430e+00 1.966065645217895508e+00
-1.026093482971191406e+01 -4.878355503082275391e+00 2.212580442428588867e+00
-1.036545944213867188e+01 -5.400012969970703125e+00 2.161971807479858398e+00
-1.254344844818115234e+01 -4.869770050048828125e+00 2.377425909042358398e+00
-1.286055088043212891e+01 -4.990296363830566406e+00 1.921550869941711426e+00
-1.162335777282714844e+01 -5.002878189086914062e+00 1.639014720916748047e+00
-1.289009189605712891e+01 -4.996582984924316406e+00 1.416444182395935059e+00
-1.275913810729980469e+01 -4.940699100494384766e+00 9.015838503837585449e-01
-8.725801467895507812e+00 -3.748505592346191406e+00 5.359467864036560059e-01
-8.153900146484375000e+00 -3.859174728393554688e+00 4.238438904285430908e-01
-7.532189846038818359e+00 -3.902283906936645508e+00 3.184714019298553467e-01
-1.273729896545410156e+01 -4.929686069488525391e+00 4.053595662117004395e-01
-9.147131919860839844e+00 -3.925722599029541016e+00 2.015536129474639893e-01
-3.227450132369995117e+00 -1.525457978248596191e+00 3.800731897354125977e-02
-5.736064434051513672e+00 -2.969206333160400391e+00 7.891155779361724854e-03
-9.066725730895996094e+00 -3.454315423965454102e+00 2.859271049499511719e+00
-9.696578025817871094e+00 -4.119198799133300781e+00 2.985146522521972656e+00
-1.025614261627197266e+01 -4.814427375793457031e+00 3.091016292572021484e+00
-1.146289062500000000e+01 -5.907890319824218750e+00 3.390361309051513672e+00
-8.669916152954101562e+00 -3.304868698120117188e+00 2.356425762176513672e+00
-1.122361564636230469e+01 -4.763275623321533203e+00 2.965461492538452148e+00
-1.170342731475830078e+01 -5.486333847045898438e+00 3.012628316879272461e+00
-9.840776443481445312e+00 -5.061000823974609375e+00 2.473526477813720703e+00
-1.277291488647460938e+01 -4.871436119079589844e+00 2.935658931732177734e+00
-8.841319084167480469e+00 -3.748593091964721680e+00 1.964262008666992188e+00
-1.027022647857666016e+01 -4.805735588073730469e+00 2.208184003829956055e+00
-1.255837059020996094e+01 -4.787100791931152344e+00 2.374641895294189453e+00
-1.288722705841064453e+01 -4.909881591796875000e+00 1.920999050140380859e+00
-1.286844253540039062e+01 -4.897581577301025391e+00 1.410736441612243652e+00
-1.278641510009765625e+01 -4.861253738403320312e+00 9.013865590095520020e-01
-8.895797729492187500e+00 -3.757045984268188477e+00 5.449619293212890625e-01
-3.242538452148437500e+00 -1.510384440422058105e+00 1.680638939142227173e-01
-9.505293846130371094e+00 -4.850766658782958984e+00 4.006309807300567627e-01
-1.279253578186035156e+01 -4.861025333404541016e+00 4.061605632305145264e-01
-9.172889709472656250e+00 -3.870300292968750000e+00 2.015940994024276733e-01
-3.240375995635986328e+00 -1.507312893867492676e+00 3.804990276694297791e-02
-5.750611782073974609e+00 -2.932137727737426758e+00 7.886269129812717438e-03
-9.269235610961914062e+00 -3.466489553451538086e+00 2.916371583938598633e+00
-8.735298156738281250e+00 -3.647730112075805664e+00 2.682270050048828125e+00
-9.876487731933593750e+00 -4.562466621398925781e+00 2.968101978302001953e+00
-9.582724571228027344e+00 -4.864682674407958984e+00 2.825385808944702148e+00
-1.285576248168945312e+01 -4.810329437255859375e+00 3.486023187637329102e+00
-1.176827335357666016e+01 -4.909431934356689453e+00 3.101351022720336914e+00
-1.151667118072509766e+01 -5.312838554382324219e+00 2.956107616424560547e+00
-8.991475105285644531e+00 -4.554670333862304688e+00 2.252983331680297852e+00
-1.262767601013183594e+01 -4.727497577667236328e+00 2.895556449890136719e+00
-8.870484352111816406e+00 -3.696911334991455078e+00 1.965664744377136230e+00
-8.615327835083007812e+00 -3.967106342315673828e+00 1.847098231315612793e+00
-1.282453727722167969e+01 -4.798645496368408203e+00 2.419358015060424805e+00
-1.104448223114013672e+01 -5.083324909210205078e+00 1.908264875411987305e+00
-1.294308567047119141e+01 -4.840428352355957031e+00 1.924862027168273926e+00
-1.294018650054931641e+01 -4.834196090698242188e+00 1.415323019027709961e+00
-1.285339736938476562e+01 -4.796660900115966797e+00 9.040166139602661133e-01
-9.081897735595703125e+00 -3.770146369934082031e+00 5.549348592758178711e-01
-3.216330766677856445e+00 -1.474227786064147949e+00 1.662335395812988281e-01
-7.725939750671386719e+00 -3.883156061172485352e+00 3.246240019798278809e-01
-1.283804225921630859e+01 -4.788378238677978516e+00 4.066648781299591064e-01
-9.273117065429687500e+00 -3.845732927322387695e+00 2.032743990421295166e-01
-3.223196268081665039e+00 -1.475332975387573242e+00 3.774116188287734985e-02
-5.716663360595703125e+00 -2.870768785476684570e+00 7.815408520400524139e-03
-8.904922485351562500e+00 -3.268104553222656250e+00 2.795386314392089844e+00
-1.223862552642822266e+01 -5.022701740264892578e+00 3.748471736907958984e+00
-9.936792373657226562e+00 -4.516550064086914062e+00 2.977840185165405273e+00
-1.064139080047607422e+01 -3.907495498657226562e+00 2.879009008407592773e+00
-8.782775878906250000e+00 -3.600847721099853516e+00 2.308701992034912109e+00
-8.692606925964355469e+00 -3.945542573928833008e+00 2.224968433380126953e+00
-8.469086647033691406e+00 -4.224953174591064453e+00 2.115553379058837891e+00
-1.222602939605712891e+01 -4.491793155670166016e+00 2.797085285186767578e+00
-8.929266929626464844e+00 -3.657267093658447266e+00 1.973680734634399414e+00
-8.673481941223144531e+00 -3.929561614990234375e+00 1.854362010955810547e+00
-1.128318881988525391e+01 -4.143162250518798828e+00 2.123745441436767578e+00
-1.148043537139892578e+01 -5.198849678039550781e+00 1.978039860725402832e+00
-1.288727188110351562e+01 -4.719419479370117188e+00 9.043453931808471680e-01
-3.257186651229858398e+00 -1.468837261199951172e+00 1.678761690855026245e-01
-9.493351936340332031e+00 -4.698737621307373047e+00 3.976671993732452393e-01
-1.290848350524902344e+01 -4.724632263183593750e+00 4.079702198505401611e-01
-9.305798530578613281e+00 -3.792535066604614258e+00 2.034768462181091309e-01
-3.214864730834960938e+00 -1.447726964950561523e+00 3.753888234496116638e-02
-5.806777477264404297e+00 -2.871543407440185547e+00 7.914368063211441040e-03
-8.825531959533691406e+00 -3.177659034729003906e+00 2.764291763305664062e+00
-1.187302970886230469e+01 -4.787752628326416016e+00 3.627430200576782227e+00
-8.904828071594238281e+00 -3.981748342514038086e+00 2.661211252212524414e+00
-9.893328666687011719e+00 -4.870601177215576172e+00 2.899122476577758789e+00
-1.113842391967773438e+01 -4.012619018554687500e+00 3.006762504577636719e+00
-8.820928573608398438e+00 -3.553425550460815430e+00 2.312956094741821289e+00
-1.096918201446533203e+01 -4.897923469543457031e+00 2.799937725067138672e+00
-1.145552253723144531e+01 -5.627273082733154297e+00 2.852877616882324219e+00
-1.211815261840820312e+01 -4.367955684661865234e+00 2.766221284866333008e+00
-1.162182235717773438e+01 -4.677023887634277344e+00 2.562438249588012695e+00
-8.714465141296386719e+00 -3.883860111236572266e+00 1.857993960380554199e+00
-1.105918025970458984e+01 -3.984071016311645508e+00 2.076941728591918945e+00
-1.160506725311279297e+01 -5.169715404510498047e+00 1.994010448455810547e+00
-1.142790222167968750e+01 -4.589715957641601562e+00 1.595085024833679199e+00
-1.313563632965087891e+01 -5.264935970306396484e+00 7.986238598823547363e-01
-3.271616458892822266e+00 -1.451254129409790039e+00 1.681577563285827637e-01
-7.899670600891113281e+00 -3.849780559539794922e+00 3.299137353897094727e-01
-9.365091323852539062e+00 -3.749858379364013672e+00 2.042663693428039551e-01
-3.242886781692504883e+00 -1.436478257179260254e+00 3.776245564222335815e-02
-5.826086044311523438e+00 -2.836735248565673828e+00 7.916811853647232056e-03
-8.912699699401855469e+00 -3.147402048110961914e+00 2.785492420196533203e+00
-9.241052627563476562e+00 -3.660657644271850586e+00 2.816397190093994141e+00
-1.011598777770996094e+01 -4.449033737182617188e+00 3.014951705932617188e+00
-1.000657463073730469e+01 -4.850301742553710938e+00 2.923531770706176758e+00
-1.120213222503662109e+01 -3.958083868026733398e+00 3.017347097396850586e+00
-1.178346252441406250e+01 -4.663023948669433594e+00 3.082208395004272461e+00
-1.103469562530517578e+01 -4.846189975738525391e+00 2.809017181396484375e+00
-1.058403778076171875e+01 -5.118803024291992188e+00 2.627971887588500977e+00
-8.663084030151367188e+00 -3.062655210494995117e+00 1.973202943801879883e+00
-8.746222496032714844e+00 -3.833862543106079102e+00 1.859714269638061523e+00
-8.550455093383789062e+00 -4.126089572906494141e+00 1.756170272827148438e+00
-1.282639503479003906e+01 -5.055037498474121094e+00 1.281369447708129883e+00
-1.281746006011962891e+01 -5.046347618103027344e+00 7.773820757865905762e-01
-8.667627334594726562e+00 -3.781389951705932617e+00 4.443062841892242432e-01
-8.083516120910644531e+00 -3.878177404403686523e+00 3.365915119647979736e-01
-1.303902912139892578e+01 -4.591766834259033203e+00 4.102841913700103760e-01
-9.360942840576171875e+00 -3.681712627410888672e+00 2.036792933940887451e-01
-3.258056879043579102e+00 -1.419348835945129395e+00 3.783697634935379028e-02
-5.853301048278808594e+00 -2.805688142776489258e+00 7.930250838398933411e-03
-9.098356246948242188e+00 -3.539699792861938477e+00 2.766235828399658203e+00
-1.006960201263427734e+01 -4.355093479156494141e+00 2.993105888366699219e+00
-7.056202888488769531e+00 -3.366911649703979492e+00 2.055473327636718750e+00
-9.478809356689453125e+00 -3.283895492553710938e+00 2.547686576843261719e+00
-1.205095100402832031e+01 -4.683558940887451172e+00 3.144599437713623047e+00
-1.109104633331298828e+01 -4.789975166320800781e+00 2.815826892852783203e+00
-1.146203422546386719e+01 -5.456907272338867188e+00 2.837607383728027344e+00
-1.214128017425537109e+01 -4.208671569824218750e+00 2.759502649307250977e+00
-1.269666767120361328e+01 -4.929413795471191406e+00 2.785877466201782227e+00
-8.812849044799804688e+00 -3.798774719238281250e+00 1.868889570236206055e+00
-8.583605766296386719e+00 -4.077344417572021484e+00 1.757807254791259766e+00
-1.284297561645507812e+01 -4.981059074401855469e+00 2.295273780822753906e+00
-1.152337551116943359e+01 -4.964761257171630859e+00 1.969356656074523926e+00
-1.285844612121582031e+01 -4.981896400451660156e+00 1.786089420318603516e+00
-1.278195571899414062e+01 -4.947129726409912109e+00 1.273873329162597656e+00
-1.278206539154052734e+01 -4.942042827606201172e+00 7.733816504478454590e-01
-8.854070663452148438e+00 -3.798232555389404297e+00 4.526602327823638916e-01
-8.085473060607910156e+00 -3.818263530731201172e+00 3.356911242008209229e-01
-9.562424659729003906e+00 -3.693368196487426758e+00 2.075662165880203247e-01
-7.559194087982177734e+00 -3.238069295883178711e+00 8.755522966384887695e-02
-3.222347497940063477e+00 -1.520337939262390137e+00 4.353024996817111969e-03
-1.261884880065917969e+01 -4.820404529571533203e+00 3.827530384063720703e+00
-9.350377082824707031e+00 -3.976103544235229492e+00 2.772018194198608398e+00
-1.001369380950927734e+01 -4.702883720397949219e+00 2.908530235290527344e+00
-9.106898307800292969e+00 -3.092594146728515625e+00 2.442579269409179688e+00
-1.179531478881835938e+01 -4.501096725463867188e+00 3.070628166198730469e+00
-1.121704196929931641e+01 -4.762940406799316406e+00 2.840342044830322266e+00
-1.053470802307128906e+01 -4.936359405517578125e+00 2.600485801696777344e+00
-1.275505447387695312e+01 -4.862234115600585938e+00 2.792089700698852539e+00
-8.609353065490722656e+00 -4.025016307830810547e+00 1.757989168167114258e+00
-1.143801403045654297e+01 -4.355605602264404297e+00 2.039366722106933594e+00
-1.288784503936767578e+01 -4.902551651000976562e+00 1.785960912704467773e+00
-1.145948028564453125e+01 -4.842294692993164062e+00 1.494458794593811035e+00
-1.281206989288330078e+01 -4.868607997894287109e+00 1.273873329162597656e+00
-1.279441356658935547e+01 -4.856788158416748047e+00 7.723110914230346680e-01
-8.938876152038574219e+00 -3.769840478897094727e+00 4.558047056198120117e-01
-3.249662160873413086e+00 -1.510296106338500977e+00 1.345315724611282349e-01
-9.960712432861328125e+00 -3.777131557464599609e+00 2.157044857740402222e-01
-7.659097194671630859e+00 -3.225389719009399414e+00 8.848147094249725342e-02
-3.222545623779296875e+00 -1.496325850486755371e+00 4.340807441622018814e-03
-8.922702789306640625e+00 -2.967377424240112305e+00 2.771075963973999023e+00
-8.821300506591796875e+00 -3.307859182357788086e+00 2.669457197189331055e+00
-1.059226322174072266e+01 -4.427649497985839844e+00 3.132075309753417969e+00
-8.820317268371582031e+00 -4.076551437377929688e+00 2.554594278335571289e+00
-1.195915031433105469e+01 -3.979511260986328125e+00 3.200977563858032227e+00
-1.163253498077392578e+01 -4.357399940490722656e+00 3.021235227584838867e+00
-1.101507759094238281e+01 -4.597615718841552734e+00 2.782005071640014648e+00
-8.519371032714843750e+00 -3.928441524505615234e+00 2.097011089324951172e+00
-1.275620365142822266e+01 -4.773235321044921875e+00 2.785877466201782227e+00
-1.161420917510986328e+01 -4.838171005249023438e+00 2.450181722640991211e+00
-8.639247894287109375e+00 -3.974580526351928711e+00 1.759080410003662109e+00
-1.143680477142333984e+01 -4.274979591369628906e+00 2.034435749053955078e+00
-1.148949623107910156e+01 -4.783865928649902344e+00 1.953385949134826660e+00
-1.121276760101318359e+01 -5.149075031280517578e+00 1.819794058799743652e+00
-1.291954326629638672e+01 -4.824075222015380859e+00 1.786217927932739258e+00
-1.148989295959472656e+01 -4.772270202636718750e+00 1.494578003883361816e+00
-1.286316013336181641e+01 -4.797906875610351562e+00 1.276001930236816406e+00
-1.281555271148681641e+01 -4.775054454803466797e+00 7.718039751052856445e-01
-9.019972801208496094e+00 -3.739019632339477539e+00 4.587614238262176514e-01
-3.238874912261962891e+00 -1.481184959411621094e+00 1.337062269449234009e-01
-1.075953388214111328e+01 -4.004708290100097656e+00 2.324668765068054199e-01
-7.866299629211425781e+00 -3.255965709686279297e+00 9.064266085624694824e-02
-3.234395027160644531e+00 -1.477771282196044922e+00 4.344472661614418030e-03
-1.062893104553222656e+01 -3.462524175643920898e+00 3.294309616088867188e+00
-8.740303039550781250e+00 -3.216454982757568359e+00 2.638924121856689453e+00
-7.738653659820556641e+00 -3.179179668426513672e+00 2.282467126846313477e+00
-1.070628452301025391e+01 -4.868701934814453125e+00 3.092108964920043945e+00
-1.145715904235839844e+01 -3.734543085098266602e+00 3.060424089431762695e+00
-1.113009071350097656e+01 -4.091492176055908203e+00 2.884164333343505859e+00
-8.840951919555664062e+00 -3.626614570617675781e+00 2.227238416671752930e+00
-8.574419975280761719e+00 -3.890206098556518555e+00 2.104646205902099609e+00
-1.164004421234130859e+01 -4.765328884124755859e+00 2.449417352676391602e+00
-8.668847084045410156e+00 -3.923928976058959961e+00 1.760171771049499512e+00
