-4.037444889545440674e-01 -6.205586910247802734e+00 1.512508273124694824e+00
-1.735159307718276978e-01 -6.202270030975341797e+00 1.446161508560180664e+00
-4.577166438102722168e-01 -4.473131656646728516e+00 9.656054973602294922e-01
-4.175196588039398193e-01 -6.382921218872070312e+00 1.308372497558593750e+00
-1.942692399024963379e-01 -6.774890899658203125e+00 1.319902062416076660e+00
-4.603915512561798096e-01 -4.491531372070312500e+00 7.977529764175415039e-01
-1.594803035259246826e-01 -5.527996540069580078e+00 8.679992556571960449e-01
-4.608054161071777344e-01 -4.487847328186035156e+00 6.284222006797790527e-01
-1.638602018356323242e-01 -5.512912750244140625e+00 6.625474095344543457e-01
-2.115463465452194214e-01 -6.297173976898193359e+00 1.718956589698791504e+00
-6.746602058410644531e-01 -6.206254482269287109e+00 1.585473418235778809e+00
-4.433324038982391357e-01 -6.224316120147705078e+00 1.517707586288452148e+00
-2.117019146680831909e-01 -6.204982280731201172e+00 1.447069525718688965e+00
-4.565367698669433594e-01 -6.378284931182861328e+00 1.307971715927124023e+00
-2.154112458229064941e-01 -6.186953544616699219e+00 1.205593347549438477e+00
-6.683267951011657715e-01 -6.147992610931396484e+00 1.092669367790222168e+00
-1.930164396762847900e-01 -5.516054153442382812e+00 8.662936687469482422e-01
-6.004735231399536133e-01 -5.514845371246337891e+00 7.727316617965698242e-01
-3.952145576477050781e-01 -5.467942714691162109e+00 7.100685238838195801e-01
-1.982530802488327026e-01 -5.527678966522216797e+00 6.644557118415832520e-01
-5.513237416744232178e-02 -7.518267035484313965e-01 1.526430528610944748e-02
-5.658277273178100586e-01 -4.916137218475341797e+00 1.458327174186706543e+00
-5.285112261772155762e-01 -6.859811782836914062e+00 1.949477910995483398e+00
-2.529774904251098633e-01 -6.366127967834472656e+00 1.738170146942138672e+00
-1.774469576776027679e-02 -6.532971382141113281e+00 1.717555880546569824e+00
-6.751056909561157227e-01 -5.874614238739013672e+00 1.501781344413757324e+00
-4.842899441719055176e-01 -6.257322788238525391e+00 1.526451706886291504e+00
-2.484780550003051758e-01 -6.171453952789306641e+00 1.439578771591186523e+00
-2.478294819593429565e-02 -6.905542850494384766e+00 1.543581604957580566e+00
-5.029549002647399902e-01 -6.469132900238037109e+00 1.327209472656250000e+00
-2.531285881996154785e-01 -6.179630756378173828e+00 1.204446434974670410e+00
-5.466006398200988770e-01 -6.998901367187500000e+00 1.169743061065673828e+00
-2.296603918075561523e-01 -5.582873821258544922e+00 8.769924640655517578e-01
-2.864071913063526154e-02 -5.550876140594482422e+00 8.187030553817749023e-01
-6.366788744926452637e-01 -5.531720161437988281e+00 7.756289243698120117e-01
-4.246470332145690918e-01 -5.413014888763427734e+00 7.032606601715087891e-01
-2.334584593772888184e-01 -5.557110309600830078e+00 6.681531071662902832e-01
-3.159920871257781982e-02 -5.560020923614501953e+00 6.148241758346557617e-01
-6.370821595191955566e-01 -5.518265724182128906e+00 5.691461563110351562e-01
-6.480826735496520996e-01 -5.342030048370361328e+00 1.585814118385314941e+00
-5.302175283432006836e-01 -6.371282577514648438e+00 1.811534166336059570e+00
-2.891602218151092529e-01 -6.301814079284667969e+00 1.721062302589416504e+00
-5.677691102027893066e-02 -6.413786888122558594e+00 1.686281442642211914e+00
-6.598520874977111816e-01 -5.446994781494140625e+00 1.393473863601684570e+00
-5.258309841156005859e-01 -6.291997432708740234e+00 1.535668492317199707e+00
-2.857537567615509033e-01 -6.157166004180908203e+00 1.436627864837646484e+00
-6.328471899032592773e-01 -5.231720447540283203e+00 1.131683707237243652e+00
-5.419838428497314453e-01 -6.458115100860595703e+00 1.325606346130371094e+00
-2.913646399974822998e-01 -6.184824466705322266e+00 1.205784559249877930e+00
-5.454667210578918457e-01 -6.472504615783691406e+00 1.082304120063781738e+00
-2.974608838558197021e-01 -6.290871143341064453e+00 9.884772300720214844e-01
-6.253210455179214478e-02 -5.535757541656494141e+00 8.165144324302673340e-01
-6.763344407081604004e-01 -5.574903964996337891e+00 7.822511196136474609e-01
-4.599433243274688721e-01 -5.435011863708496094e+00 7.064719200134277344e-01
-2.725189030170440674e-01 -5.658711433410644531e+00 6.805571913719177246e-01
-6.545581668615341187e-02 -5.537857055664062500e+00 6.124061942100524902e-01
-5.977146625518798828e-01 -4.686170578002929688e+00 1.392180800437927246e+00
-5.663881301879882812e-01 -6.335327148437500000e+00 1.802265286445617676e+00
-3.288246393203735352e-01 -6.319189548492431641e+00 1.726326346397399902e+00
-9.476757794618606567e-02 -6.322416782379150391e+00 1.662380456924438477e+00
-6.753822565078735352e-01 -5.302469730377197266e+00 1.357535481452941895e+00
-5.611273646354675293e-01 -6.251876831054687500e+00 1.526688098907470703e+00
-3.249593377113342285e-01 -6.182528018951416016e+00 1.442983627319335938e+00
-6.730785965919494629e-01 -5.291752338409423828e+00 1.145541071891784668e+00
-5.822153091430664062e-01 -6.461498260498046875e+00 1.327009081840515137e+00
-3.305092751979827881e-01 -6.205464363098144531e+00 1.210181117057800293e+00
-6.965213418006896973e-01 -5.468434333801269531e+00 9.740068316459655762e-01
-6.089866161346435547e-01 -6.732316017150878906e+00 1.126352310180664062e+00
-3.030560016632080078e-01 -5.671379089355468750e+00 8.914125561714172363e-01
-9.632525593042373657e-02 -5.525378227233886719e+00 8.150553703308105469e-01
-4.964223504066467285e-01 -5.466655254364013672e+00 7.109676599502563477e-01
-3.029274344444274902e-01 -5.577620983123779297e+00 6.710156202316284180e-01
-9.929147362709045410e-02 -5.529400825500488281e+00 6.115269660949707031e-01
-6.836969852447509766e-01 -5.110249996185302734e+00 1.519385218620300293e+00
-4.303859472274780273e-01 -4.502416610717773438e+00 1.281568408012390137e+00
-3.939329087734222412e-01 -6.769715785980224609e+00 1.850030064582824707e+00
-1.328648626804351807e-01 -6.288841247558593750e+00 1.653735518455505371e+00
-7.063645124435424805e-01 -5.286697387695312500e+00 1.354581594467163086e+00
-4.303989112377166748e-01 -4.486020088195800781e+00 1.096095800399780273e+00
-3.627743422985076904e-01 -6.178473472595214844e+00 1.442529678344726562e+00
-1.383641809225082397e-01 -6.289237499237060547e+00 1.406151413917541504e+00
-7.045009732246398926e-01 -5.279769897460937500e+00 1.143861413002014160e+00
-4.319716691970825195e-01 -4.485940933227539062e+00 9.218124747276306152e-01
-3.794076144695281982e-01 -6.385568618774414062e+00 1.245735287666320801e+00
-7.021532058715820312e-01 -5.255177974700927734e+00 9.367725849151611328e-01
-4.431381225585937500e-01 -4.585126399993896484e+00 7.675566077232360840e-01
-3.329716026782989502e-01 -5.587562084197998047e+00 8.785430192947387695e-01
-1.300400197505950928e-01 -5.516770839691162109e+00 8.138880133628845215e-01
-6.980705261230468750e-01 -5.217684745788574219e+00 7.332741618156433105e-01
-5.375196933746337891e-01 -5.541485786437988281e+00 7.211151719093322754e-01
-3.348082602024078369e-01 -5.537005901336669922e+00 6.663640141487121582e-01
-1.329779475927352905e-01 -5.518751144409179688e+00 6.104279160499572754e-01
-7.094499468803405762e-01 -5.288692951202392578e+00 5.467228293418884277e-01
-7.190786302089691162e-02 -7.333319187164306641e-01 1.492015086114406586e-02
-7.133105993270874023e-01 -5.093609809875488281e+00 1.515710473060607910e+00
-4.576144516468048096e-01 -4.495862007141113281e+00 1.280477881431579590e+00
-1.703955382108688354e-01 -6.249236583709716797e+00 1.643564939498901367e+00
-7.385213375091552734e-01 -5.280344009399414062e+00 1.354089379310607910e+00
-4.553494751453399658e-01 -4.458161830902099609e+00 1.089951276779174805e+00
-4.026954472064971924e-01 -6.207230091094970703e+00 1.449793338775634766e+00
-1.743986308574676514e-01 -6.197546005249023438e+00 1.385864019393920898e+00
-7.341786623001098633e-01 -5.255981445312500000e+00 1.139662265777587891e+00
-4.599881768226623535e-01 -4.488078594207763672e+00 9.228143692016601562e-01
-4.200588762760162354e-01 -6.405648231506347656e+00 1.250131726264953613e+00
-1.833950281143188477e-01 -6.321061134338378906e+00 1.169749379158020020e+00
-7.309750914573669434e-01 -5.226389408111572266e+00 9.324228167533874512e-01
-4.587503671646118164e-01 -4.460649490356445312e+00 7.471760511398315430e-01
-3.633610010147094727e-01 -5.526267528533935547e+00 8.692397475242614746e-01
-1.642697900533676147e-01 -5.528724193572998047e+00 8.157848715782165527e-01
-7.339186668395996094e-01 -5.240767478942871094e+00 7.371371984481811523e-01
-4.652311503887176514e-01 -4.508201122283935547e+00 5.870139002799987793e-01
-3.669942021369934082e-01 -5.508099555969238281e+00 6.631437540054321289e-01
-1.672283709049224854e-01 -5.530746936798095703e+00 6.118566989898681641e-01
-4.871695861220359802e-02 -7.235618233680725098e-01 3.407271206378936768e-02
-7.067818641662597656e-01 -4.830978393554687500e+00 1.438822388648986816e+00
-6.935445070266723633e-01 -6.422354221343994141e+00 1.830344557762145996e+00
-2.083494067192077637e-01 -6.236474037170410156e+00 1.640513777732849121e+00
-7.528290152549743652e-01 -5.151996135711669922e+00 1.322335600852966309e+00
-6.583165526390075684e-01 -6.076265811920166016e+00 1.486512064933776855e+00
-4.422239959239959717e-01 -6.225043296813964844e+00 1.454560160636901855e+00
-2.125231027603149414e-01 -6.199285507202148438e+00 1.386518478393554688e+00
-7.572371363639831543e-01 -5.188492774963378906e+00 1.126014828681945801e+00
-6.795607209205627441e-01 -6.251968860626220703e+00 1.286329150199890137e+00
-4.636397957801818848e-01 -6.462671756744384766e+00 1.261792063713073730e+00
-2.184457182884216309e-01 -6.213684558868408203e+00 1.150104999542236328e+00
-7.584735751152038574e-01 -5.190625190734863281e+00 9.268550276756286621e-01
-3.959162831306457520e-01 -5.505211830139160156e+00 8.662936687469482422e-01
-1.988638341426849365e-01 -5.546396732330322266e+00 8.185571432113647461e-01
-7.603265643119812012e-01 -5.196965694427490234e+00 7.316187024116516113e-01
-3.994868695735931396e-01 -5.487919330596923828e+00 6.609968543052673340e-01
-2.020646184682846069e-01 -5.554448604583740234e+00 6.146044135093688965e-01
-7.706881761550903320e-01 -5.254981994628906250e+00 5.441746711730957031e-01
-7.518913745880126953e-01 -4.928012371063232422e+00 1.469068765640258789e+00
-6.148210763931274414e-01 -5.383683681488037109e+00 1.535374045372009277e+00
-5.327106118202209473e-01 -6.946967601776123047e+00 1.900827527046203613e+00
-2.483317852020263672e-01 -6.278565406799316406e+00 1.651955723762512207e+00
-7.232438921928405762e-01 -4.745807170867919922e+00 1.219197273254394531e+00
-4.853598773479461670e-01 -6.286299228668212891e+00 1.469541668891906738e+00
-2.505572140216827393e-01 -6.197865009307861328e+00 1.386518478393554688e+00
-7.088729739189147949e-01 -4.656964302062988281e+00 1.011586666107177734e+00
-5.070211887359619141e-01 -6.507656097412109375e+00 1.271158456802368164e+00
-2.562840282917022705e-01 -6.205349922180175781e+00 1.148831844329833984e+00
-7.044085264205932617e-01 -4.622212886810302734e+00 8.261137008666992188e-01
-4.264580011367797852e-01 -5.461312770843505859e+00 8.597813248634338379e-01
-2.331412285566329956e-01 -5.551002979278564453e+00 8.194326162338256836e-01
-7.172077894210815430e-01 -4.700690746307373047e+00 6.623611450195312500e-01
-6.429601907730102539e-01 -5.561192989349365234e+00 7.250971198081970215e-01
-4.277596473693847656e-01 -5.417069911956787109e+00 6.527671813964843750e-01
-2.377469390630722046e-01 -5.590839862823486328e+00 6.187808513641357422e-01
-7.111814022064208984e-01 -4.650305271148681641e+00 4.820007681846618652e-01
-8.379480838775634766e-01 -5.274767875671386719e+00 1.573941707611083984e+00
-6.438171267509460449e-01 -5.346376895904541016e+00 1.525832414627075195e+00
-5.282455086708068848e-01 -6.375353813171386719e+00 1.745276689529418945e+00
-2.827455997467041016e-01 -6.187074184417724609e+00 1.628309130668640137e+00
-8.328558802604675293e-01 -5.248625278472900391e+00 1.349658608436584473e+00
-6.499953269958496094e-01 -5.381854534149169922e+00 1.318481922149658203e+00
-5.258649587631225586e-01 -6.306494712829589844e+00 1.474989295005798340e+00
-2.890358865261077881e-01 -6.205959320068359375e+00 1.388699889183044434e+00
-8.242181539535522461e-01 -5.200053691864013672e+00 1.130633950233459473e+00
-6.579761505126953125e-01 -5.432005405426025391e+00 1.119200468063354492e+00
-5.385527014732360840e-01 -6.404655456542968750e+00 1.251660943031311035e+00
-2.947273254394531250e-01 -6.211517810821533203e+00 1.150286912918090820e+00
-8.202614784240722656e-01 -5.169255733489990234e+00 9.247671365737915039e-01
-4.597940742969512939e-01 -5.456624507904052734e+00 8.594712018966674805e-01
-2.692430019378662109e-01 -5.591958522796630859e+00 8.257068395614624023e-01
-8.204699754714965820e-01 -5.164745807647705078e+00 7.284454703330993652e-01
-2.766377329826354980e-01 -5.683588504791259766e+00 6.292221546173095703e-01
-7.863144278526306152e-01 -4.938614845275878906e+00 5.123742818832397461e-01
-8.649833798408508301e-01 -5.237349987030029297e+00 1.564330816268920898e+00
-6.762471199035644531e-01 -5.339462757110595703e+00 1.525014638900756836e+00
-5.688940882682800293e-01 -6.389288902282714844e+00 1.750014185905456543e+00
-3.198020160198211670e-01 -6.167837619781494141e+00 1.623732328414916992e+00
-8.659917712211608887e-01 -5.249153614044189453e+00 1.351135492324829102e+00
-6.801897287368774414e-01 -5.355594158172607422e+00 1.313046216964721680e+00
-5.632477998733520508e-01 -6.288599491119384766e+00 1.471584558486938477e+00
-3.272636532783508301e-01 -6.206992626190185547e+00 1.389354348182678223e+00
-8.573814034461975098e-01 -5.202616214752197266e+00 1.132313609123229980e+00
-6.862190961837768555e-01 -5.388019561767578125e+00 1.110984325408935547e+00
-5.745756626129150391e-01 -6.365059852600097656e+00 1.244588375091552734e+00
-3.408873975276947021e-01 -6.359824657440185547e+00 1.178116440773010254e+00
-8.562920093536376953e-01 -5.190359115600585938e+00 9.294649958610534668e-01
-4.947794675827026367e-01 -5.470426559448242188e+00 8.621072173118591309e-01
-3.017794191837310791e-01 -5.557602405548095703e+00 8.208917975425720215e-01
-8.597301840782165527e-01 -5.205542564392089844e+00 7.349297404289245605e-01
-3.086769580841064453e-01 -5.630176544189453125e+00 6.235069036483764648e-01
-8.632235527038574219e-01 -5.215369701385498047e+00 5.416265726089477539e-01
-9.651880264282226562e-01 -5.629019260406494141e+00 1.683054804801940918e+00
-7.031665444374084473e-01 -5.291340827941894531e+00 1.512474298477172852e+00
-4.277371466159820557e-01 -4.491775512695312500e+00 1.230984568595886230e+00
-3.624574840068817139e-01 -6.248793125152587891e+00 1.645599007606506348e+00
-8.944200873374938965e-01 -5.221768856048583984e+00 1.345473885536193848e+00
-7.057230472564697266e-01 -5.296419620513916016e+00 1.299575448036193848e+00
-4.301788210868835449e-01 -4.492489337921142578e+00 1.051877617835998535e+00
-3.654575943946838379e-01 -6.206816196441650391e+00 1.389790654182434082e+00
-8.927507400512695312e-01 -5.217494964599609375e+00 1.136722683906555176e+00
-7.062926888465881348e-01 -5.286599159240722656e+00 1.090945005416870117e+00
-4.364421367645263672e-01 -4.524606227874755859e+00 8.852232098579406738e-01
-3.831301331520080566e-01 -6.411599636077880859e+00 1.188120603561401367e+00
-8.901183009147644043e-01 -5.196654319763183594e+00 9.315528273582458496e-01
-7.086482644081115723e-01 -5.290161132812500000e+00 8.893466591835021973e-01
-4.361622929573059082e-01 -4.513462066650390625e+00 7.117035984992980957e-01
-3.352775275707244873e-01 -5.545771121978759766e+00 8.194326162338256836e-01
-8.928263187408447266e-01 -5.207002639770507812e+00 7.358955144882202148e-01
-7.090429663658142090e-01 -5.279103755950927734e+00 6.899019479751586914e-01
-3.385587334632873535e-01 -5.551784992218017578e+00 6.150439977645874023e-01
-8.984090089797973633e-01 -5.228603363037109375e+00 5.435631275177001953e-01
-7.332336902618408203e-01 -5.269773483276367188e+00 1.507567167282104492e+00
-4.526617825031280518e-01 -4.463151454925537109e+00 1.223878145217895508e+00
-4.011021554470062256e-01 -6.251277446746826172e+00 1.646870374679565430e+00
-9.335621595382690430e-01 -5.256263256072998047e+00 1.355812430381774902e+00
-7.343149185180664062e-01 -5.264081478118896484e+00 1.292721986770629883e+00
-4.566495418548583984e-01 -4.479107379913330078e+00 1.049380660057067871e+00
-4.056252241134643555e-01 -6.236594200134277344e+00 1.396989345550537109e+00
-9.250895380973815918e-01 -5.213844776153564453e+00 1.137142658233642578e+00
-7.334252595901489258e-01 -5.244325160980224609e+00 1.083129644393920898e+00
-4.566786289215087891e-01 -4.448610782623291016e+00 8.708869218826293945e-01
-4.242100119590759277e-01 -6.435620307922363281e+00 1.193031668663024902e+00
-9.219875931739807129e-01 -5.191094875335693359e+00 9.315528273582458496e-01
-7.339727878570556641e-01 -5.234917163848876953e+00 8.807999491691589355e-01
-4.594016671180725098e-01 -4.467461109161376953e+00 7.048811316490173340e-01
-3.662087917327880859e-01 -5.497215270996093750e+00 8.125748634338378906e-01
-9.270129203796386719e-01 -5.214103221893310547e+00 7.376890182495117188e-01
-7.371423244476318359e-01 -5.244209766387939453e+00 6.859200000762939453e-01
-4.726916849613189697e-01 -4.557610511779785156e+00 5.504331588745117188e-01
-3.716852664947509766e-01 -5.535719394683837891e+00 6.135053038597106934e-01
-9.177375435829162598e-01 -5.151498317718505859e+00 5.361226797103881836e-01
-7.499113082885742188e-01 -5.157586574554443359e+00 1.476761579513549805e+00
-4.699833691120147705e-01 -6.682837009429931641e+00 1.761289477348327637e+00
-1.266511797904968262e+00 -6.885239601135253906e+00 1.777965307235717773e+00
-7.502037286758422852e-01 -5.146979808807373047e+00 1.265071392059326172e+00
-6.603693366050720215e-01 -6.105786323547363281e+00 1.431407094001770020e+00
-4.481127560138702393e-01 -6.293368339538574219e+00 1.410296082496643066e+00
-9.577704668045043945e-01 -5.211916446685791016e+00 1.137982487678527832e+00
-7.527003884315490723e-01 -5.151508808135986328e+00 1.064893722534179688e+00
-6.607264280319213867e-01 -6.069448947906494141e+00 1.188963174819946289e+00
-4.747894108295440674e-01 -6.586877822875976562e+00 1.221588730812072754e+00
-9.564945697784423828e-01 -5.199867725372314453e+00 9.341627359390258789e-01
-7.569308280944824219e-01 -5.167851924896240234e+00 8.702809810638427734e-01
-6.051329970359802246e-01 -5.549762725830078125e+00 8.762172460556030273e-01
-3.967005312442779541e-01 -5.450463771820068359e+00 8.060088753700256348e-01
-9.613201618194580078e-01 -5.220979690551757812e+00 7.394825220108032227e-01
-7.633996605873107910e-01 -5.199358940124511719e+00 6.806535720825195312e-01
-6.070693135261535645e-01 -5.522790431976318359e+00 6.674374341964721680e-01
-4.031013846397399902e-01 -5.498639583587646484e+00 6.096585392951965332e-01
-9.509535431861877441e-01 -5.154574394226074219e+00 5.370399355888366699e-01
-1.135224223136901855e+00 -5.959883213043212891e+00 1.787927746772766113e+00
-7.278727889060974121e-01 -4.799025535583496094e+00 1.375348329544067383e+00
-5.339209437370300293e-01 -6.979730129241943359e+00 1.840365648269653320e+00
-7.201405167579650879e-01 -4.736891746520996094e+00 1.165340423583984375e+00
-4.889782667160034180e-01 -6.319690704345703125e+00 1.416840434074401855e+00
-9.913756847381591797e-01 -5.214586257934570312e+00 1.139872193336486816e+00
-7.090241909027099609e-01 -4.652840614318847656e+00 9.626928567886352539e-01
-5.059913396835327148e-01 -6.466201782226562500e+00 1.199761629104614258e+00
-9.905913472175598145e-01 -5.205509185791015625e+00 9.362505674362182617e-01
-7.044760584831237793e-01 -4.612183094024658203e+00 7.774181365966796875e-01
-6.392874121665954590e-01 -5.546926498413085938e+00 8.763722777366638184e-01
-4.280340969562530518e-01 -5.421298980712890625e+00 8.020693063735961914e-01
-9.948199391365051270e-01 -5.222766399383544922e+00 7.405862212181091309e-01
-7.065891027450561523e-01 -4.615223407745361328e+00 6.047399640083312988e-01
-6.384252905845642090e-01 -5.497264385223388672e+00 6.648135185241699219e-01
-4.343914985656738281e-01 -5.465347290039062500e+00 6.062514185905456543e-01
-9.922605156898498535e-01 -5.199454784393310547e+00 5.423400402069091797e-01
-1.194744229316711426e+00 -6.069509029388427734e+00 1.822979569435119629e+00
-8.296584486961364746e-01 -5.252533435821533203e+00 1.506749391555786133e+00
-6.393846273422241211e-01 -5.325718879699707031e+00 1.463389873504638672e+00
-5.281317830085754395e-01 -6.388376235961914062e+00 1.685264348983764648e+00
-8.278943896293640137e-01 -5.229519367218017578e+00 1.287759065628051758e+00
-6.474511027336120605e-01 -5.369153022766113281e+00 1.260482668876647949e+00
-5.287210345268249512e-01 -6.328241825103759766e+00 1.419458150863647461e+00
-1.026368975639343262e+00 -5.223754882812500000e+00 1.143231511116027832e+00
-8.077235221862792969e-01 -5.090600490570068359e+00 1.054272890090942383e+00
-6.523051261901855469e-01 -5.377816200256347656e+00 1.054965853691101074e+00
-5.416041612625122070e-01 -6.414963722229003906e+00 1.190848946571350098e+00
-1.023653268814086914e+00 -5.205130577087402344e+00 9.372945427894592285e-01
-8.236995935440063477e-01 -5.179605960845947266e+00 8.738968968391418457e-01
-6.842704415321350098e-01 -5.633123397827148438e+00 8.906373381614685059e-01
-4.612065851688385010e-01 -5.417584896087646484e+00 8.019233942031860352e-01
-1.029908180236816406e+00 -5.232112884521484375e+00 7.427936792373657227e-01
-8.271462917327880859e-01 -5.189599514007568359e+00 6.806535720825195312e-01
-4.673242568969726562e-01 -5.455646991729736328e+00 6.054820418357849121e-01
-1.028764486312866211e+00 -5.216692447662353516e+00 5.447862148284912109e-01
-1.032578349113464355e+00 -5.226420402526855469e+00 3.510469794273376465e-01
-8.882389217615127563e-02 -7.217527627944946289e-01 3.416657820343971252e-02
-1.222220897674560547e+00 -6.014123439788818359e+00 1.808563113212585449e+00
-8.606241941452026367e-01 -5.239748477935791016e+00 1.504568338394165039e+00
-6.730175614356994629e-01 -5.329352378845214844e+00 1.465495467185974121e+00
-5.800737738609313965e-01 -6.528553009033203125e+00 1.723149776458740234e+00
-8.605977892875671387e-01 -5.228175640106201172e+00 1.288704276084899902e+00
-6.720516681671142578e-01 -5.299380302429199219e+00 1.245047211647033691e+00
-5.657088160514831543e-01 -6.304466724395751953e+00 1.414877176284790039e+00
-1.060734629631042480e+00 -5.228857040405273438e+00 1.145750999450683594e+00
-8.473953008651733398e-01 -5.136781215667724609e+00 1.064893722534179688e+00
-6.881464123725891113e-01 -5.396107196807861328e+00 1.059362411499023438e+00
-5.818427801132202148e-01 -6.421312332153320312e+00 1.192667841911315918e+00
-1.056943655014038086e+00 -5.205506801605224609e+00 9.385125041007995605e-01
-8.565917611122131348e-01 -5.181266307830810547e+00 8.750474452972412109e-01
-5.042456388473510742e-01 -5.522039890289306641e+00 8.178277015686035156e-01
-1.063175916671752930e+00 -5.231518745422363281e+00 7.436214685440063477e-01
-8.623776435852050781e-01 -5.204972267150878906e+00 6.833509802818298340e-01
-4.996998310089111328e-01 -5.440799236297607422e+00 6.041631102561950684e-01
-1.060952544212341309e+00 -5.211256504058837891e+00 5.448881387710571289e-01
-1.068216919898986816e+00 -5.237585067749023438e+00 3.522305190563201904e-01
-1.240994691848754883e+00 -5.920140266418457031e+00 1.782556891441345215e+00
-8.880674839019775391e-01 -5.206864833831787109e+00 1.496662497520446777e+00
-7.001284360885620117e-01 -5.283041954040527344e+00 1.453914642333984375e+00
-4.237540960311889648e-01 -4.458709716796875000e+00 1.177498340606689453e+00
-8.933159112930297852e-01 -5.226628303527832031e+00 1.289649605751037598e+00
-7.032709121704101562e-01 -5.285503387451171875e+00 1.242777347564697266e+00
-4.318076670169830322e-01 -4.501736640930175781e+00 1.010875821113586426e+00
-1.095601916313171387e+00 -5.235648155212402344e+00 1.148690462112426758e+00
-8.820405006408691406e-01 -5.149832248687744141e+00 1.068701267242431641e+00
-7.075785398483276367e-01 -5.289629459381103516e+00 1.039291501045227051e+00
-4.371459186077117920e-01 -4.515923023223876953e+00 8.392511010169982910e-01
-1.089873552322387695e+00 -5.203742980957031250e+00 9.393824338912963867e-01
-8.898690342903137207e-01 -5.184662342071533203e+00 8.765265941619873047e-01
-7.082291245460510254e-01 -5.287470340728759766e+00 8.372983336448669434e-01
-4.822427034378051758e-01 -4.945787906646728516e+00 7.329078316688537598e-01
-1.098507165908813477e+00 -5.240406513214111328e+00 7.458288669586181641e-01
-8.942984938621520996e-01 -5.199583053588867188e+00 6.833509802818298340e-01
-7.108470201492309570e-01 -5.272046566009521484e+00 6.390510797500610352e-01
-4.500634968280792236e-01 -4.590876102447509766e+00 5.100820660591125488e-01
-1.093317031860351562e+00 -5.206595420837402344e+00 5.450919866561889648e-01
-1.098485350608825684e+00 -5.222143650054931641e+00 3.516387343406677246e-01
-1.127292633056640625e+00 -6.373271942138671875e+00 1.833888649940490723e+00
-7.298792600631713867e-01 -5.259534835815429688e+00 1.448650598526000977e+00
-4.466233849525451660e-01 -4.411763668060302734e+00 1.165802121162414551e+00
-9.194340109825134277e-01 -5.187561988830566406e+00 1.281378149986267090e+00
-7.327327132225036621e-01 -5.259867191314697266e+00 1.237783432006835938e+00
-4.592233896255493164e-01 -4.497060775756835938e+00 1.010439634323120117e+00
-1.128531217575073242e+00 -5.232650279998779297e+00 1.149530291557312012e+00
-9.180768728256225586e-01 -5.169403553009033203e+00 1.073911428451538086e+00
-7.338968515396118164e-01 -5.241444587707519531e+00 1.030689716339111328e+00
-4.580968320369720459e-01 -4.447619915008544922e+00 8.270643353462219238e-01
-1.124068140983581543e+00 -5.207546234130859375e+00 9.412963986396789551e-01
-9.216647744178771973e-01 -5.179104804992675781e+00 8.765265941619873047e-01
-7.290005683898925781e-01 -5.199866771697998047e+00 8.241186141967773438e-01
-4.658430218696594238e-01 -4.492054462432861328e+00 6.660808324813842773e-01
-1.133359909057617188e+00 -5.246152877807617188e+00 7.476223707199096680e-01
-9.261857271194458008e-01 -5.193997859954833984e+00 6.833509802818298340e-01
-7.441532611846923828e-01 -5.274467468261718750e+00 6.398859620094299316e-01
-4.778119027614593506e-01 -4.584073543548583984e+00 5.096424221992492676e-01
-1.117879390716552734e+00 -5.165759086608886719e+00 5.415246486663818359e-01
-9.243789315223693848e-01 -5.173415660858154297e+00 4.884492456912994385e-01
-1.132409691810607910e+00 -5.224081993103027344e+00 3.522305190563201904e-01
-9.994357228279113770e-01 -4.606757164001464844e+00 1.399060040712356567e-01
-1.030008569359779358e-01 -7.236651778221130371e-01 7.782450877130031586e-03
-1.117135047912597656e+00 -6.097465991973876953e+00 1.756465673446655273e+00
-7.372128367424011230e-01 -5.083102226257324219e+00 1.401274800300598145e+00
-6.691511869430541992e-01 -6.228289127349853516e+00 1.646870374679565430e+00
-7.489999532699584961e-01 -5.145406246185302734e+00 1.211906433105468750e+00
-1.161888718605041504e+00 -5.231353759765625000e+00 1.150790095329284668e+00
-9.503101706504821777e-01 -5.166563987731933594e+00 1.074512720108032227e+00
-7.514106631278991699e-01 -5.136806488037109375e+00 1.011000990867614746e+00
-7.034621834754943848e-01 -6.441772460937500000e+00 1.198670268058776855e+00
-1.160059809684753418e+00 -5.218815326690673828e+00 9.446022510528564453e-01
-9.571801424026489258e-01 -5.193723201751708984e+00 8.799781203269958496e-01
-7.550231218338012695e-01 -5.155219078063964844e+00 8.177613615989685059e-01
-6.132605671882629395e-01 -5.579675674438476562e+00 8.278954625129699707e-01
-1.166603803634643555e+00 -5.243934154510498047e+00 7.483121752738952637e-01
-9.591185450553894043e-01 -5.194068431854248047e+00 6.841216683387756348e-01
-7.627529501914978027e-01 -5.176488399505615234e+00 6.285552978515625000e-01
-6.108914613723754883e-01 -5.531449317932128906e+00 6.153737306594848633e-01
-1.151285767555236816e+00 -5.166570663452148438e+00 5.423400402069091797e-01
-9.528442621231079102e-01 -5.150022506713867188e+00 4.867834150791168213e-01
-1.117708563804626465e+00 -5.007652759552001953e+00 3.380939364433288574e-01
-1.031605958938598633e+00 -4.618097305297851562e+00 1.404400020837783813e-01
-7.331729531288146973e-01 -4.845735073089599609e+00 1.337054014205932617e+00
-7.176918983459472656e-01 -4.726683616638183594e+00 1.114300251007080078e+00
-1.197233438491821289e+00 -5.238422870635986328e+00 1.153939485549926758e+00
-9.869384765625000000e-01 -5.186621665954589844e+00 1.079923391342163086e+00
-7.071255445480346680e-01 -4.635288238525390625e+00 9.131314754486083984e-01
-1.197329640388488770e+00 -5.234637737274169922e+00 9.487780332565307617e-01
-9.903233051300048828e-01 -5.194534778594970703e+00 8.811286687850952148e-01
-7.069922685623168945e-01 -4.628994941711425781e+00 7.349618673324584961e-01
-6.409807205200195312e-01 -5.519793987274169922e+00 8.195785284042358398e-01
-1.200304985046386719e+00 -5.243435382843017578e+00 7.492779493331909180e-01
-9.928313493728637695e-01 -5.197826862335205078e+00 6.854062080383300781e-01
-7.111310362815856934e-01 -4.629024028778076172e+00 5.625987052917480469e-01
-6.418259739875793457e-01 -5.501928329467773438e+00 6.125161647796630859e-01
-1.186300516128540039e+00 -5.173954010009765625e+00 5.438689589500427246e-01
-9.872335791587829590e-01 -5.158748149871826172e+00 4.881715774536132812e-01
-1.070021629333496094e+00 -4.659345626831054688e+00 3.150151968002319336e-01
-1.066191673278808594e+00 -4.638957023620605469e+00 1.412706524133682251e-01
-8.246141076087951660e-01 -5.232820034027099609e+00 1.445229053497314453e+00
-1.042819142341613770e+00 -5.273716449737548828e+00 4.996470808982849121e-01
-1.119921326637268066e+00 -4.739332675933837891e+00 1.445339471101760864e-01
-8.548343181610107422e-01 -5.216237545013427734e+00 1.442070603370666504e+00
-1.077548146247863770e+00 -5.278925418853759766e+00 5.007576346397399902e-01
-1.175157785415649414e+00 -4.840190410614013672e+00 1.478268951177597046e-01
-1.244181394577026367e+00 -5.009339809417724609e+00 1.521081209182739258e+00
-1.058870196342468262e+00 -5.073640346527099609e+00 1.468582987785339355e+00
-8.732283711433410645e-01 -5.131004810333251953e+00 1.419961929321289062e+00
-6.991069316864013672e-01 -5.282855510711669922e+00 1.400996685028076172e+00
-1.239245891571044922e+00 -4.993193149566650391e+00 1.306581735610961914e+00
-1.073157668113708496e+00 -5.133139610290527344e+00 1.275469899177551270e+00
-8.914387226104736328e-01 -5.221475601196289062e+00 1.234605550765991211e+00
-6.997967958450317383e-01 -5.252818584442138672e+00 1.184517860412597656e+00
-1.275566577911376953e+00 -5.143376827239990234e+00 1.137982487678527832e+00
-1.096096873283386230e+00 -5.233741283416748047e+00 1.093750476837158203e+00
-8.913462162017822266e-01 -5.199051856994628906e+00 1.027248859405517578e+00
-7.076314091682434082e-01 -5.276446819305419922e+00 9.847648739814758301e-01
-1.304865360260009766e+00 -5.257588386535644531e+00 9.571296572685241699e-01
-1.092656016349792480e+00 -5.208249568939208984e+00 8.867169022560119629e-01
-8.931756019592285156e-01 -5.204267978668212891e+00 8.287702798843383789e-01
-7.081058621406555176e-01 -5.252149581909179688e+00 7.816419005393981934e-01
-1.305688500404357910e+00 -5.256980419158935547e+00 7.545205354690551758e-01
-1.107714414596557617e+00 -5.270870208740234375e+00 6.976088881492614746e-01
-9.061026573181152344e-01 -5.252093791961669922e+00 6.402437686920166016e-01
-7.129927873611450195e-01 -5.267566204071044922e+00 5.877868533134460449e-01
-1.300305366516113281e+00 -5.227506160736083984e+00 5.519209504127502441e-01
-9.204636812210083008e-01 -5.324241638183593750e+00 4.508722424507141113e-01
-7.122433185577392578e-01 -5.241380691528320312e+00 3.912250697612762451e-01
-1.305390596389770508e+00 -5.240140438079833984e+00 3.558468222618103027e-01
-1.119721412658691406e+00 -5.309583187103271484e+00 3.062311708927154541e-01
-9.108669757843017578e-01 -5.257797241210937500e+00 2.507113516330718994e-01
-7.218388319015502930e-01 -5.291228294372558594e+00 2.004843056201934814e-01
-1.141002178192138672e+00 -4.576841831207275391e+00 1.399950087070465088e-01
-1.095851540565490723e+00 -5.187427043914794922e+00 1.073562577366828918e-01
-9.125213623046875000e-01 -5.250998973846435547e+00 5.674482136964797974e-02
-7.263632416725158691e-01 -5.310551166534423828e+00 6.548474077135324478e-03
-7.297828197479248047e-01 -5.266012668609619141e+00 1.397691249847412109e+00
-1.344740867614746094e+00 -5.279478073120117188e+00 1.383627772331237793e+00
-9.239696860313415527e-01 -5.218784809112548828e+00 1.235286593437194824e+00
-7.308010458946228027e-01 -5.239727020263671875e+00 1.182554602622985840e+00
-1.328806400299072266e+00 -5.220728397369384766e+00 1.156878829002380371e+00
-1.128189802169799805e+00 -5.226917266845703125e+00 1.093750476837158203e+00
-9.242610335350036621e-01 -5.199283123016357422e+00 1.028395771980285645e+00
-7.352099418640136719e-01 -5.237923622131347656e+00 9.783986806869506836e-01
-1.337343692779541016e+00 -5.250437259674072266e+00 9.573036432266235352e-01
-1.124801158905029297e+00 -5.202411174774169922e+00 8.868812918663024902e-01
-9.243991971015930176e-01 -5.194798946380615234e+00 8.281500339508056641e-01
-7.316127419471740723e-01 -5.185990810394287109e+00 7.724494934082031250e-01
-1.335963010787963867e+00 -5.241191864013671875e+00 7.534168362617492676e-01
-1.134367465972900391e+00 -5.237804889678955078e+00 6.941407322883605957e-01
-9.318444132804870605e-01 -5.210273265838623047e+00 6.358308196067810059e-01
-7.441856861114501953e-01 -5.255218982696533203e+00 5.869076251983642578e-01
-1.329157590866088867e+00 -5.206898689270019531e+00 5.505959391593933105e-01
-1.114804863929748535e+00 -5.138805389404296875e+00 4.887268543243408203e-01
-9.162001013755798340e-01 -5.112502574920654297e+00 4.334094524383544922e-01
-1.134123206138610840e+00 -4.436399936676025391e+00 3.017334043979644775e-01
-1.137862443923950195e+00 -5.236268997192382812e+00 3.023997545242309570e-01
-9.392270445823669434e-01 -5.230479240417480469e+00 2.496788352727890015e-01
-1.117286920547485352e+00 -4.367364406585693359e+00 1.337947696447372437e-01
-1.010280013084411621e+00 -4.641345500946044922e+00 9.618132561445236206e-02
-1.192066550254821777e+00 -6.519690513610839844e+00 1.808181285858154297e+00
-7.453058362007141113e-01 -5.145620822906494141e+00 1.366925358772277832e+00
-9.550958275794982910e-01 -5.208227634429931641e+00 1.234151601791381836e+00
-7.495675683021545410e-01 -5.143401145935058594e+00 1.161830902099609375e+00
-1.369706273078918457e+00 -5.246533393859863281e+00 1.164437532424926758e+00
-1.161515831947326660e+00 -5.225634574890136719e+00 1.094952821731567383e+00
-9.591671228408813477e-01 -5.209925174713134766e+00 1.031645417213439941e+00
-7.564937472343444824e-01 -5.159372806549072266e+00 9.645749330520629883e-01
-1.369534611701965332e+00 -5.242132186889648438e+00 9.573036432266235352e-01
-1.159916758537292480e+00 -5.209854125976562500e+00 8.893466591835021973e-01
-9.582259654998779297e-01 -5.199716091156005859e+00 8.298556804656982422e-01
-7.537578940391540527e-01 -5.115829467773437500e+00 7.626734972000122070e-01
-1.370602369308471680e+00 -5.242477893829345703e+00 7.547964453697204590e-01
-1.166052937507629395e+00 -5.228809833526611328e+00 6.938838958740234375e-01
-9.628925323486328125e-01 -5.199576377868652344e+00 6.352344155311584473e-01
-7.295994162559509277e-01 -4.933947563171386719e+00 5.515173077583312988e-01
-1.365364789962768555e+00 -5.215004920959472656e+00 5.523286461830139160e-01
-1.151524543762207031e+00 -5.155190467834472656e+00 4.909479320049285889e-01
-1.134751081466674805e+00 -4.328010559082031250e+00 2.948294878005981445e-01
-1.046586036682128906e+00 -4.677721977233886719e+00 2.705088853836059570e-01
-1.144570946693420410e+00 -4.362360000610351562e+00 1.338540911674499512e-01
-1.039395570755004883e+00 -4.637985706329345703e+00 9.624205529689788818e-02
-7.186287641525268555e-01 -4.755570411682128906e+00 1.264456748962402344e+00
-9.806810617446899414e-01 -5.168780326843261719e+00 1.226207017898559570e+00
-7.211287021636962891e-01 -4.744088172912597656e+00 1.072610378265380859e+00
-1.409455657005310059e+00 -5.266364097595214844e+00 1.170736193656921387e+00
-1.194868445396423340e+00 -5.224139690399169922e+00 1.096155285835266113e+00
-9.924020767211914062e-01 -5.210690975189208984e+00 1.032983541488647461e+00
-7.254187464714050293e-01 -4.744440078735351562e+00 8.878163099288940430e-01
-1.402947783470153809e+00 -5.238386631011962891e+00 9.581736326217651367e-01
-1.194285035133361816e+00 -5.213215351104736328e+00 8.911545872688293457e-01
-9.904827475547790527e-01 -5.195679664611816406e+00 8.301657438278198242e-01
-7.247504591941833496e-01 -4.718021392822265625e+00 7.040175795555114746e-01
-1.405307888984680176e+00 -5.243536472320556641e+00 7.561761140823364258e-01
-1.200554013252258301e+00 -5.232189178466796875e+00 6.952967643737792969e-01
-9.932841658592224121e-01 -5.185769081115722656e+00 6.342802643775939941e-01
-7.048919200897216797e-01 -4.572788715362548828e+00 5.116207599639892578e-01
-1.405073523521423340e+00 -5.235352993011474609e+00 5.553864240646362305e-01
-1.185587763786315918e+00 -5.158702373504638672e+00 4.919659197330474854e-01
-9.895745515823364258e-01 -5.156658649444580078e+00 4.381493330001831055e-01
-1.196248769760131836e+00 -4.451057910919189453e+00 3.037059605121612549e-01
-1.064741730690002441e+00 -4.625483036041259766e+00 2.678607106208801270e-01
-1.171835541725158691e+00 -4.357185840606689453e+00 1.339134424924850464e-01
-1.067609548568725586e+00 -4.630546569824218750e+00 9.622181206941604614e-02
-1.255134701728820801e+00 -6.418411254882812500e+00 1.784230113029479980e+00
-8.247848153114318848e-01 -5.240222930908203125e+00 1.394640088081359863e+00
-1.008067250251770020e+00 -5.140684604644775391e+00 1.220986127853393555e+00
-8.220884203910827637e-01 -5.193578720092773438e+00 1.175355911254882812e+00
-1.439415931701660156e+00 -5.249130725860595703e+00 1.168846607208251953e+00
-1.228919386863708496e+00 -5.225292682647705078e+00 1.097958683967590332e+00
-1.023407816886901855e+00 -5.199688434600830078e+00 1.032027721405029297e+00
-8.290251493453979492e-01 -5.207966327667236328e+00 9.754884243011474609e-01
-1.439493417739868164e+00 -5.245823383331298828e+00 9.611314535140991211e-01
-1.227833271026611328e+00 -5.212510108947753906e+00 8.923051357269287109e-01
-1.023489952087402344e+00 -5.195320129394531250e+00 8.310961127281188965e-01
-8.305386304855346680e-01 -5.194114208221435547e+00 7.758054733276367188e-01
-1.443224787712097168e+00 -5.255826473236083984e+00 7.592113018035888672e-01
-1.232635498046875000e+00 -5.224724292755126953e+00 6.952967643737792969e-01
-1.027012348175048828e+00 -5.189316272735595703e+00 6.354729533195495605e-01
-8.036324381828308105e-01 -5.009022235870361328e+00 5.609693527221679688e-01
-1.429521799087524414e+00 -5.198816299438476562e+00 5.524305701255798340e-01
-1.221569061279296875e+00 -5.169741630554199219e+00 4.937242269515991211e-01
-1.031662464141845703e+00 -5.203275680541992188e+00 4.426397979259490967e-01
-1.440484166145324707e+00 -5.231539249420166016e+00 3.575563728809356689e-01
-1.175189375877380371e+00 -4.965714454650878906e+00 2.879756093025207520e-01
-1.197221040725708008e+00 -4.345095157623291016e+00 1.337651014328002930e-01
-1.101536154747009277e+00 -4.647257328033447266e+00 9.670767933130264282e-02
-1.480608940124511719e+00 -5.265229225158691406e+00 1.611820340156555176e+00
-8.592662215232849121e-01 -5.249380111694335938e+00 1.398454189300537109e+00
-8.572683930397033691e-01 -5.208658695220947266e+00 1.179936885833740234e+00
-1.262568950653076172e+00 -5.224319934844970703e+00 1.099361538887023926e+00
-1.056270480155944824e+00 -5.198120594024658203e+00 1.032983541488647461e+00
-8.614466190338134766e-01 -5.205691814422607422e+00 9.760341048240661621e-01
-1.475117444992065430e+00 -5.249216556549072266e+00 9.633933305740356445e-01
-1.268611431121826172e+00 -5.241309642791748047e+00 8.985508084297180176e-01
-1.056923627853393555e+00 -5.196686744689941406e+00 8.323365449905395508e-01
-8.615825176239013672e-01 -5.184041023254394531e+00 7.750759124755859375e-01
-1.481881618499755859e+00 -5.269755363464355469e+00 7.625223994255065918e-01
-1.265605211257934570e+00 -5.220917701721191406e+00 6.958106160163879395e-01
-1.063404798507690430e+00 -5.205290794372558594e+00 6.382161974906921387e-01
-8.485740423202514648e-01 -5.089293003082275391e+00 5.705313682556152344e-01
-1.462203145027160645e+00 -5.192819595336914062e+00 5.527363419532775879e-01
-1.252562284469604492e+00 -5.159246444702148438e+00 4.934466183185577393e-01
-1.067366123199462891e+00 -5.215397357940673828e+00 4.442197680473327637e-01
-1.207676976919174194e-01 -7.219695448875427246e-01 5.414012074470520020e-02
-1.477431416511535645e+00 -5.239889621734619141e+00 3.587399125099182129e-01
-1.276403427124023438e+00 -5.249454021453857422e+00 3.048789203166961670e-01
-1.221688151359558105e+00 -4.329971313476562500e+00 1.335277706384658813e-01
-1.060246348381042480e+00 -4.353845596313476562e+00 9.073556959629058838e-02
-9.795401692390441895e-01 -4.765086174011230469e+00 5.179428681731224060e-02
-1.154271364212036133e-01 -6.863613724708557129e-01 8.503242279402911663e-04
-1.545788288116455078e+00 -5.370347023010253906e+00 1.646872162818908691e+00
-1.238659858703613281e+00 -5.006011486053466797e+00 1.461222410202026367e+00
-8.851383328437805176e-01 -5.206824302673339844e+00 1.388537883758544922e+00
-8.943081498146057129e-01 -5.233121395111083984e+00 1.186699271202087402e+00
-1.295309066772460938e+00 -5.219327449798583984e+00 1.099962711334228516e+00
-1.089353919029235840e+00 -5.197305679321289062e+00 1.034130454063415527e+00
-8.967016935348510742e-01 -5.219690322875976562e+00 9.796718955039978027e-01
-1.509476065635681152e+00 -5.247637271881103516e+00 9.647852778434753418e-01
-1.305030226707458496e+00 -5.250657558441162109e+00 9.015091657638549805e-01
-1.091021180152893066e+00 -5.200739383697509766e+00 8.340421915054321289e-01
-8.937112689018249512e-01 -5.180606365203857422e+00 7.753676772117614746e-01
-1.516380071640014648e+00 -5.268177509307861328e+00 7.636260986328125000e-01
-1.301688671112060547e+00 -5.229413986206054688e+00 6.979942917823791504e-01
-1.100031852722167969e+00 -5.221013069152832031e+00 6.409593820571899414e-01
-9.023265838623046875e-01 -5.214248657226562500e+00 5.851491093635559082e-01
-1.503680706024169922e+00 -5.217206001281738281e+00 5.563036799430847168e-01
-1.292384028434753418e+00 -5.184312343597412109e+00 4.965931177139282227e-01
-1.103051304817199707e+00 -5.226300239562988281e+00 4.457165300846099854e-01
-1.508448243141174316e+00 -5.226890563964843750e+00 3.584768772125244141e-01
-1.290693402290344238e+00 -5.169841289520263672e+00 3.007094562053680420e-01
-1.114932298660278320e+00 -5.273481845855712891e+00 2.532456815242767334e-01
-1.732994794845581055e+00 -6.001029968261718750e+00 1.853843629360198975e-01
-1.100279211997985840e+00 -4.400604724884033203e+00 9.184901416301727295e-02
-9.967334270477294922e-01 -4.702250003814697266e+00 5.117680132389068604e-02
-1.579795002937316895e+00 -5.364441871643066406e+00 1.648002982139587402e+00
-1.342766880989074707e+00 -5.287398815155029297e+00 1.545733332633972168e+00
-1.202384591102600098e+00 -6.819496631622314453e+00 1.820532917976379395e+00
-1.124656200408935547e+00 -5.224083423614501953e+00 1.245501279830932617e+00
-9.267418384552001953e-01 -5.229457378387451172e+00 1.187135577201843262e+00
-1.330695271492004395e+00 -5.224573135375976562e+00 1.102768182754516602e+00
-1.124332189559936523e+00 -5.204915046691894531e+00 1.036997675895690918e+00
-9.268155097961425781e-01 -5.203441619873046875e+00 9.776711463928222656e-01
-1.545817017555236816e+00 -5.252447128295898438e+00 9.673951864242553711e-01
-1.336735486984252930e+00 -5.240639686584472656e+00 9.011805057525634766e-01
-1.126043200492858887e+00 -5.208430767059326172e+00 8.363679647445678711e-01
-9.263528585433959961e-01 -5.179894447326660156e+00 7.760972976684570312e-01
-1.549795508384704590e+00 -5.262574195861816406e+00 7.641779184341430664e-01
-1.336696505546569824e+00 -5.232858657836914062e+00 6.995356082916259766e-01
-1.129940152168273926e+00 -5.204463005065917969e+00 6.397667527198791504e-01
-9.248272180557250977e-01 -5.155784130096435547e+00 5.792140960693359375e-01
-1.535383224487304688e+00 -5.206927299499511719e+00 5.562017560005187988e-01
-1.328611969947814941e+00 -5.193648815155029297e+00 4.982589185237884521e-01
-1.121968626976013184e+00 -5.159060001373291016e+00 4.405608773231506348e-01
-1.539078593254089355e+00 -5.212751388549804688e+00 3.581481277942657471e-01
-1.116487145423889160e+00 -4.358099937438964844e+00 2.538873255252838135e-01
-1.020337820053100586e+00 -4.683864593505859375e+00 2.252272069454193115e-01
-1.779129743576049805e+00 -6.021917343139648438e+00 1.863633543252944946e-01
-1.126763224601745605e+00 -4.391833782196044922e+00 9.180852770805358887e-02
-1.014686346054077148e+00 -4.646222591400146484e+00 5.063383653759956360e-02
-1.611021161079406738e+00 -5.349136829376220703e+00 1.646306872367858887e+00
-1.259845018386840820e+00 -6.897616386413574219e+00 1.843416810035705566e+00
-1.357093334197998047e+00 -5.202167510986328125e+00 1.307610750198364258e+00
-9.568735957145690918e-01 -5.213113784790039062e+00 1.184736013412475586e+00
-1.601879000663757324e+00 -5.325513362884521484e+00 1.194251775741577148e+00
-1.370404243469238281e+00 -5.245695114135742188e+00 1.108980417251586914e+00
-1.160723567008972168e+00 -5.218039035797119141e+00 1.041011810302734375e+00
-9.626498222351074219e-01 -5.218930721282958984e+00 9.816727638244628906e-01
-1.580854415893554688e+00 -5.252292633056640625e+00 9.691351056098937988e-01
-1.371113181114196777e+00 -5.240927219390869141e+00 9.026597142219543457e-01
-1.161200523376464844e+00 -5.215888500213623047e+00 8.386938571929931641e-01
-9.642431139945983887e-01 -5.207186698913574219e+00 7.810581922531127930e-01
-1.585484385490417480e+00 -5.264346122741699219e+00 7.658334970474243164e-01
-1.372046947479248047e+00 -5.237029552459716797e+00 7.012054324150085449e-01
-1.166618108749389648e+00 -5.218748092651367188e+00 6.423906683921813965e-01
-9.473706483840942383e-01 -5.101150512695312500e+00 5.737186670303344727e-01
-1.581089377403259277e+00 -5.243124485015869141e+00 5.610941648483276367e-01
-1.371572732925415039e+00 -5.227776050567626953e+00 5.023308992385864258e-01
-1.158610939979553223e+00 -5.174444675445556641e+00 4.424734413623809814e-01
-1.585744023323059082e+00 -5.251926898956298828e+00 3.615014553070068359e-01
-1.125447511672973633e+00 -4.283572673797607422e+00 2.499432414770126343e-01
-1.047309517860412598e+00 -4.669718265533447266e+00 2.248517572879791260e-01
-1.816046118736267090e+00 -6.010887622833251953e+00 1.863633543252944946e-01
-1.156742572784423828e+00 -4.396440029144287109e+00 9.205146133899688721e-02
-1.044272661209106445e+00 -4.644787311553955078e+00 5.068707093596458435e-02
-1.644094705581665039e+00 -5.340067863464355469e+00 1.646589517593383789e+00
-9.930304288864135742e-01 -5.229196548461914062e+00 1.189753293991088867e+00
-1.631651997566223145e+00 -5.306239128112792969e+00 1.192152142524719238e+00
-1.405606746673583984e+00 -5.248543739318847656e+00 1.111385226249694824e+00
-1.194690108299255371e+00 -5.219430446624755859e+00 1.042732238769531250e+00
-9.959445595741271973e-01 -5.219686985015869141e+00 9.829459786415100098e-01
-1.619133591651916504e+00 -5.262259006500244141e+00 9.727888703346252441e-01
-1.403756260871887207e+00 -5.234321594238281250e+00 9.029884934425354004e-01
-1.196932792663574219e+00 -5.225035190582275391e+00 8.413297533988952637e-01
-9.978505969047546387e-01 -5.209917068481445312e+00 7.823714613914489746e-01
-1.620378971099853516e+00 -5.263038158416748047e+00 7.670751810073852539e-01
-1.405441045761108398e+00 -5.233301639556884766e+00 7.018477320671081543e-01
-1.201288342475891113e+00 -5.223103046417236328e+00 6.438218951225280762e-01
-9.908391833305358887e-01 -5.158688068389892578e+00 5.808627009391784668e-01
