-1.289019012451171875e+01 -5.747255802154541016e+00 2.493652582168579102e+00
-9.643136024475097656e+00 -4.289431095123291016e+00 6.954530477523803711e-01
-9.526028633117675781e+00 -4.658573627471923828e+00 5.984326004981994629e-01
-9.785069465637207031e+00 -5.233591079711914062e+00 5.213688015937805176e-01
-3.047869205474853516e+00 -1.773924469947814941e+00 1.323931813240051270e-01
-9.740920066833496094e+00 -4.330890655517578125e+00 3.163905143737792969e-01
-9.582180023193359375e+00 -4.681890010833740234e+00 2.159474194049835205e-01
-1.241403961181640625e+01 -6.631351470947265625e+00 1.498467773199081421e-01
-3.028157949447631836e+00 -1.761037230491638184e+00 4.279721062630414963e-03
-1.426553440093994141e+01 -6.252854347229003906e+00 4.590097904205322266e+00
-1.368031406402587891e+01 -6.621793270111083984e+00 4.306517124176025391e+00
-1.249494171142578125e+01 -6.042644977569580078e+00 3.375729322433471680e+00
-1.394744586944580078e+01 -6.119234561920166016e+00 3.270754814147949219e+00
-1.230673313140869141e+01 -5.946326732635498047e+00 2.795696735382080078e+00
-1.293603420257568359e+01 -5.672800540924072266e+00 2.495740413665771484e+00
-1.306702613830566406e+01 -6.308056831359863281e+00 2.417721271514892578e+00
-1.152915096282958984e+01 -5.048648357391357422e+00 1.289548277854919434e+00
-9.651904106140136719e+00 -4.222582340240478516e+00 6.942037940025329590e-01
-9.545437812805175781e+00 -4.595704555511474609e+00 5.978691577911376953e-01
-9.691513061523437500e+00 -5.107323646545410156e+00 5.147045254707336426e-01
-9.666568756103515625e+00 -4.226987838745117188e+00 3.131272196769714355e-01
-9.570183753967285156e+00 -4.603504180908203125e+00 2.150364220142364502e-01
-1.007597351074218750e+01 -5.303190708160400391e+00 1.212294995784759521e-01
-3.047581434249877930e+00 -1.747397780418395996e+00 4.291938617825508118e-03
-1.271013164520263672e+01 -5.478368282318115234e+00 4.078736782073974609e+00
-1.388918876647949219e+01 -6.618016242980957031e+00 4.359404563903808594e+00
-1.217821884155273438e+01 -5.797546386718750000e+00 3.280488729476928711e+00
-1.353856086730957031e+01 -5.841045379638671875e+00 3.166404724121093750e+00
-1.251285743713378906e+01 -5.951497554779052734e+00 2.834172487258911133e+00
-1.480442237854003906e+01 -6.384121417999267578e+00 2.848596096038818359e+00
-1.323556041717529297e+01 -6.289572238922119141e+00 2.441717624664306641e+00
-9.667549133300781250e+00 -4.158942222595214844e+00 6.934805512428283691e-01
-9.710594177246093750e+00 -4.602040290832519531e+00 6.064335107803344727e-01
-9.565752029418945312e+00 -4.966294288635253906e+00 5.063975453376770020e-01
-9.633554458618164062e+00 -4.142325401306152344e+00 3.112285733222961426e-01
-9.563912391662597656e+00 -4.528437137603759766e+00 2.142671197652816772e-01
-1.006482601165771484e+01 -5.218712329864501953e+00 1.207078322768211365e-01
-9.659634590148925781e+00 -5.460082530975341797e+00 1.355631835758686066e-02
-1.293869113922119141e+01 -5.482989788055419922e+00 4.141208171844482422e+00
-1.392953491210937500e+01 -6.532669544219970703e+00 4.359404563903808594e+00
-1.319953536987304688e+01 -5.596244335174560547e+00 3.641099691390991211e+00
-1.289018821716308594e+01 -6.039748668670654297e+00 3.462225914001464844e+00
-1.225477504730224609e+01 -6.305028915405273438e+00 3.212153673171997070e+00
-1.373436164855957031e+01 -5.825824260711669922e+00 3.203777790069580078e+00
-1.264230728149414062e+01 -5.918221950531005859e+00 2.855213880538940430e+00
-1.289785480499267578e+01 -6.624506950378417969e+00 2.823692083358764648e+00
-1.488502120971679688e+01 -6.310844421386718750e+00 2.856599807739257812e+00
-1.138228797912597656e+01 -4.818751335144042969e+00 1.266411423683166504e+00
-9.714023590087890625e+00 -4.108484745025634766e+00 6.949927806854248047e-01
-9.706074714660644531e+00 -4.527177333831787109e+00 6.044051051139831543e-01
-9.608494758605957031e+00 -4.913873672485351562e+00 5.070545673370361328e-01
-9.664314270019531250e+00 -4.085472106933593750e+00 3.114065825939178467e-01
-9.579736709594726562e+00 -4.464178562164306641e+00 2.140039354562759399e-01
-9.889167785644531250e+00 -5.050882339477539062e+00 1.182272508740425110e-01
-1.047915363311767578e+01 -5.838762283325195312e+00 1.465587504208087921e-02
-1.266129207611083984e+01 -5.274033546447753906e+00 4.041988849639892578e+00
-1.353693580627441406e+01 -6.247507572174072266e+00 4.224459171295166016e+00
-1.266997814178466797e+01 -6.428976058959960938e+00 3.876140594482421875e+00
-1.336513805389404297e+01 -5.569956779479980469e+00 3.677284240722656250e+00
-1.294994640350341797e+01 -5.971120357513427734e+00 3.468370676040649414e+00
-1.230365562438964844e+01 -6.234999179840087891e+00 3.214877605438232422e+00
-1.380865287780761719e+01 -5.757621765136718750e+00 3.212805986404418945e+00
-1.241321182250976562e+01 -5.718382835388183594e+00 2.795496463775634766e+00
-1.287519741058349609e+01 -6.513340473175048828e+00 2.809929132461547852e+00
-1.494800567626953125e+01 -6.229620933532714844e+00 2.861297607421875000e+00
-1.329292964935302734e+01 -6.118017673492431641e+00 2.438266038894653320e+00
-1.259928894042968750e+01 -6.950609207153320312e+00 2.122266530990600586e+00
-9.735364913940429688e+00 -4.047271251678466797e+00 6.947298049926757812e-01
-9.677412986755371094e+00 -4.441715717315673828e+00 6.009117960929870605e-01
-9.592074394226074219e+00 -4.831458091735839844e+00 5.046141147613525391e-01
-9.719660758972167969e+00 -4.038753509521484375e+00 3.123855590820312500e-01
-9.592407226562500000e+00 -4.398646831512451172e+00 2.136800289154052734e-01
-1.016384124755859375e+01 -5.112782478332519531e+00 1.211336851119995117e-01
-1.023078918457031250e+01 -5.618394374847412109e+00 1.426003593951463699e-02
-1.268365001678466797e+01 -5.192248821258544922e+00 4.038879394531250000e+00
-1.356713008880615234e+01 -6.160748481750488281e+00 4.222005844116210938e+00
-1.247704410552978516e+01 -6.235105991363525391e+00 3.805340051651000977e+00
-1.321071052551269531e+01 -5.410701274871826172e+00 3.625591993331909180e+00
-1.298191642761230469e+01 -5.889541625976562500e+00 3.467188835144042969e+00
-1.227371215820312500e+01 -6.125466346740722656e+00 3.197172403335571289e+00
-1.260690021514892578e+01 -5.714101314544677734e+00 2.831166505813598633e+00
-1.285254192352294922e+01 -6.403140544891357422e+00 2.796357393264770508e+00
-1.479457950592041016e+01 -6.059405803680419922e+00 2.824759006500244141e+00
-1.265212917327880859e+01 -6.878840923309326172e+00 2.124017238616943359e+00
-1.120644664764404297e+01 -5.065203666687011719e+00 1.143015623092651367e+00
-9.766480445861816406e+00 -3.990101814270019531e+00 6.951900720596313477e-01
-9.687195777893066406e+00 -4.374445438385009766e+00 5.998412370681762695e-01
-9.606327056884765625e+00 -4.764965534210205078e+00 5.038162469863891602e-01
-9.820089340209960938e+00 -5.319119930267333984e+00 4.192762970924377441e-01
-9.744258880615234375e+00 -3.979038476943969727e+00 3.123855590820312500e-01
-9.613748550415039062e+00 -4.337239265441894531e+00 2.135585695505142212e-01
-9.910980224609375000e+00 -4.909616470336914062e+00 1.177588105201721191e-01
-9.970451354980468750e+00 -5.396063804626464844e+00 1.385075598955154419e-02
-1.282206153869628906e+01 -5.157279014587402344e+00 4.072800636291503906e+00
-1.296340274810791016e+01 -5.790920734405517578e+00 4.022995948791503906e+00
-1.181132125854492188e+01 -5.812130928039550781e+00 3.591358661651611328e+00
-1.314835071563720703e+01 -5.291184902191162109e+00 3.599499940872192383e+00
-1.300183868408203125e+01 -5.802647113800048828e+00 3.462934970855712891e+00
-1.245266246795654297e+01 -6.119626045227050781e+00 3.233944892883300781e+00
-1.414219284057617188e+01 -5.693996906280517578e+00 3.273904085159301758e+00
-1.446353626251220703e+01 -6.448941230773925781e+00 3.239168882369995117e+00
-1.469170761108398438e+01 -5.912265777587890625e+00 2.798138380050659180e+00
-1.298934268951416016e+01 -6.369300365447998047e+00 2.270629167556762695e+00
-1.124914264678955078e+01 -5.001605510711669922e+00 1.144218683242797852e+00
-9.808374404907226562e+00 -3.937163114547729492e+00 6.964393258094787598e-01
-9.640858650207519531e+00 -4.282498836517333984e+00 5.953336954116821289e-01
-9.536650657653808594e+00 -4.657711505889892578e+00 4.986537098884582520e-01
-9.739699363708496094e+00 -5.198535919189453125e+00 4.144742786884307861e-01
-9.699841499328613281e+00 -3.891631603240966797e+00 3.101902604103088379e-01
-9.619162559509277344e+00 -4.268841266632080078e+00 2.130929529666900635e-01
-9.887893676757812500e+00 -4.822848320007324219e+00 1.171306818723678589e-01
-1.008631515502929688e+01 -5.379017829895019531e+00 1.396559830754995346e-02
-1.331379127502441406e+01 -5.260385990142822266e+00 4.218661308288574219e+00
-1.291501045227050781e+01 -5.674502849578857422e+00 3.997097492218017578e+00
-1.182332038879394531e+01 -5.728191375732421875e+00 3.584252357482910156e+00
-1.328963279724121094e+01 -5.253522872924804688e+00 3.629284143447875977e+00
-1.280675792694091797e+01 -5.621607303619384766e+00 3.401725769042968750e+00
-1.239792633056640625e+01 -5.998564720153808594e+00 3.210110664367675781e+00
-1.387228870391845703e+01 -5.486651897430419922e+00 3.203567743301391602e+00
-1.434222888946533203e+01 -6.289641857147216797e+00 3.203298091888427734e+00
-1.287093067169189453e+01 -6.216336250305175781e+00 2.783550262451171875e+00
-1.478448772430419922e+01 -5.844453334808349609e+00 2.808925867080688477e+00
-1.322710895538330078e+01 -5.795112609863281250e+00 2.406215906143188477e+00
-1.306020641326904297e+01 -6.304940700531005859e+00 2.276211023330688477e+00
-9.857410430908203125e+00 -3.886788368225097656e+00 6.982145905494689941e-01
-9.616633415222167969e+00 -4.201279163360595703e+00 5.922347307205200195e-01
-9.526340484619140625e+00 -4.580495357513427734e+00 4.966356456279754639e-01
-9.677661895751953125e+00 -5.089373111724853516e+00 4.104976058006286621e-01
-9.778404235839843750e+00 -3.853664398193359375e+00 3.119405806064605713e-01
-9.614019393920898438e+00 -4.196140766143798828e+00 2.124046385288238525e-01
-9.874032020568847656e+00 -4.741310119628906250e+00 1.166196539998054504e-01
-1.012267112731933594e+01 -5.318888187408447266e+00 1.397048495709896088e-02
-1.352735042572021484e+01 -5.249035835266113281e+00 4.276044845581054688e+00
-1.318098545074462891e+01 -5.695132732391357422e+00 4.068522930145263672e+00
-1.344178771972656250e+01 -5.218533992767333984e+00 3.662022829055786133e+00
-1.282138442993164062e+01 -5.534448623657226562e+00 3.396526575088500977e+00
-1.223930454254150391e+01 -5.829411029815673828e+00 3.159718751907348633e+00
-1.374529170989990234e+01 -5.339124679565429688e+00 3.166614770889282227e+00
-1.303560829162597656e+01 -5.621522903442382812e+00 2.903709173202514648e+00
-1.243722820281982422e+01 -5.913030147552490234e+00 2.681857585906982422e+00
-1.290406417846679688e+01 -6.722530364990234375e+00 2.691460371017456055e+00
-1.309573173522949219e+01 -5.642030239105224609e+00 2.375973939895629883e+00
-9.919224739074707031e+00 -3.841004610061645508e+00 7.009104490280151367e-01
-9.622049331665039062e+00 -4.133523464202880859e+00 5.909951925277709961e-01
-9.524471282958984375e+00 -4.507854461669921875e+00 4.950868785381317139e-01
-9.630625724792480469e+00 -4.989443778991699219e+00 4.071961939334869385e-01
-9.804662704467773438e+00 -3.794675111770629883e+00 3.120295703411102295e-01
-9.616616249084472656e+00 -4.127213954925537109e+00 2.118985354900360107e-01
-9.910170555114746094e+00 -4.684053421020507812e+00 1.167048290371894836e-01
-1.031408119201660156e+01 -5.338963031768798828e+00 1.418917439877986908e-02
-1.357991981506347656e+01 -5.173789024353027344e+00 4.282546043395996094e+00
-1.432259845733642578e+01 -6.084376811981201172e+00 4.409293174743652344e+00
-1.388910770416259766e+01 -6.519810199737548828e+00 4.185926437377929688e+00
-1.310494899749755859e+01 -4.995450496673583984e+00 3.561838150024414062e+00
-1.231452465057373047e+01 -5.772804260253906250e+00 3.169933319091796875e+00
-1.368735408782958984e+01 -5.220192432403564453e+00 3.145828723907470703e+00
-1.316636943817138672e+01 -5.582352161407470703e+00 2.925151348114013672e+00
-1.247772026062011719e+01 -5.838685512542724609e+00 2.682813405990600586e+00
-1.285496044158935547e+01 -6.596982955932617188e+00 2.672725439071655273e+00
-1.345184707641601562e+01 -5.127683639526367188e+00 2.543588161468505859e+00
-1.309922313690185547e+01 -5.548489570617675781e+00 2.370385646820068359e+00
-1.314554309844970703e+01 -6.148382663726806641e+00 2.277761459350585938e+00
-1.107860755920410156e+01 -5.165156841278076172e+00 1.019992351531982422e+00
-9.978049278259277344e+00 -3.793543815612792969e+00 7.034090161323547363e-01
-9.699656486511230469e+00 -4.096547603607177734e+00 5.942068099975585938e-01
-9.596320152282714844e+00 -4.469995498657226562e+00 4.973865449428558350e-01
-9.585401535034179688e+00 -4.891647338867187500e+00 4.040073752403259277e-01
-9.899708747863769531e+00 -3.761782407760620117e+00 3.143138587474822998e-01
-9.645443916320800781e+00 -4.069684505462646484e+00 2.119795083999633789e-01
-9.910618782043457031e+00 -4.610083580017089844e+00 1.163747906684875488e-01
-1.013105487823486328e+01 -5.165649890899658203e+00 1.389351673424243927e-02
-1.296045017242431641e+01 -5.412090778350830078e+00 3.979650020599365234e+00
-1.279117679595947266e+01 -5.908914089202880859e+00 3.844030141830444336e+00
-1.277153968811035156e+01 -5.891730785369873047e+00 3.278208017349243164e+00
-1.380236816406250000e+01 -6.991648197174072266e+00 3.458443164825439453e+00
-1.312029457092285156e+01 -4.911921501159667969e+00 3.008514881134033203e+00
-1.297791099548339844e+01 -5.408744812011718750e+00 2.875854492187500000e+00
-1.252133560180664062e+01 -5.765708446502685547e+00 2.684533596038818359e+00
-1.282499027252197266e+01 -6.482495784759521484e+00 2.658174037933349609e+00
-1.350334739685058594e+01 -5.052640438079833984e+00 2.547415971755981445e+00
-1.237165737152099609e+01 -5.140880107879638672e+00 1.245184659957885742e+00
-1.022575664520263672e+01 -5.146304607391357422e+00 8.466954231262207031e-01
-1.002357387542724609e+01 -3.740621089935302734e+00 7.049869894981384277e-01
-9.721843719482421875e+00 -4.035805702209472656e+00 5.940377712249755859e-01
-9.622658729553222656e+00 -4.410613059997558594e+00 4.973395764827728271e-01
-9.604521751403808594e+00 -4.827355861663818359e+00 4.035572111606597900e-01
-9.972241401672363281e+00 -3.719481706619262695e+00 3.158861994743347168e-01
-9.696091651916503906e+00 -4.021148204803466797e+00 2.125463485717773438e-01
-1.027873420715332031e+01 -5.161729812622070312e+00 1.405234169214963913e-02
-1.365049171447753906e+01 -5.009727478027343750e+00 4.285089969635009766e+00
-1.292754936218261719e+01 -5.305434226989746094e+00 3.959476709365844727e+00
-1.276659107208251953e+01 -5.802772998809814453e+00 3.825869321823120117e+00
-1.197310447692871094e+01 -5.986049175262451172e+00 3.519273281097412109e+00
-1.346320724487304688e+01 -5.519776344299316406e+00 3.539032936096191406e+00
-1.281897926330566406e+01 -5.818488121032714844e+00 3.281159162521362305e+00
-1.223205757141113281e+01 -6.102177619934082031e+00 3.055532693862915039e+00
-1.331078910827636719e+01 -4.890329360961914062e+00 3.045258045196533203e+00
-1.420214748382568359e+01 -5.816944599151611328e+00 3.139172077178955078e+00
-1.265035629272460938e+01 -5.731302738189697266e+00 2.704604625701904297e+00
-1.282843303680419922e+01 -6.385715484619140625e+00 2.650716543197631836e+00
-1.373838710784912109e+01 -5.044705867767333984e+00 2.585868120193481445e+00
-1.222321510314941406e+01 -4.991468429565429688e+00 1.227138400077819824e+00
-1.025178050994873047e+01 -5.080806732177734375e+00 8.462528586387634277e-01
-1.011005306243896484e+01 -3.702380180358886719e+00 7.094581127166748047e-01
-9.750122070312500000e+00 -3.977586507797241211e+00 5.942631959915161133e-01
-9.641345024108886719e+00 -4.347791194915771484e+00 4.969172179698944092e-01
-9.537236213684082031e+00 -4.720458507537841797e+00 3.995054662227630615e-01
-1.001740360260009766e+01 -3.666468620300292969e+00 3.165981769561767578e-01
-9.735396385192871094e+00 -3.967615842819213867e+00 2.128702551126480103e-01
-9.661005973815917969e+00 -4.350571155548095703e+00 1.128082796931266785e-01
-1.034427452087402344e+01 -5.115407943725585938e+00 1.409876719117164612e-02
-1.367646121978759766e+01 -4.924250602722167969e+00 4.283676624298095703e+00
-1.289472007751464844e+01 -5.199745178222656250e+00 3.939575433731079102e+00
-1.277289295196533203e+01 -5.711333751678466797e+00 3.817183732986450195e+00
-1.203130149841308594e+01 -5.923150062561035156e+00 3.525629997253417969e+00
-1.347338867187500000e+01 -5.427624225616455078e+00 3.532888412475585938e+00
-1.293091678619384766e+01 -5.773870944976806641e+00 3.300680160522460938e+00
-1.231306648254394531e+01 -6.048522949218750000e+00 3.066439867019653320e+00
-1.336078071594238281e+01 -4.815857887268066406e+00 3.049877166748046875e+00
-1.388674545288085938e+01 -5.588507175445556641e+00 3.061820030212402344e+00
-1.268618106842041016e+01 -5.653973102569580078e+00 2.704795837402343750e+00
-1.253008270263671875e+01 -6.141560077667236328e+00 2.581233739852905273e+00
-1.374870109558105469e+01 -4.952971458435058594e+00 2.582040548324584961e+00
-1.327182865142822266e+01 -5.912208557128906250e+00 2.280397415161132812e+00
-1.005421638488769531e+01 -4.906280994415283203e+00 8.274439573287963867e-01
-1.021521759033203125e+01 -3.669965267181396484e+00 7.152442336082458496e-01
-9.907795906066894531e+00 -3.971174955368041992e+00 6.023767590522766113e-01
-9.668754577636718750e+00 -4.288956165313720703e+00 4.969641566276550293e-01
-9.556139945983886719e+00 -4.657034873962402344e+00 3.990928232669830322e-01
-1.020716571807861328e+01 -3.665061235427856445e+00 3.218787610530853271e-01
-9.777193069458007812e+00 -3.914866924285888672e+00 2.132548987865447998e-01
-1.083580017089843750e+01 -5.275977611541748047e+00 1.472429372370243073e-02
-1.363406085968017578e+01 -4.814688205718994141e+00 4.261062622070312500e+00
-1.380298995971679688e+01 -5.467777252197265625e+00 4.206739425659179688e+00
-1.270613956451416016e+01 -5.588188171386718750e+00 3.786916017532348633e+00
-1.193687438964843750e+01 -5.785940170288085938e+00 3.487490177154541016e+00
-1.310877323150634766e+01 -5.757078170776367188e+00 3.336998939514160156e+00
-1.243165302276611328e+01 -6.012372970581054688e+00 3.086726903915405273e+00
-1.335597133636474609e+01 -4.721728801727294922e+00 3.042108535766601562e+00
-1.429341697692871094e+01 -5.650508403778076172e+00 3.143781185150146484e+00
-1.267748260498046875e+01 -5.557110786437988281e+00 2.695620536804199219e+00
-1.251085281372070312e+01 -6.037210941314697266e+00 2.569592475891113281e+00
-1.377047538757324219e+01 -4.865564823150634766e+00 2.580474376678466797e+00
-1.321465492248535156e+01 -5.789828300476074219e+00 2.264426946640014648e+00
-1.010031223297119141e+01 -4.852270126342773438e+00 8.287716507911682129e-01
-1.038059520721435547e+01 -3.657621145248413086e+00 7.252384424209594727e-01
-9.924543380737304688e+00 -3.907380819320678711e+00 6.019259691238403320e-01
-9.620728492736816406e+00 -4.197195529937744141e+00 4.931626319885253906e-01
-9.562911033630371094e+00 -4.587937355041503906e+00 3.981924355030059814e-01
-1.044442176818847656e+01 -3.678061485290527344e+00 3.286426663398742676e-01
-9.820569038391113281e+00 -3.862486362457275391e+00 2.136800289154052734e-01
-9.941015243530273438e+00 -4.330731391906738281e+00 1.154485642910003662e-01
-1.066868019104003906e+01 -5.113864898681640625e+00 1.445429027080535889e-02
-1.389814949035644531e+01 -5.407051086425781250e+00 4.225549697875976562e+00
-1.272247982025146484e+01 -5.502460479736328125e+00 3.781651973724365234e+00
-1.393172359466552734e+01 -6.647609710693359375e+00 4.058313846588134766e+00
-1.466880130767822266e+01 -5.081946849822998047e+00 3.942637443542480469e+00
-1.495093250274658203e+01 -5.810626506805419922e+00 3.901326179504394531e+00
-1.276525878906250000e+01 -6.077353477478027344e+00 3.160241127014160156e+00
-1.344289112091064453e+01 -4.659863471984863281e+00 3.055335998535156250e+00
-1.381271839141845703e+01 -5.362714767456054688e+00 3.030758857727050781e+00
-1.260227489471435547e+01 -5.432205200195312500e+00 2.672491312026977539e+00
-1.258940601348876953e+01 -5.980161666870117188e+00 2.578141450881958008e+00
-1.384473514556884766e+01 -4.796452522277832031e+00 2.588825941085815430e+00
-1.333430862426757812e+01 -5.744988441467285156e+00 2.278846979141235352e+00
-9.949584007263183594e+00 -4.704939365386962891e+00 8.140195608139038086e-01
-1.057543659210205078e+01 -3.653484106063842773e+00 7.372709512710571289e-01
-9.912013053894042969e+00 -3.832369327545166016e+00 5.997285246849060059e-01
-9.594893455505371094e+00 -4.116031646728515625e+00 4.905344545841217041e-01
-9.521305084228515625e+00 -4.496317386627197266e+00 3.953037261962890625e-01
-1.052537250518798828e+01 -3.634132385253906250e+00 3.304819762706756592e-01
-9.863669395446777344e+00 -3.809720277786254883e+00 2.141051590442657471e-01
-1.119908237457275391e+01 -5.283846378326416016e+00 1.512868516147136688e-02
-1.285987567901611328e+01 -5.468463897705078125e+00 3.812446355819702148e+00
-1.270379638671875000e+01 -5.966278076171875000e+00 3.689884901046752930e+00
-1.473091125488281250e+01 -5.002441883087158203e+00 3.951006650924682617e+00
-1.367099571228027344e+01 -6.405962467193603516e+00 3.374675989151000977e+00
-1.339809703826904297e+01 -4.552442550659179688e+00 3.038749217987060547e+00
-1.337847995758056641e+01 -5.099884510040283203e+00 2.928557872772216797e+00
-1.262090873718261719e+01 -5.348648548126220703e+00 2.669432878494262695e+00
-1.266327571868896484e+01 -5.920292854309082031e+00 2.585780858993530273e+00
-1.388136482238769531e+01 -4.713945865631103516e+00 2.590218067169189453e+00
-1.344480991363525391e+01 -5.695044517517089844e+00 2.291716575622558594e+00
-1.131495285034179688e+01 -3.835816621780395508e+00 1.224112749099731445e+00
-1.264080810546875000e+01 -4.803528308868408203e+00 1.256845116615295410e+00
-9.961086273193359375e+00 -4.635806560516357422e+00 8.126181364059448242e-01
-1.074131393432617188e+01 -3.637170791625976562e+00 7.472652196884155273e-01
-9.950277328491210938e+00 -3.777147769927978516e+00 6.006300449371337891e-01
-9.654943466186523438e+00 -4.071831226348876953e+00 4.923178851604461670e-01
-9.554151535034179688e+00 -4.440337657928466797e+00 3.955287933349609375e-01
-1.075387859344482422e+01 -3.639333248138427734e+00 3.369492292404174805e-01
-9.932667732238769531e+00 -3.766496658325195312e+00 2.150971591472625732e-01
-1.123673439025878906e+01 -5.217557430267333984e+00 1.513601653277873993e-02
-1.280150699615478516e+01 -5.351130962371826172e+00 3.785336971282958984e+00
-1.277352619171142578e+01 -5.903635025024414062e+00 3.699546813964843750e+00
-1.476868534088134766e+01 -4.914408683776855469e+00 3.952975749969482422e+00
-1.319761371612548828e+01 -4.943658351898193359e+00 3.427721977233886719e+00
-1.291509246826171875e+01 -5.955391407012939453e+00 3.179001569747924805e+00
-1.340722656250000000e+01 -4.463970661163330078e+00 3.034550189971923828e+00
-1.330491733551025391e+01 -4.978558063507080078e+00 2.905713081359863281e+00
-1.446203708648681641e+01 -6.024499893188476562e+00 3.050971269607543945e+00
-1.261092472076416016e+01 -5.801794052124023438e+00 2.567773580551147461e+00
-1.356887817382812500e+01 -5.649654865264892578e+00 2.306911945343017578e+00
-1.139397621154785156e+01 -3.784819602966308594e+00 1.230126261711120605e+00
-1.270083045959472656e+01 -4.737358570098876953e+00 1.259899139404296875e+00
-1.222626495361328125e+01 -5.073115348815917969e+00 1.104562163352966309e+00
-9.982090950012207031e+00 -4.571277618408203125e+00 8.120280504226684570e-01
-1.090075302124023438e+01 -3.616757631301879883e+00 7.567991614341735840e-01
-9.992913246154785156e+00 -3.723343372344970703e+00 6.018133163452148438e-01
-9.690818786621093750e+00 -4.017103195190429688e+00 4.928810596466064453e-01
-9.586669921875000000e+00 -4.384124755859375000e+00 3.957539200782775879e-01
-1.088985729217529297e+01 -3.611032724380493164e+00 3.405091762542724609e-01
-9.979952812194824219e+00 -3.714547634124755859e+00 2.156235128641128540e-01
-9.824097633361816406e+00 -4.066324234008789062e+00 1.132021918892860413e-01
-1.097656917572021484e+01 -5.015113830566406250e+00 1.474384032189846039e-02
-1.368290901184082031e+01 -5.035346984863281250e+00 4.131224632263183594e+00
-1.288764190673828125e+01 -5.294477462768554688e+00 3.801128625869750977e+00
-1.283240032196044922e+01 -5.835556507110595703e+00 3.706157684326171875e+00
-1.404568672180175781e+01 -4.578291893005371094e+00 3.751868724822998047e+00
-1.305168247222900391e+01 -4.797881603240966797e+00 3.382110357284545898e+00
-1.274965000152587891e+01 -5.784503936767578125e+00 3.129482984542846680e+00
-1.339067649841308594e+01 -4.367372512817382812e+00 3.024682044982910156e+00
-1.332969570159912109e+01 -4.894800186157226562e+00 2.904510736465454102e+00
-1.314432811737060547e+01 -5.381169319152832031e+00 2.765964269638061523e+00
-1.261762046813964844e+01 -5.711330413818359375e+00 2.561953067779541016e+00
-1.356214427947998047e+01 -5.549456119537353516e+00 2.299934625625610352e+00
-1.298399066925048828e+01 -4.752429485321044922e+00 1.285071253776550293e+00
-9.992675781250000000e+00 -4.502159118652343750e+00 8.106266260147094727e-01
-1.109450626373291016e+01 -3.605626344680786133e+00 7.687001824378967285e-01
-1.011215400695800781e+01 -3.697271108627319336e+00 6.076167225837707520e-01
-9.729160308837890625e+00 -3.963218212127685547e+00 4.935850203037261963e-01
-9.609744071960449219e+00 -4.323579311370849609e+00 3.956038355827331543e-01
-1.109433841705322266e+01 -3.603431224822998047e+00 3.462050855159759521e-01
-1.010773849487304688e+01 -3.691657066345214844e+00 2.178908735513687134e-01
-9.761795043945312500e+00 -3.970553874969482422e+00 1.122014373540878296e-01
-1.149783992767333984e+01 -5.168238639831542969e+00 1.540113147348165512e-02
-1.373798084259033203e+01 -4.960117340087890625e+00 4.138585090637207031e+00
-1.279374599456787109e+01 -5.164382934570312500e+00 3.764017581939697266e+00
-1.407443714141845703e+01 -4.492318153381347656e+00 3.752114772796630859e+00
-1.304248619079589844e+01 -4.703862190246582031e+00 3.372184514999389648e+00
-1.474162101745605469e+01 -5.941696643829345703e+00 3.704498052597045898e+00
-1.487294387817382812e+01 -6.638100147247314453e+00 3.640592813491821289e+00
-1.341070270538330078e+01 -4.283044815063476562e+00 3.023212194442749023e+00
-1.339081764221191406e+01 -4.824208736419677734e+00 2.911324262619018555e+00
-1.316708183288574219e+01 -5.296386718750000000e+00 2.763861656188964844e+00
-1.263176631927490234e+01 -5.624602317810058594e+00 2.557769536972045898e+00
-1.450668716430664062e+01 -5.220494270324707031e+00 2.568931579589843750e+00
-9.874232292175292969e+00 -4.376108646392822266e+00 7.988249659538269043e-01
-1.127616310119628906e+01 -3.588317394256591797e+00 7.797464132308959961e-01
-1.016096305847167969e+01 -3.644592761993408203e+00 6.091943383216857910e-01
-9.749586105346679688e+00 -3.901962041854858398e+00 4.933972954750061035e-01
-9.615075111389160156e+00 -4.255232334136962891e+00 3.947409689426422119e-01
-1.123245048522949219e+01 -3.572248220443725586e+00 3.498243689537048340e-01
-1.024032020568847656e+01 -3.669023036956787109e+00 2.202594727277755737e-01
-9.836115837097167969e+00 -3.930619001388549805e+00 1.127763390541076660e-01
-1.124855613708496094e+01 -4.973447799682617188e+00 1.502605993300676346e-02
-1.375001811981201172e+01 -4.869305610656738281e+00 4.133132934570312500e+00
-1.278035259246826172e+01 -5.068003177642822266e+00 3.750857591629028320e+00
-1.418314743041992188e+01 -4.431309700012207031e+00 3.773776292800903320e+00
-1.314713382720947266e+01 -4.650641918182373047e+00 3.391799688339233398e+00
-1.341900062561035156e+01 -4.195134639739990234e+00 3.019222974777221680e+00
-1.333702945709228516e+01 -4.712577342987060547e+00 2.893288612365722656e+00
-1.267054367065429688e+01 -5.548962116241455078e+00 2.558678865432739258e+00
-1.435799407958984375e+01 -5.067693710327148438e+00 2.537045717239379883e+00
-9.891756057739257812e+00 -4.311454296112060547e+00 7.980873584747314453e-01
-1.145706844329833984e+01 -3.568616628646850586e+00 7.907269001007080078e-01
-1.059660148620605469e+01 -3.727625131607055664e+00 6.339294910430908203e-01
-9.782641410827636719e+00 -3.845721006393432617e+00 4.938666224479675293e-01
-9.611683845520019531e+00 -4.183393478393554688e+00 3.935405015945434570e-01
-1.143549156188964844e+01 -3.559706449508666992e+00 3.554609417915344238e-01
-9.841432571411132812e+00 -3.862884759902954102e+00 1.125634163618087769e-01
-1.115780925750732422e+01 -4.851698398590087891e+00 1.486479211598634720e-02
-1.383831214904785156e+01 -4.227908134460449219e+00 4.264172554016113281e+00
-1.291099452972412109e+01 -5.028351783752441406e+00 3.780072689056396484e+00
-1.325362491607666016e+01 -5.735097885131835938e+00 3.796675920486450195e+00
-1.411923599243164062e+01 -4.316431045532226562e+00 3.749653339385986328e+00
-1.319470214843750000e+01 -4.576571941375732422e+00 3.396762847900390625e+00
-1.471046924591064453e+01 -6.350267410278320312e+00 3.581475973129272461e+00
-1.434109878540039062e+01 -4.386994361877441406e+00 3.220574378967285156e+00
-1.323794364929199219e+01 -4.586394309997558594e+00 2.865634441375732422e+00
-1.475897789001464844e+01 -6.355934143066406250e+00 2.972484111785888672e+00
-1.410171318054199219e+01 -4.880141258239746094e+00 2.486423015594482422e+00
-1.239875507354736328e+01 -3.783360242843627930e+00 1.328177690505981445e+00
-1.111725425720214844e+01 -3.838629007339477539e+00 1.093134164810180664e+00
-9.926273345947265625e+00 -4.254214286804199219e+00 7.987511754035949707e-01
-1.163624095916748047e+01 -3.546247243881225586e+00 8.015758991241455078e-01
-1.054942989349365234e+01 -3.638446331024169922e+00 6.297600865364074707e-01
-9.836805343627929688e+00 -3.797495126724243164e+00 4.954153895378112793e-01
-9.650032997131347656e+00 -4.129843235015869141e+00 3.940657079219818115e-01
-1.165983104705810547e+01 -3.551212549209594727e+00 3.617501854896545410e-01
-1.054546928405761719e+01 -3.632961988449096680e+00 2.258469313383102417e-01
-9.905069351196289062e+00 -3.817890167236328125e+00 1.130212023854255676e-01
-1.135839271545410156e+01 -4.856265068054199219e+00 1.509203389286994934e-02
-1.410202980041503906e+01 -4.214049339294433594e+00 4.337385654449462891e+00
-1.299296760559082031e+01 -4.968678951263427734e+00 3.795075178146362305e+00
-1.332950115203857422e+01 -5.671083927154541016e+00 3.808371782302856445e+00
-1.488091278076171875e+01 -4.449629306793212891e+00 3.944606781005859375e+00
-1.460982799530029297e+01 -4.967189788818359375e+00 3.753147602081298828e+00
-1.445860576629638672e+01 -4.326101779937744141e+00 3.240940570831298828e+00
-1.327604007720947266e+01 -4.508546829223632812e+00 2.867838621139526367e+00
-1.346046447753906250e+01 -5.128614425659179688e+00 2.805150508880615234e+00
-1.441195583343505859e+01 -6.101933479309082031e+00 2.894997835159301758e+00
-1.412578773498535156e+01 -4.791622161865234375e+00 2.485437154769897461e+00
-1.113305377960205078e+01 -3.767789125442504883e+00 1.092393875122070312e+00
-9.963218688964843750e+00 -4.197874069213867188e+00 7.996363043785095215e-01
-1.191884040832519531e+01 -3.552594423294067383e+00 8.195260167121887207e-01
-1.070870113372802734e+01 -3.620008945465087891e+00 6.379299759864807129e-01
-9.898217201232910156e+00 -3.751580715179443359e+00 4.973395764827728271e-01
-9.675191879272460938e+00 -4.070553779602050781e+00 3.940657079219818115e-01
-1.186054134368896484e+01 -3.532963514328002930e+00 3.672977685928344727e-01
-1.077406406402587891e+01 -3.637914180755615234e+00 2.302602231502532959e-01
-1.005924034118652344e+01 -3.806588649749755859e+00 1.145116835832595825e-01
-1.139903926849365234e+01 -4.791129589080810547e+00 1.510669477283954620e-02
-1.432649707794189453e+01 -4.185544490814208984e+00 4.398443222045898438e+00
-1.380718612670898438e+01 -5.183163166046142578e+00 4.023532390594482422e+00
-1.332657337188720703e+01 -5.573516368865966797e+00 3.797692775726318359e+00
-1.473676013946533203e+01 -4.308196067810058594e+00 3.899314403533935547e+00
-1.453401756286621094e+01 -4.842133045196533203e+00 3.725969791412353516e+00
-1.325699329376220703e+01 -4.968705177307128906e+00 3.299772262573242188e+00
-1.432253932952880859e+01 -5.975375175476074219e+00 3.468914031982421875e+00
-1.440699195861816406e+01 -4.214519977569580078e+00 3.223513841629028320e+00
-1.337503337860107422e+01 -4.450820922851562500e+00 2.883269071578979492e+00
-1.343559741973876953e+01 -5.024950981140136719e+00 2.793490171432495117e+00
-1.447726821899414062e+01 -6.025100708007812500e+00 2.900636434555053711e+00
-1.415492248535156250e+01 -4.704857826232910156e+00 2.485437154769897461e+00
-9.983260154724121094e+00 -4.134372234344482422e+00 7.991937398910522461e-01
-1.206686973571777344e+01 -3.516243457794189453e+00 8.282052278518676758e-01
-1.089846801757812500e+01 -3.609797716140747070e+00 6.479029059410095215e-01
-1.000343704223632812e+01 -3.721425056457519531e+00 5.014696121215820312e-01
-9.692598342895507812e+00 -4.008056163787841797e+00 3.937655687332153320e-01
-1.205857944488525391e+01 -3.511544704437255859e+00 3.727563619613647461e-01
-1.099076843261718750e+01 -3.636112689971923828e+00 2.344103306531906128e-01
-1.011615371704101562e+01 -3.757328510284423828e+00 1.148949563503265381e-01
-1.092728424072265625e+01 -4.514154434204101562e+00 1.444451697170734406e-02
-1.437127876281738281e+01 -4.103089809417724609e+00 4.404379367828369141e+00
-1.390571975708007812e+01 -5.123026371002197266e+00 4.043009281158447266e+00
-1.319861412048339844e+01 -5.425091266632080078e+00 3.751671075820922852e+00
-1.463244533538818359e+01 -4.180416584014892578e+00 3.864853143692016602e+00
-1.425308322906494141e+01 -4.651571273803710938e+00 3.646562814712524414e+00
-1.325889587402343750e+01 -4.876845836639404297e+00 3.292735576629638672e+00
-1.431413459777832031e+01 -4.092179298400878906e+00 3.197059154510498047e+00
-1.354274368286132812e+01 -4.414517879486083984e+00 2.913528442382812500e+00
-1.349658489227294922e+01 -4.953577995300292969e+00 2.799798011779785156e+00
-1.460680007934570312e+01 -5.974125862121582031e+00 2.919189691543579102e+00
-1.463373565673828125e+01 -4.764497280120849609e+00 2.564329385757446289e+00
-9.951170921325683594e+00 -4.049732208251953125e+00 7.946206331253051758e-01
-1.230990505218505859e+01 -3.505262136459350586e+00 8.433938026428222656e-01
-1.109230422973632812e+01 -3.598624229431152344e+00 6.581012010574340820e-01
-1.004672718048095703e+01 -3.667510986328125000e+00 5.025021433830261230e-01
-9.700345039367675781e+00 -3.941736936569213867e+00 3.930903077125549316e-01
-1.226737022399902344e+01 -3.490835905075073242e+00 3.785412907600402832e-01
-1.118407154083251953e+01 -3.624081611633300781e+00 2.380543351173400879e-01
-1.009955883026123047e+01 -3.680805444717407227e+00 1.144478172063827515e-01
-1.076483154296875000e+01 -4.369913578033447266e+00 1.419406197965145111e-02
-1.457912826538085938e+01 -4.065851688385009766e+00 4.460349559783935547e+00
-1.477918243408203125e+01 -4.124423503875732422e+00 3.896852970123291016e+00
-1.425081253051757812e+01 -4.554267406463623047e+00 3.638764142990112305e+00
-1.320887184143066406e+01 -4.766638755798339844e+00 3.272987365722656250e+00
-1.374504089355468750e+01 -4.387345314025878906e+00 2.951202392578125000e+00
-1.369572925567626953e+01 -4.931525707244873047e+00 2.834779024124145508e+00
-1.468697547912597656e+01 -5.901986122131347656e+00 2.927920341491699219e+00
-1.472754001617431641e+01 -4.695290088653564453e+00 2.575670003890991211e+00
-9.967497825622558594e+00 -3.985264301300048828e+00 7.939568161964416504e-01
-1.245327186584472656e+01 -3.463621139526367188e+00 8.517442345619201660e-01
-1.127213478088378906e+01 -3.580672025680541992e+00 6.674543619155883789e-01
-1.014521408081054688e+01 -3.633074522018432617e+00 5.063036084175109863e-01
-9.736413002014160156e+00 -3.886958837509155273e+00 3.935779929161071777e-01
-1.254761981964111328e+01 -3.487502813339233398e+00 3.865214884281158447e-01
-1.134713935852050781e+01 -3.600137710571289062e+00 2.410505115985870361e-01
-1.022081947326660156e+01 -3.654112339019775391e+00 1.155656725168228149e-01
-1.126515769958496094e+01 -4.492704391479492188e+00 1.481714379042387009e-02
-1.450662231445312500e+01 -3.949859380722045898e+00 4.430668354034423828e+00
-1.390340042114257812e+01 -4.354730129241943359e+00 4.128225803375244141e+00
-1.372805881500244141e+01 -5.446759223937988281e+00 3.882871389389038086e+00
-1.495476913452148438e+01 -4.074684619903564453e+00 3.936483621597290039e+00
-1.417833518981933594e+01 -4.435409069061279297e+00 3.613240480422973633e+00
-1.322593593597412109e+01 -4.681276321411132812e+00 3.270036458969116211e+00
-1.349453067779541016e+01 -5.340478897094726562e+00 3.244008302688598633e+00
-1.385399436950683594e+01 -4.328636646270751953e+00 2.968837261199951172e+00
-1.415240383148193359e+01 -4.998081684112548828e+00 2.922899723052978516e+00
-1.480127048492431641e+01 -4.618939876556396484e+00 2.583559274673461914e+00
-1.002610874176025391e+01 -3.937518358230590820e+00 7.966859340667724609e-01
-1.270251369476318359e+01 -3.449113607406616211e+00 8.673273324966430664e-01
-1.146455001831054688e+01 -3.564500093460083008e+00 6.775400042533874512e-01
-1.038691043853759766e+01 -3.647877931594848633e+00 5.172388553619384766e-01
-9.771243095397949219e+00 -3.831521749496459961e+00 3.940281867980957031e-01
-1.264692211151123047e+01 -3.431648969650268555e+00 3.889244794845581055e-01
-1.160103607177734375e+01 -3.602494955062866211e+00 2.459699064493179321e-01
-1.050537586212158203e+01 -3.683304786682128906e+00 1.185253411531448364e-01
-1.162678146362304688e+01 -4.554437637329101562e+00 1.525574550032615662e-02
-1.464183044433593750e+01 -3.890332221984863281e+00 4.464589595794677734e+00
-1.390502262115478516e+01 -4.261726379394531250e+00 4.120865345001220703e+00
-1.377113342285156250e+01 -5.366285324096679688e+00 3.885668277740478516e+00
-1.443477535247802734e+01 -4.418578147888183594e+00 3.671613931655883789e+00
-1.326177024841308594e+01 -4.602590084075927734e+00 3.271852254867553711e+00
-1.429022121429443359e+01 -5.554202556610107422e+00 3.427030563354492188e+00
-1.454081344604492188e+01 -4.445486068725585938e+00 3.110115051269531250e+00
-1.379788112640380859e+01 -4.777860641479492188e+00 2.843571901321411133e+00
-1.462917900085449219e+01 -5.062858581542968750e+00 2.429715871810913086e+00
-1.091083431243896484e+01 -3.761095523834228516e+00 9.630304574966430664e-01
-1.009288120269775391e+01 -3.892431974411010742e+00 8.000788688659667969e-01
-1.287873077392578125e+01 -3.412252664566040039e+00 8.779132962226867676e-01
-1.165909576416015625e+01 -3.546680688858032227e+00 6.877382993698120117e-01
-1.066882896423339844e+01 -3.673507452011108398e+00 5.301451683044433594e-01
-9.823478698730468750e+00 -3.782626152038574219e+00 3.951911628246307373e-01
-1.295472145080566406e+01 -3.429966926574707031e+00 3.977353572845458984e-01
-1.174154281616210938e+01 -3.567283391952514648e+00 2.484802156686782837e-01
-1.053250598907470703e+01 -3.620400905609130859e+00 1.185785755515098572e-01
-1.198024082183837891e+01 -4.608307361602783203e+00 1.568212918937206268e-02
-1.467192554473876953e+01 -3.802102804183959961e+00 4.466568470001220703e+00
-1.422213554382324219e+01 -4.263632297515869141e+00 4.207012176513671875e+00
-1.406469631195068359e+01 -4.792978286743164062e+00 4.053800106048583984e+00
-1.393838882446289062e+01 -5.333182811737060547e+00 3.923553705215454102e+00
-1.437970161437988281e+01 -4.305398941040039062e+00 3.650816917419433594e+00
-1.369764041900634766e+01 -5.227367877960205078e+00 3.277166128158569336e+00
-1.477056503295898438e+01 -4.416809082031250000e+00 3.153400182723999023e+00
-1.344678115844726562e+01 -4.564076423645019531e+00 2.765390872955322266e+00
-1.312606048583984375e+01 -4.996119499206542969e+00 2.597967863082885742e+00
-1.491537189483642578e+01 -5.059638977050781250e+00 2.472045898437500000e+00
-1.094031524658203125e+01 -3.696310043334960938e+00 9.636125564575195312e-01
-1.015015125274658203e+01 -3.843142747879028320e+00 8.027342557907104492e-01
-1.318056201934814453e+01 -3.405810832977294922e+00 8.970469832420349121e-01
-1.182801055908203125e+01 -3.518919229507446289e+00 6.964153051376342773e-01
-1.072713375091552734e+01 -3.620112895965576172e+00 5.319285988807678223e-01
-9.899783134460449219e+00 -3.742420673370361328e+00 3.973295688629150391e-01
-1.312940597534179688e+01 -3.390147924423217773e+00 4.024522900581359863e-01
-1.186959075927734375e+01 -3.526780128479003906e+00 2.507273554801940918e-01
-1.159292125701904297e+01 -4.377854347229003906e+00 1.513968035578727722e-02
-1.442437553405761719e+01 -4.227976322174072266e+00 4.259081840515136719e+00
-1.406638908386230469e+01 -4.697421550750732422e+00 4.045904159545898438e+00
-1.387578582763671875e+01 -5.211851119995117188e+00 3.896856069564819336e+00
-1.449164199829101562e+01 -4.242200374603271484e+00 3.672559261322021484e+00
-1.465969562530517578e+01 -4.887023925781250000e+00 3.601670742034912109e+00
-1.337029647827148438e+01 -5.008676052093505859e+00 3.191435813903808594e+00
-1.487637710571289062e+01 -4.349188327789306641e+00 3.170233249664306641e+00
-1.346615028381347656e+01 -4.478694915771484375e+00 2.763670682907104492e+00
-1.316015338897705078e+01 -4.916862010955810547e+00 2.598695278167724609e+00
-1.432834148406982422e+01 -4.762672901153564453e+00 2.369864463806152344e+00
-1.273098850250244141e+01 -3.707505464553833008e+00 1.232413411140441895e+00
-1.020906448364257812e+01 -3.793991565704345703e+00 8.055371642112731934e-01
-1.207946395874023438e+01 -3.513195514678955078e+00 7.099379301071166992e-01
-1.089614582061767578e+01 -3.602830648422241211e+00 5.392030477523803711e-01
-9.970340728759765625e+00 -3.699334621429443359e+00 3.992428779602050781e-01
-1.353963184356689453e+01 -3.407594203948974609e+00 4.143781065940856934e-01
-1.213487720489501953e+01 -3.524718046188354492e+00 2.558694481849670410e-01
-1.015586757659912109e+01 -3.764138936996459961e+00 1.323255989700555801e-02
-1.444172096252441406e+01 -4.137005329132080078e+00 4.256628036499023438e+00
-1.401884174346923828e+01 -4.586126327514648438e+00 4.024058818817138672e+00
-1.388572502136230469e+01 -5.118584632873535156e+00 3.890753746032714844e+00
-1.419411182403564453e+01 -4.635238170623779297e+00 3.480230331420898438e+00
-1.337696170806884766e+01 -4.917788028717041016e+00 3.185764074325561523e+00
-1.349897766113281250e+01 -4.397808074951171875e+00 2.764817476272583008e+00
-1.327408790588378906e+01 -4.866822719573974609e+00 2.615247488021850586e+00
-1.421920776367187500e+01 -4.629705905914306641e+00 2.347071409225463867e+00
-1.110903263092041016e+01 -3.602042436599731445e+00 9.745060205459594727e-01
-1.034551906585693359e+01 -3.772619724273681641e+00 8.144621849060058594e-01
-1.234184932708740234e+01 -3.507518768310546875e+00 7.240803837776184082e-01
-1.107104682922363281e+01 -3.585455417633056641e+00 5.467591285705566406e-01
-1.002383899688720703e+01 -3.649369716644287109e+00 4.004808962345123291e-01
-1.229381370544433594e+01 -3.489229679107666016e+00 2.587643861770629883e-01
-1.016937446594238281e+01 -3.698334932327270508e+00 1.322034187614917755e-02
-1.459191513061523438e+01 -4.083316802978515625e+00 4.293431282043457031e+00
-1.398791790008544922e+01 -4.481184959411621094e+00 4.007214069366455078e+00
-1.419631290435791016e+01 -4.539751529693603516e+00 3.473874568939208984e+00
-1.330773735046386719e+01 -4.799855232238769531e+00 3.162204504013061523e+00
-1.388760280609130859e+01 -4.430346965789794922e+00 2.838793039321899414e+00
-1.343138980865478516e+01 -4.831212520599365234e+00 2.640348672866821289e+00
-1.420593357086181641e+01 -4.529167175292968750e+00 2.340248823165893555e+00
-1.148838233947753906e+01 -4.116476058959960938e+00 1.349447965621948242e+00
-1.116986751556396484e+01 -3.546174049377441406e+00 9.779154062271118164e-01
-1.042199611663818359e+01 -3.728216409683227539e+00 8.186665177345275879e-01
-1.244972229003906250e+01 -3.455758094787597656e+00 7.291513681411743164e-01
-1.126613426208496094e+01 -3.572408199310302734e+00 5.553007721900939941e-01
-1.032177925109863281e+01 -3.686271190643310547e+00 4.114730060100555420e-01
-1.257705402374267578e+01 -3.486374616622924805e+00 2.642709016799926758e-01
-1.022389984130859375e+01 -3.647291421890258789e+00 1.326188165694475174e-02
-1.463896942138671875e+01 -3.999791860580444336e+00 4.299973964691162109e+00
-1.400226306915283203e+01 -4.391230583190917969e+00 4.003529071807861328e+00
-1.420345306396484375e+01 -4.446158409118652344e+00 3.468880891799926758e+00
-1.329369640350341797e+01 -4.702812671661376953e+00 3.151951789855957031e+00
-1.438393306732177734e+01 -4.491631507873535156e+00 2.934560060501098633e+00
-1.401530933380126953e+01 -4.944334983825683594e+00 2.749120235443115234e+00
-1.055477809906005859e+01 -3.702824115753173828e+00 8.272964358329772949e-01
-1.257958507537841797e+01 -3.408810853958129883e+00 7.355182766914367676e-01
-1.139278316497802734e+01 -3.535781860351562500e+00 5.604633092880249023e-01
-1.047906970977783203e+01 -3.670103073120117188e+00 4.168377518653869629e-01
-1.266576480865478516e+01 -3.427418470382690430e+00 2.656880021095275879e-01
-1.034236526489257812e+01 -3.618172168731689453e+00 1.338649820536375046e-02
-1.467439270019531250e+01 -3.912868261337280273e+00 4.303245544433593750e+00
-1.402064323425292969e+01 -4.302684307098388672e+00 4.001160621643066406e+00
-1.357211494445800781e+01 -4.157264709472656250e+00 3.308398008346557617e+00
-1.331584835052490234e+01 -4.618916988372802734e+00 3.150424718856811523e+00
-1.444220066070556641e+01 -4.412754058837890625e+00 2.940868139266967773e+00
-1.395895957946777344e+01 -4.828351974487304688e+00 2.732204198837280273e+00
-1.073950481414794922e+01 -3.693780899047851562e+00 8.399832248687744141e-01
-1.290721130371093750e+01 -3.412717580795288086e+00 7.534357309341430664e-01
-1.163218879699707031e+01 -3.531980752944946289e+00 5.711638331413269043e-01
-1.056188106536865234e+01 -3.626504898071289062e+00 4.192387759685516357e-01
-1.295335769653320312e+01 -3.420081615447998047e+00 2.712754607200622559e-01
-1.187499427795410156e+01 -4.072739601135253906e+00 1.533760130405426025e-02
-1.476516723632812500e+01 -3.840190887451171875e+00 4.322873592376708984e+00
-1.400519943237304688e+01 -4.204092979431152344e+00 3.989316463470458984e+00
-1.428493213653564453e+01 -4.279911041259765625e+00 3.475690364837646484e+00
-1.324692249298095703e+01 -4.504138469696044922e+00 3.127519845962524414e+00
-1.093963241577148438e+01 -3.687705039978027344e+00 8.538501858711242676e-01
-1.310289669036865234e+01 -3.378576993942260742e+00 7.636340260505676270e-01
-1.181834316253662109e+01 -3.509448766708374023e+00 5.792361497879028320e-01
-1.074967765808105469e+01 -3.617405176162719727e+00 4.258040487766265869e-01
-1.324132633209228516e+01 -3.409342050552368164e+00 2.768629193305969238e-01
-1.190639591217041016e+01 -4.002029418945312500e+00 1.534615363925695419e-02
-1.477259826660156250e+01 -3.745501518249511719e+00 4.318239688873291016e+00
-1.452783012390136719e+01 -4.263979434967041016e+00 4.130654811859130859e+00
-1.406647205352783203e+01 -4.700348854064941406e+00 3.899144411087036133e+00
-1.478197383880615234e+01 -4.330166816711425781e+00 3.590094327926635742e+00
-1.101603031158447266e+01 -3.638338565826416016e+00 8.580545186996459961e-01
-1.352425765991210938e+01 -3.398862361907958984e+00 7.869606018066406250e-01
-1.205453681945800781e+01 -3.499243736267089844e+00 5.897489190101623535e-01
-1.088840484619140625e+01 -3.589864730834960938e+00 4.304184913635253906e-01
-1.192122936248779297e+01 -3.925770044326782227e+00 1.533393654972314835e-02
-1.486628913879394531e+01 -3.672323465347290039e+00 4.338958263397216797e+00
-1.457041168212890625e+01 -4.179546356201171875e+00 4.135392189025878906e+00
-1.409780502319335938e+01 -4.614852905273437500e+00 3.899906873703002930e+00
-1.345242118835449219e+01 -4.390595436096191406e+00 3.163077116012573242e+00
