-8.028341293334960938e+00 -4.302898406982421875e+00 8.465960025787353516e-01
-7.394025802612304688e+00 -4.315474033355712891e+00 7.143938541412353516e-01
-6.874691963195800781e+00 -4.352667808532714844e+00 6.018109917640686035e-01
-8.682926177978515625e+00 -4.251783847808837891e+00 6.370657682418823242e-01
-8.004990577697753906e+00 -4.286787509918212891e+00 5.124512314796447754e-01
-7.340574264526367188e+00 -4.280842781066894531e+00 3.992514610290527344e-01
-6.817421913146972656e+00 -4.311408996582031250e+00 3.028273284435272217e-01
-8.788448333740234375e+00 -4.301553726196289062e+00 2.904028892517089844e-01
-8.069593429565429688e+00 -4.317759037017822266e+00 1.853175759315490723e-01
-7.371235847473144531e+00 -4.293553352355957031e+00 9.082365036010742188e-02
-6.994486808776855469e+00 -4.419969081878662109e+00 1.010859571397304535e-02
-1.098010444641113281e+01 -5.302818775177001953e+00 3.593381404876708984e+00
-1.006074333190917969e+01 -5.824533462524414062e+00 3.171555280685424805e+00
-1.066901302337646484e+01 -6.715548038482666016e+00 3.314336299896240234e+00
-1.065571880340576172e+01 -5.148451328277587891e+00 3.005532026290893555e+00
-1.031420993804931641e+01 -5.465271472930908203e+00 2.839025259017944336e+00
-1.004969501495361328e+01 -5.811113834381103516e+00 2.705736160278320312e+00
-1.112796878814697266e+01 -6.990884780883789062e+00 2.937516927719116211e+00
-1.193814849853515625e+01 -5.770644664764404297e+00 2.847475767135620117e+00
-1.079546546936035156e+01 -5.715452194213867188e+00 2.498512506484985352e+00
-1.234872531890869141e+01 -5.966449737548828125e+00 2.423185825347900391e+00
-1.227575302124023438e+01 -5.928549766540527344e+00 1.898925065994262695e+00
-9.536442756652832031e+00 -5.492145061492919922e+00 1.321993708610534668e+00
-8.180500030517578125e+00 -4.320046901702880859e+00 8.598297834396362305e-01
-7.464416027069091797e+00 -4.295372486114501953e+00 7.186347842216491699e-01
-6.948637485504150391e+00 -4.339988231658935547e+00 6.059415340423583984e-01
-8.781657218933105469e+00 -4.233525276184082031e+00 6.423916220664978027e-01
-8.089423179626464844e+00 -4.268340110778808594e+00 5.161699652671813965e-01
-7.510452270507812500e+00 -4.318374633789062500e+00 4.070422053337097168e-01
-6.916661739349365234e+00 -4.314984321594238281e+00 3.060536682605743408e-01
-8.920031547546386719e+00 -4.298315525054931641e+00 2.938738167285919189e-01
-8.171110153198242188e+00 -4.307796001434326172e+00 1.870383471250534058e-01
-9.970200538635253906e+00 -5.725741386413574219e+00 1.224112436175346375e-01
-7.007049083709716797e+00 -4.367975711822509766e+00 1.008782628923654556e-02
-1.091974067687988281e+01 -5.191278934478759766e+00 3.563134908676147461e+00
-1.003680419921875000e+01 -5.728738307952880859e+00 3.152868270874023438e+00
-1.102306079864501953e+01 -6.844329357147216797e+00 3.411210775375366211e+00
-1.146785354614257812e+01 -5.454308032989501953e+00 3.225100517272949219e+00
-1.019508838653564453e+01 -5.322289943695068359e+00 2.797194957733154297e+00
-1.010377502441406250e+01 -5.759951591491699219e+00 2.710729837417602539e+00
-1.116401863098144531e+01 -6.918360233306884766e+00 2.935771703720092773e+00
-1.195479202270507812e+01 -5.688463211059570312e+00 2.843066453933715820e+00
-1.081903934478759766e+01 -5.643215179443359375e+00 2.495907545089721680e+00
-1.201631069183349609e+01 -6.839137077331542969e+00 2.692562103271484375e+00
-1.035241413116455078e+01 -6.402911186218261719e+00 2.251644849777221680e+00
-1.243667984008789062e+01 -5.915098667144775391e+00 2.433277130126953125e+00
-1.229848098754882812e+01 -5.846736431121826172e+00 1.896855473518371582e+00
-7.875101566314697266e+00 -4.471237659454345703e+00 1.087865829467773438e+00
-8.279284477233886719e+00 -4.307455062866210938e+00 8.674184083938598633e-01
-7.592044353485107422e+00 -4.307022571563720703e+00 7.283640503883361816e-01
-6.991268634796142578e+00 -4.307209491729736328e+00 6.073429584503173828e-01
-8.910237312316894531e+00 -4.228331089019775391e+00 6.498873233795166016e-01
-8.188988685607910156e+00 -4.256845474243164062e+00 5.208465456962585449e-01
-7.566354274749755859e+00 -4.288958072662353516e+00 4.086379110813140869e-01
-7.027263164520263672e+00 -4.324310779571533203e+00 3.097677528858184814e-01
-9.021196365356445312e+00 -4.279057502746582031e+00 2.963361144065856934e-01
-8.276353836059570312e+00 -4.298591136932373047e+00 1.888401061296463013e-01
-1.208396816253662109e+01 -6.841392517089843750e+00 1.478452831506729126e-01
-7.029459953308105469e+00 -4.322280406951904297e+00 1.008171867579221725e-02
-1.110777473449707031e+01 -5.197352886199951172e+00 3.614016771316528320e+00
-9.913698196411132812e+00 -5.578105926513671875e+00 3.103386640548706055e+00
-1.147038078308105469e+01 -5.369457721710205078e+00 3.216485261917114258e+00
-1.020595169067382812e+01 -5.248524665832519531e+00 2.791286945343017578e+00
-1.019835948944091797e+01 -5.731246471405029297e+00 2.726619482040405273e+00
-1.122874164581298828e+01 -6.863471508026123047e+00 2.941661834716796875e+00
-1.197264766693115234e+01 -5.607123851776123047e+00 2.839077234268188477e+00
-1.086566162109375000e+01 -5.582993030548095703e+00 2.498713016510009766e+00
-1.217874908447265625e+01 -6.832997798919677734e+00 2.719514369964599609e+00
-1.242012023925781250e+01 -5.814044952392578125e+00 2.423011779785156250e+00
-1.232963848114013672e+01 -5.769065856933593750e+00 1.896165728569030762e+00
-7.930979728698730469e+00 -4.438834667205810547e+00 1.091801762580871582e+00
-8.935575485229492188e+00 -5.436120033264160156e+00 1.156559705734252930e+00
-8.366701126098632812e+00 -4.287908554077148438e+00 8.738040328025817871e-01
-7.683561325073242188e+00 -4.296837329864501953e+00 7.346007823944091797e-01
-7.263018608093261719e+00 -4.413380622863769531e+00 6.285859942436218262e-01
-9.107790946960449219e+00 -4.253808021545410156e+00 6.623800396919250488e-01
-8.343812942504882812e+00 -4.272501468658447266e+00 5.290164947509765625e-01
-7.729432106018066406e+00 -4.318948745727539062e+00 4.160062372684478760e-01
-7.031453609466552734e+00 -4.267630577087402344e+00 3.087923228740692139e-01
-9.203066825866699219e+00 -4.296350002288818359e+00 3.014387190341949463e-01
-8.488598823547363281e+00 -4.342900753021240234e+00 1.930712014436721802e-01
-1.239727497100830078e+01 -6.918667316436767578e+00 1.511562764644622803e-01
-7.122541427612304688e+00 -4.319513320922851562e+00 1.017701253294944763e-02
-1.127624797821044922e+01 -5.192084312438964844e+00 3.658396720886230469e+00
-1.138243103027343750e+01 -5.770500183105468750e+00 3.615980386734008789e+00
-9.912303924560546875e+00 -5.497519493103027344e+00 3.092332124710083008e+00
-1.148550605773925781e+01 -5.290865421295166016e+00 3.211562156677246094e+00
-1.024403095245361328e+01 -5.188876628875732422e+00 2.792941093444824219e+00
-1.054854583740234375e+01 -5.843168735504150391e+00 2.810606241226196289e+00
-1.133917808532714844e+01 -6.835759639739990234e+00 2.959549427032470703e+00
-1.209295845031738281e+01 -5.573250770568847656e+00 2.859443426132202148e+00
-1.098275661468505859e+01 -5.558244705200195312e+00 2.517750263214111328e+00
-1.216890907287597656e+01 -6.729640483856201172e+00 2.708045482635498047e+00
-1.269615745544433594e+01 -5.848559379577636719e+00 2.469815492630004883e+00
-1.237470149993896484e+01 -5.697860717773437500e+00 1.897683382034301758e+00
-8.934854507446289062e+00 -4.513992786407470703e+00 1.296568632125854492e+00
-8.536852836608886719e+00 -4.309177398681640625e+00 8.887961506843566895e-01
-7.792692184448242188e+00 -4.295311450958251953e+00 7.425006031990051270e-01
-7.384058952331542969e+00 -4.425122737884521484e+00 6.366996169090270996e-01
-9.215319633483886719e+00 -4.235346794128417969e+00 6.682977080345153809e-01
-8.453667640686035156e+00 -4.263485908508300781e+00 5.343128442764282227e-01
-7.805661201477050781e+00 -4.298907756805419922e+00 4.186813831329345703e-01
-7.174974918365478516e+00 -4.294718742370605469e+00 3.139320015907287598e-01
-9.256505012512207031e+00 -4.252318382263183594e+00 3.023287355899810791e-01
-8.540086746215820312e+00 -4.303331375122070312e+00 1.936380416154861450e-01
-1.253586864471435547e+01 -6.895481586456298828e+00 1.523273736238479614e-01
-7.208986759185791016e+00 -4.311659812927246094e+00 1.026253402233123779e-02
-1.152283287048339844e+01 -5.220170497894287109e+00 3.727935314178466797e+00
-1.089942359924316406e+01 -5.441824913024902344e+00 3.451865434646606445e+00
-9.921299934387207031e+00 -5.423175811767578125e+00 3.084699392318725586e+00
-1.051985549926757812e+01 -6.266582489013671875e+00 3.219241142272949219e+00
-1.161927413940429688e+01 -5.266304969787597656e+00 3.239869832992553711e+00
-1.089388656616210938e+01 -5.434310913085937500e+00 2.960971355438232422e+00
-1.070900154113769531e+01 -5.846468448638916016e+00 2.843746900558471680e+00
-1.135741996765136719e+01 -6.752090930938720703e+00 2.953441381454467773e+00
-1.211802291870117188e+01 -5.494906902313232422e+00 2.857343673706054688e+00
-1.128584575653076172e+01 -5.624917030334472656e+00 2.579271316528320312e+00
-1.205914592742919922e+01 -6.572641849517822266e+00 2.674593687057495117e+00
-1.240586566925048828e+01 -6.177734375000000000e+00 2.309244155883789062e+00
-1.240401649475097656e+01 -5.619371414184570312e+00 1.896855473518371582e+00
-9.122203826904296875e+00 -4.538600444793701172e+00 1.319689512252807617e+00
-9.454986572265625000e+00 -5.594308376312255859e+00 1.214810848236083984e+00
-8.678152084350585938e+00 -4.313891410827636719e+00 9.007344245910644531e-01
-7.923981666564941406e+00 -4.304497718811035156e+00 7.524793148040771484e-01
-7.372437477111816406e+00 -4.356900215148925781e+00 6.333804726600646973e-01
-9.348420143127441406e+00 -4.227236270904541016e+00 6.760563850402832031e-01
-8.565511703491210938e+00 -4.254169940948486328e+00 5.397219061851501465e-01
-7.895979881286621094e+00 -4.285717487335205078e+00 4.221074283123016357e-01
-7.393097877502441406e+00 -4.363888263702392578e+00 3.222980201244354248e-01
-9.424513816833496094e+00 -4.259663581848144531e+00 3.069566190242767334e-01
-8.669322967529296875e+00 -4.301957130432128906e+00 1.959661543369293213e-01
-1.266497230529785156e+01 -6.865611076354980469e+00 1.533813625574111938e-01
-7.348143100738525391e+00 -4.333895206451416016e+00 1.042257994413375854e-02
-1.186743164062500000e+01 -5.288763046264648438e+00 3.828850746154785156e+00
-1.031612777709960938e+01 -5.071762084960937500e+00 3.257217407226562500e+00
-1.006480503082275391e+01 -5.421676158905029297e+00 3.118915319442749023e+00
-1.017117500305175781e+01 -5.974628448486328125e+00 3.101262569427490234e+00
-1.170005702972412109e+01 -5.216619491577148438e+00 3.253408193588256836e+00
-1.136484050750732422e+01 -5.582419872283935547e+00 3.079608917236328125e+00
-1.077469062805175781e+01 -5.796798706054687500e+00 2.851691484451293945e+00
-1.002379512786865234e+01 -5.876296520233154297e+00 2.597213506698608398e+00
-1.215776062011718750e+01 -5.423236846923828125e+00 2.858813524246215820e+00
-1.141161632537841797e+01 -5.600452423095703125e+00 2.600112199783325195e+00
-1.245770835876464844e+01 -6.108446121215820312e+00 2.311873912811279297e+00
-1.254320430755615234e+01 -5.589923381805419922e+00 1.912859320640563965e+00
-9.185503959655761719e+00 -4.499994277954101562e+00 1.324827432632446289e+00
-9.846692085266113281e+00 -4.384094238281250000e+00 1.104351520538330078e+00
-8.736653327941894531e+00 -4.276320457458496094e+00 9.040659666061401367e-01
-8.037223815917968750e+00 -4.302356243133544922e+00 7.607117891311645508e-01
-7.384383678436279297e+00 -4.303045749664306641e+00 6.321265101432800293e-01
-9.488145828247070312e+00 -4.220488548278808594e+00 6.842753291130065918e-01
-8.698185920715332031e+00 -4.253728866577148438e+00 5.464268922805786133e-01
-7.968811511993408203e+00 -4.262156963348388672e+00 4.245948493480682373e-01
-7.421462059020996094e+00 -4.319448471069335938e+00 3.223730623722076416e-01
-9.518975257873535156e+00 -4.232212066650390625e+00 3.091816306114196777e-01
-8.827607154846191406e+00 -4.313202857971191406e+00 1.989420801401138306e-01
-1.272009086608886719e+01 -6.794838428497314453e+00 1.535410583019256592e-01
-8.310792922973632812e+00 -4.833174705505371094e+00 1.174571458250284195e-02
-1.189702415466308594e+01 -5.214691162109375000e+00 3.828002691268920898e+00
-1.032800102233886719e+01 -4.999145507812500000e+00 3.251219749450683594e+00
-1.007913589477539062e+01 -5.349867343902587891e+00 3.113125085830688477e+00
-9.891295433044433594e+00 -5.728883266448974609e+00 3.005150556564331055e+00
-1.180640602111816406e+01 -5.177428245544433594e+00 3.274085044860839844e+00
-1.167092704772949219e+01 -5.644145488739013672e+00 3.153107166290283203e+00
-1.081091690063476562e+01 -5.731033325195312500e+00 2.851918458938598633e+00
-1.023033714294433594e+01 -5.913334369659423828e+00 2.641278505325317383e+00
-1.322491455078125000e+01 -5.802234649658203125e+00 3.101317167282104492e+00
-1.147399425506591797e+01 -5.543966293334960938e+00 2.606524944305419922e+00
-1.114900970458984375e+01 -5.900293827056884766e+00 2.456489801406860352e+00
-1.246119880676269531e+01 -6.015596389770507812e+00 2.305628299713134766e+00
-9.223661422729492188e+00 -4.448718070983886719e+00 1.326368808746337891e+00
-7.743784904479980469e+00 -4.454447746276855469e+00 9.878513216972351074e-01
-1.016591930389404297e+01 -4.451685428619384766e+00 1.137069225311279297e+00
-8.910731315612792969e+00 -4.293953895568847656e+00 9.193357825279235840e-01
-8.102254867553710938e+00 -4.273415565490722656e+00 7.643706202507019043e-01
-7.473772525787353516e+00 -4.293921947479248047e+00 6.375110149383544922e-01
-9.576941490173339844e+00 -4.189786911010742188e+00 6.888121962547302246e-01
-8.821276664733886719e+00 -4.247053146362304688e+00 5.525120496749877930e-01
-8.127367973327636719e+00 -4.283035755157470703e+00 4.316346347332000732e-01
-7.508496761322021484e+00 -4.308644771575927734e+00 3.249991536140441895e-01
-9.712360382080078125e+00 -4.247011661529541016e+00 3.146105408668518066e-01
-8.905261993408203125e+00 -4.283659934997558594e+00 2.000960260629653931e-01
-1.326680278778076172e+01 -6.982589244842529297e+00 1.596200913190841675e-01
-8.341160774230957031e+00 -4.782587528228759766e+00 1.174693647772073746e-02
-1.202040767669677734e+01 -5.181080818176269531e+00 3.857401132583618164e+00
-1.079015636444091797e+01 -5.141367912292480469e+00 3.386709928512573242e+00
-1.006218719482421875e+01 -5.261991977691650391e+00 3.097859382629394531e+00
-1.012698745727539062e+01 -5.782701969146728516e+00 3.065919876098632812e+00
-1.184329128265380859e+01 -5.107190608978271484e+00 3.275561809539794922e+00
-1.173341274261474609e+01 -5.585792541503906250e+00 3.160669565200805664e+00
-1.045137310028076172e+01 -5.458548069000244141e+00 2.748183488845825195e+00
-1.000442600250244141e+01 -5.701145648956298828e+00 2.573872327804565430e+00
-1.326385784149169922e+01 -5.722527980804443359e+00 3.102157115936279297e+00
-1.157592010498046875e+01 -5.505860805511474609e+00 2.621955156326293945e+00
-1.117455863952636719e+01 -5.826328277587890625e+00 2.454195976257324219e+00
-1.267581176757812500e+01 -5.466198921203613281e+00 2.439018964767456055e+00
-1.242838382720947266e+01 -5.905999660491943359e+00 2.292808294296264648e+00
-1.226987743377685547e+01 -5.825428009033203125e+00 1.759243488311767578e+00
-7.781345367431640625e+00 -4.412732124328613281e+00 9.891700744628906250e-01
-9.068257331848144531e+00 -4.301501750946044922e+00 9.328473806381225586e-01
-8.236205101013183594e+00 -4.279678344726562500e+00 7.745156288146972656e-01
-7.552911281585693359e+00 -4.277964115142822266e+00 6.420103907585144043e-01
-9.708797454833984375e+00 -4.176686763763427734e+00 6.964393258094787598e-01
-8.920248985290527344e+00 -4.227480411529541016e+00 5.570759177207946777e-01
-8.236829757690429688e+00 -4.276351928710937500e+00 4.360462725162506104e-01
-7.592197418212890625e+00 -4.294966697692871094e+00 3.274751901626586914e-01
-9.752011299133300781e+00 -4.193260669708251953e+00 3.150555491447448730e-01
-9.097644805908203125e+00 -4.307663440704345703e+00 2.038210034370422363e-01
-1.331649780273437500e+01 -6.904736518859863281e+00 1.597052663564682007e-01
-8.413005828857421875e+00 -4.755428791046142578e+00 1.180680096149444580e-02
-1.209436416625976562e+01 -5.125191688537597656e+00 3.870969295501708984e+00
-1.087376499176025391e+01 -5.099575519561767578e+00 3.403067111968994141e+00
-1.014542293548583984e+01 -5.710966587066650391e+00 3.060834407806396484e+00
-1.174194908142089844e+01 -5.501736640930175781e+00 3.153815984725952148e+00
-1.051411342620849609e+01 -5.409466266632080078e+00 2.755901336669921875e+00
-1.006304264068603516e+01 -5.653035640716552734e+00 2.579980134963989258e+00
-1.316550922393798828e+01 -5.584529399871826172e+00 3.071083068847656250e+00
-1.227762508392333984e+01 -5.747504234313964844e+00 2.772851943969726562e+00
-1.090101051330566406e+01 -5.598901271820068359e+00 2.386528253555297852e+00
-1.228658008575439453e+01 -5.746468544006347656e+00 2.260100841522216797e+00
-1.252275753021240234e+01 -6.429090023040771484e+00 2.209382295608520508e+00
-1.251024055480957031e+01 -5.845753669738769531e+00 1.788529992103576660e+00
-8.784424781799316406e+00 -4.500175476074218750e+00 1.185667634010314941e+00
-9.198236465454101562e+00 -4.294217586517333984e+00 9.434899687767028809e-01
-8.355454444885253906e+00 -4.276737213134765625e+00 7.832470536231994629e-01
-7.703535556793212891e+00 -4.301060676574707031e+00 6.525580883026123047e-01
-9.959401130676269531e+00 -4.212265968322753906e+00 7.125484347343444824e-01
-9.118842124938964844e+00 -4.253275871276855469e+00 5.678376555442810059e-01
-8.331393241882324219e+00 -4.260752201080322266e+00 4.396600127220153809e-01
-7.751069545745849609e+00 -4.322278022766113281e+00 3.331775963306427002e-01
-9.875148773193359375e+00 -4.174600124359130859e+00 3.182001709938049316e-01
-9.238088607788085938e+00 -4.304970264434814453e+00 2.063717842102050781e-01
-1.357233810424804688e+01 -6.932057380676269531e+00 1.622603833675384521e-01
-8.251590728759765625e+00 -4.597611427307128906e+00 1.154046319425106049e-02
-1.127786827087402344e+01 -5.204912662506103516e+00 3.519474267959594727e+00
-1.023096179962158203e+01 -5.191375255584716797e+00 3.129969596862792969e+00
-1.016420650482177734e+01 -5.639693260192871094e+00 3.056003808975219727e+00
-1.172254371643066406e+01 -5.405174255371093750e+00 3.139636516571044922e+00
-1.053581333160400391e+01 -5.339127540588378906e+00 2.752950191497802734e+00
-1.017864799499511719e+01 -5.636094570159912109e+00 2.600703954696655273e+00
-1.230465221405029297e+01 -5.668372631072998047e+00 2.771048545837402344e+00
-1.090800762176513672e+01 -5.518173217773437500e+00 2.380602598190307617e+00
-1.265673255920410156e+01 -5.825210571289062500e+00 2.321571111679077148e+00
-1.255315303802490234e+01 -6.347672462463378906e+00 2.207831621170043945e+00
-9.387276649475097656e+00 -4.312517166137695312e+00 9.601479768753051758e-01
-8.446497917175292969e+00 -4.258136272430419922e+00 7.893174886703491211e-01
-7.802299976348876953e+00 -4.293618679046630859e+00 6.586802005767822266e-01
-1.005416393280029297e+01 -4.179805278778076172e+00 7.174798250198364258e-01
-9.215545654296875000e+00 -4.229729175567626953e+00 5.722324848175048828e-01
-8.451052665710449219e+00 -4.256733894348144531e+00 4.445879161357879639e-01
-7.801088809967041016e+00 -4.287632465362548828e+00 3.341905176639556885e-01
-1.011010742187500000e+01 -4.200993537902832031e+00 3.249343633651733398e-01
-9.397014617919921875e+00 -4.309048652648925781e+00 2.093274742364883423e-01
-1.390136241912841797e+01 -6.992891788482666016e+00 1.656778305768966675e-01
-8.492641448974609375e+00 -4.663863658905029297e+00 1.183734368532896042e-02
-1.099772453308105469e+01 -4.993997573852539062e+00 3.422422885894775391e+00
-1.023241901397705078e+01 -5.113407611846923828e+00 3.120757818222045898e+00
-1.011631107330322266e+01 -5.532209396362304688e+00 3.031340122222900391e+00
-1.164045524597167969e+01 -5.280957221984863281e+00 3.108913660049438477e+00
-1.053961944580078125e+01 -5.260029315948486328e+00 2.745459556579589844e+00
-1.107312011718750000e+01 -6.042903423309326172e+00 2.819719552993774414e+00
-1.248822021484375000e+01 -5.660309314727783203e+00 2.804514169692993164e+00
-1.091794013977050781e+01 -5.439321041107177734e+00 2.375441551208496094e+00
-1.190766620635986328e+01 -6.484858036041259766e+00 2.508112907409667969e+00
-1.271649837493896484e+01 -5.758426666259765625e+00 2.326008796691894531e+00
-1.257152652740478516e+01 -6.260399818420410156e+00 2.204265356063842773e+00
-1.238767528533935547e+01 -5.604315757751464844e+00 1.761041760444641113e+00
-9.500663757324218750e+00 -4.294206619262695312e+00 9.690321683883666992e-01
-8.581361770629882812e+00 -4.260292053222656250e+00 7.994624972343444824e-01
-7.910027027130126953e+00 -4.289879798889160156e+00 6.655399799346923828e-01
-1.018862056732177734e+01 -4.162567138671875000e+00 7.252384424209594727e-01
-9.305021286010742188e+00 -4.201867103576660156e+00 5.761766433715820312e-01
-8.596923828125000000e+00 -4.264277935028076172e+00 4.508768022060394287e-01
-7.922148227691650391e+00 -4.291087150573730469e+00 3.382422327995300293e-01
-1.038554763793945312e+01 -4.240906715393066406e+00 3.329442739486694336e-01
-9.456997871398925781e+00 -4.266521453857421875e+00 2.100765258073806763e-01
-1.375763416290283203e+01 -6.815138816833496094e+00 1.634634137153625488e-01
-8.449862480163574219e+00 -4.573112964630126953e+00 1.173838414251804352e-02
-1.098511600494384766e+01 -4.907194137573242188e+00 3.409064769744873047e+00
-1.029995727539062500e+01 -5.068416595458984375e+00 3.131812095642089844e+00
-1.020710659027099609e+01 -5.500772953033447266e+00 3.048375606536865234e+00
-1.168683624267578125e+01 -5.215769290924072266e+00 3.112694740295410156e+00
-1.104805564880371094e+01 -5.429358482360839844e+00 2.869169712066650391e+00
-1.068023681640625000e+01 -5.743728637695312500e+00 2.710648059844970703e+00
-1.272494029998779297e+01 -5.673743724822998047e+00 2.849803209304809570e+00
-1.094053459167480469e+01 -5.367039680480957031e+00 2.373147726058959961e+00
-1.199228668212890625e+01 -6.435851097106933594e+00 2.517571449279785156e+00
-1.271825313568115234e+01 -5.665440559387207031e+00 2.319927453994750977e+00
-1.253075981140136719e+01 -6.144434928894042969e+00 2.190465450286865234e+00
-9.588702201843261719e+00 -4.263339042663574219e+00 9.753251671791076660e-01
-8.721939086914062500e+00 -4.263576507568359375e+00 8.101064562797546387e-01
-7.977539539337158203e+00 -4.263356208801269531e+00 6.690067052841186523e-01
-1.046677207946777344e+01 -4.201449394226074219e+00 7.431886196136474609e-01
-9.508554458618164062e+00 -4.223728656768798828e+00 5.871637463569641113e-01
-8.687552452087402344e+00 -4.243010997772216797e+00 4.542559385299682617e-01
-8.023262977600097656e+00 -4.282392978668212891e+00 3.414310812950134277e-01
-9.638353347778320312e+00 -4.277358055114746094e+00 2.135180830955505371e-01
-1.411824321746826172e+01 -6.886213302612304688e+00 1.672428548336029053e-01
-8.138935089111328125e+00 -4.340482711791992188e+00 1.126923877745866776e-02
-1.095776367187500000e+01 -4.814541816711425781e+00 3.391344547271728516e+00
-1.037080001831054688e+01 -5.024471282958984375e+00 3.143919467926025391e+00
-1.015439605712890625e+01 -5.392227649688720703e+00 3.022695064544677734e+00
-1.124334716796875000e+01 -5.439937591552734375e+00 2.911163330078125000e+00
-1.067043781280517578e+01 -5.654326438903808594e+00 2.699304580688476562e+00
-1.288602352142333984e+01 -5.651037216186523438e+00 2.878058671951293945e+00
-1.108904743194580078e+01 -5.355731010437011719e+00 2.398188591003417969e+00
-1.272476768493652344e+01 -5.575025081634521484e+00 2.314832448959350586e+00
-1.250594902038574219e+01 -6.037367343902587891e+00 2.179611682891845703e+00
-9.924861907958984375e+00 -4.340063095092773438e+00 1.006790280342102051e+00
-8.879037857055664062e+00 -4.273073196411132812e+00 8.222472667694091797e-01
-8.071495056152343750e+00 -4.250104427337646484e+00 6.746861934661865234e-01
-9.564483642578125000e+00 -4.178495883941650391e+00 5.890231132507324219e-01
-8.810648918151855469e+00 -4.236373424530029297e+00 4.593245983123779297e-01
-8.117490768432617188e+00 -4.268896579742431641e+00 3.443197906017303467e-01
-3.107886791229248047e+00 -1.224816679954528809e+00 9.914459288120269775e-02
-9.646090507507324219e+00 -4.210138797760009766e+00 2.131131887435913086e-01
-1.451178073883056641e+01 -6.968262672424316406e+00 1.713949143886566162e-01
-8.792160987854003906e+00 -4.619781017303466797e+00 1.213422417640686035e-02
-1.100052928924560547e+01 -5.246467590332031250e+00 3.325000524520874023e+00
-1.014615726470947266e+01 -5.308300018310546875e+00 3.010490179061889648e+00
-1.117100334167480469e+01 -5.320593833923339844e+00 2.883924245834350586e+00
-1.067724800109863281e+01 -5.574294567108154297e+00 2.692324161529541016e+00
-1.303380870819091797e+01 -5.620746612548828125e+00 2.903308391571044922e+00
-1.240442848205566406e+01 -5.897436141967773438e+00 2.674785137176513672e+00
-1.219681262969970703e+01 -6.354079246520996094e+00 2.543945789337158203e+00
-1.272431182861328125e+01 -5.482011318206787109e+00 2.308586597442626953e+00
-1.246691513061523438e+01 -5.924476623535156250e+00 2.166431903839111328e+00
-9.504156112670898438e+00 -4.506363868713378906e+00 1.263551235198974609e+00
-9.963195800781250000e+00 -4.284196376800537109e+00 1.007993340492248535e+00
-8.968131065368652344e+00 -4.248375892639160156e+00 8.280681371688842773e-01
-8.226668357849121094e+00 -4.267544746398925781e+00 6.854552030563354492e-01
-9.803684234619140625e+00 -4.211551666259765625e+00 6.021513342857360840e-01
-8.952948570251464844e+00 -4.237357616424560547e+00 4.653788208961486816e-01
-8.240245819091796875e+00 -4.269114494323730469e+00 3.484089970588684082e-01
-3.084581613540649414e+00 -1.193818211555480957e+00 9.816560894250869751e-02
-9.770048141479492188e+00 -4.193063259124755859e+00 2.152793556451797485e-01
-1.472512817382812500e+01 -6.959848403930664062e+00 1.734070479869842529e-01
-9.118735313415527344e+00 -4.720206260681152344e+00 1.254472602158784866e-02
-1.112683105468750000e+01 -5.223145484924316406e+00 3.353426218032836914e+00
-1.013899230957031250e+01 -5.225563049316406250e+00 2.998794078826904297e+00
-1.235673046112060547e+01 -6.354928016662597656e+00 3.105923652648925781e+00
-1.312487697601318359e+01 -5.564760208129882812e+00 2.915933132171630859e+00
-1.258351612091064453e+01 -5.888190269470214844e+00 2.705560207366943359e+00
-1.193025016784667969e+01 -6.122435092926025391e+00 2.480465412139892578e+00
-1.245202445983886719e+01 -5.824012756347656250e+00 2.157593727111816406e+00
-9.555020332336425781e+00 -4.458878517150878906e+00 1.266652226448059082e+00
-8.767087936401367188e+00 -4.485621452331542969e+00 1.088966488838195801e+00
-9.103317260742187500e+00 -4.244221210479736328e+00 8.381300568580627441e-01
-8.337951660156250000e+00 -4.260550022125244141e+00 6.925362944602966309e-01
-9.918557167053222656e+00 -4.188997268676757812e+00 6.076167225837707520e-01
-9.115508079528808594e+00 -4.246031761169433594e+00 4.724655747413635254e-01
-8.349954605102539062e+00 -4.261170864105224609e+00 3.519354760646820068e-01
-3.086242437362670898e+00 -1.172738790512084961e+00 9.798760712146759033e-02
-1.010970687866210938e+01 -4.265570163726806641e+00 2.221826910972595215e-01
-1.459619903564453125e+01 -6.789656162261962891e+00 1.713949143886566162e-01
-8.604982376098632812e+00 -4.387531757354736328e+00 1.180069241672754288e-02
-1.102379608154296875e+01 -5.092468738555908203e+00 3.312893629074096680e+00
-1.019759941101074219e+01 -5.176824569702148438e+00 3.006676435470581055e+00
-1.257483291625976562e+01 -6.369834899902343750e+00 3.150861024856567383e+00
-1.321212959289550781e+01 -5.506359100341796875e+00 2.927756547927856445e+00
-1.277811050415039062e+01 -5.883945941925048828e+00 2.739585399627685547e+00
-1.200883865356445312e+01 -6.069965362548828125e+00 2.489014387130737305e+00
-1.235201644897460938e+01 -5.685129165649414062e+00 2.134180545806884766e+00
-9.246936798095703125e+00 -4.242305278778076172e+00 8.489403724670410156e-01
-8.477071762084960938e+00 -4.266245841979980469e+00 7.019038200378417969e-01
-1.015247058868408203e+01 -4.214570999145507812e+00 6.203505396842956543e-01
-9.215849876403808594e+00 -4.224149703979492188e+00 4.763140082359313965e-01
-8.459872245788574219e+00 -4.252039909362792969e+00 3.554619550704956055e-01
-3.104618549346923828e+00 -1.157971620559692383e+00 9.834360331296920776e-02
-1.002671432495117188e+01 -4.158263206481933594e+00 2.197938561439514160e-01
-1.266911697387695312e+01 -5.798953533172607422e+00 1.483456492424011230e-01
-8.738085746765136719e+00 -4.388053417205810547e+00 1.194607838988304138e-02
-1.106713199615478516e+01 -5.030321121215820312e+00 3.316578388214111328e+00
-1.023263168334960938e+01 -5.115885734558105469e+00 3.007693290710449219e+00
-1.206438636779785156e+01 -6.018532276153564453e+00 3.013648986816406250e+00
-1.303481101989746094e+01 -5.905481815338134766e+00 2.786799907684326172e+00
-1.215853404998779297e+01 -6.052254199981689453e+00 2.512296438217163086e+00
-1.245866107940673828e+01 -5.641834259033203125e+00 2.146584749221801758e+00
-1.255742835998535156e+01 -6.239880084991455078e+00 2.068133592605590820e+00
-9.419029235839843750e+00 -4.251493930816650391e+00 8.623285293579101562e-01
-8.611208915710449219e+00 -4.267735958099365234e+00 7.108287811279296875e-01
-1.019940280914306641e+01 -4.160871505737304688e+00 6.216464638710021973e-01
-9.336297035217285156e+00 -4.210228919982910156e+00 4.811949431896209717e-01
-8.607604026794433594e+00 -4.260336399078369141e+00 3.605641126632690430e-01
-9.595358848571777344e+00 -4.321009159088134766e+00 1.120417416095733643e-01
-9.204073905944824219e+00 -4.551560401916503906e+00 1.254472602158784866e-02
-1.105111122131347656e+01 -4.941447734832763672e+00 3.302628755569458008e+00
-1.024126911163330078e+01 -5.041896820068359375e+00 3.001082420349121094e+00
-1.224912166595458984e+01 -6.017111301422119141e+00 3.050515174865722656e+00
-1.308155918121337891e+01 -5.830185413360595703e+00 2.789093732833862305e+00
-1.217778205871582031e+01 -5.968881607055664062e+00 2.508658647537231445e+00
-1.244611835479736328e+01 -5.544378757476806641e+00 2.138521909713745117e+00
-1.255460166931152344e+01 -6.142711162567138672e+00 2.061421632766723633e+00
-9.555143356323242188e+00 -4.242551803588867188e+00 8.723903298377990723e-01
-8.713415145874023438e+00 -4.251993656158447266e+00 7.170984148979187012e-01
-1.047588825225830078e+01 -4.198873996734619141e+00 6.369158029556274414e-01
-9.499832153320312500e+00 -4.214024066925048828e+00 4.882816970348358154e-01
-8.696464538574218750e+00 -4.238085746765136719e+00 3.631902337074279785e-01
-3.090758800506591797e+00 -1.237564802169799805e+00 6.741397827863693237e-02
-9.629005432128906250e+00 -4.265291690826416016e+00 1.121269166469573975e-01
-8.859605789184570312e+00 -4.313763618469238281e+00 1.203892938792705536e-02
-1.140686893463134766e+01 -5.529040336608886719e+00 3.332643270492553711e+00
-1.199764442443847656e+01 -5.802471160888671875e+00 2.978964328765869141e+00
-1.319170188903808594e+01 -5.782516002655029297e+00 2.804959297180175781e+00
-1.220974922180175781e+01 -5.891910552978515625e+00 2.507749080657958984e+00
-1.238308334350585938e+01 -5.425485610961914062e+00 2.121931076049804688e+00
-1.239508342742919922e+01 -5.970680236816406250e+00 2.029175519943237305e+00
-9.592868804931640625e+00 -4.189027309417724609e+00 8.734713792800903320e-01
-8.804063796997070312e+00 -4.229542255401611328e+00 7.224091887474060059e-01
-9.601501464843750000e+00 -4.188807487487792969e+00 4.921770691871643066e-01
-8.829520225524902344e+00 -4.236083030700683594e+00 3.676545917987823486e-01
-3.077824831008911133e+00 -1.210526227951049805e+00 6.696859747171401978e-02
-9.657746315002441406e+00 -4.207326889038085938e+00 1.121588572859764099e-01
-8.785813331604003906e+00 -4.211341857910156250e+00 1.190331671386957169e-02
-1.114991760253906250e+01 -5.320253372192382812e+00 3.247973203659057617e+00
-1.203830814361572266e+01 -5.731262683868408203e+00 2.980273008346557617e+00
-1.327470779418945312e+01 -5.722056865692138672e+00 2.815090179443359375e+00
-1.264269828796386719e+01 -6.005475997924804688e+00 2.589055061340332031e+00
-1.241614055633544922e+01 -5.349402427673339844e+00 2.121931076049804688e+00
-1.237338161468505859e+01 -5.866962909698486328e+00 2.019691467285156250e+00
-9.852807044982910156e+00 -4.230744838714599609e+00 8.947592973709106445e-01
-8.938036918640136719e+00 -4.226601123809814453e+00 7.312604188919067383e-01
-3.129864454269409180e+00 -1.210127115249633789e+00 1.893731206655502319e-01
-1.003094100952148438e+01 -4.303088188171386719e+00 5.128271579742431641e-01
-8.975526809692382812e+00 -4.238580226898193359e+00 3.726441860198974609e-01
-3.073070287704467773e+00 -1.186935424804687500e+00 6.670542061328887939e-02
-9.905817031860351562e+00 -4.243272781372070312e+00 1.147352606058120728e-01
-8.783452033996582031e+00 -4.144126415252685547e+00 1.186544448137283325e-02
-1.119723415374755859e+01 -5.258728027343750000e+00 3.252295732498168945e+00
-1.216250228881835938e+01 -5.699111938476562500e+00 3.002305507659912109e+00
-1.294119739532470703e+01 -6.050226211547851562e+00 2.642531394958496094e+00
-1.235625553131103516e+01 -5.766247749328613281e+00 2.011082649230957031e+00
-9.458689689636230469e+00 -4.408021926879882812e+00 1.153921961784362793e+00
-9.991505622863769531e+00 -4.217880249023437500e+00 9.049875140190124512e-01
-9.099425315856933594e+00 -4.234796524047851562e+00 7.423244714736938477e-01
-3.126963138580322266e+00 -1.187002301216125488e+00 1.887533515691757202e-01
-1.004150867462158203e+01 -4.234859943389892578e+00 5.120293498039245605e-01
-9.121891021728515625e+00 -4.239442348480224609e+00 3.776338100433349609e-01
-3.072816610336303711e+00 -1.165221095085144043e+00 6.654346734285354614e-02
-9.868079185485839844e+00 -4.155633449554443359e+00 1.140006631612777710e-01
-8.311682701110839844e+00 -3.859366893768310547e+00 1.119593624025583267e-02
-1.123280239105224609e+01 -5.191547393798828125e+00 3.253312826156616211e+00
-1.229384231567382812e+01 -5.668920993804931641e+00 3.026083230972290039e+00
-1.297093105316162109e+01 -5.967418670654296875e+00 2.641076087951660156e+00
-1.236083602905273438e+01 -5.676285266876220703e+00 2.006121635437011719e+00
-9.601203918457031250e+00 -4.402934074401855469e+00 1.167990207672119141e+00
-1.030713844299316406e+01 -4.276800632476806641e+00 9.311817288398742676e-01
-9.241299629211425781e+00 -4.232033729553222656e+00 7.517658472061157227e-01
-1.017249870300292969e+01 -4.216772556304931641e+00 5.173795819282531738e-01
-9.273142814636230469e+00 -4.240744113922119141e+00 3.828109800815582275e-01
-3.087404251098632812e+00 -1.149134755134582520e+00 6.670542061328887939e-02
-8.695392608642578125e+00 -3.972860813140869141e+00 1.167974062263965607e-02
-1.123715400695800781e+01 -5.110115051269531250e+00 3.245430707931518555e+00
-1.241104602813720703e+01 -5.630879878997802734e+00 3.046370506286621094e+00
-1.295623970031738281e+01 -5.864605426788330078e+00 2.630708217620849609e+00
-1.234765052795410156e+01 -5.578745841979980469e+00 1.998388528823852539e+00
-9.730416297912597656e+00 -4.390129566192626953e+00 1.180409669876098633e+00
-9.377112388610839844e+00 -4.224819183349609375e+00 7.606908679008483887e-01
-1.024443531036376953e+01 -4.173117637634277344e+00 5.197262167930603027e-01
-9.410167694091796875e+00 -4.233786582946777344e+00 3.873878717422485352e-01
-3.120692491531372070e+00 -1.139773011207580566e+00 6.727226823568344116e-02
-9.142816543579101562e+00 -4.109663963317871094e+00 1.224662363529205322e-02
-1.106436634063720703e+01 -4.949837207794189453e+00 3.186695575714111328e+00
-1.298569297790527344e+01 -5.782196998596191406e+00 2.629435062408447266e+00
-1.232650184631347656e+01 -5.478367805480957031e+00 1.989487886428833008e+00
-9.499504089355468750e+00 -4.210034847259521484e+00 7.685094475746154785e-01
-1.047665500640869141e+01 -4.192948341369628906e+00 5.301920771598815918e-01
-9.529177665710449219e+00 -4.217217445373535156e+00 3.912144899368286133e-01
-3.066067457199096680e+00 -1.225234031677246094e+00 3.515410795807838440e-02
-9.136765480041503906e+00 -4.039738655090332031e+00 1.220508571714162827e-02
-1.322715950012207031e+01 -5.806489467620849609e+00 3.228956460952758789e+00
-1.304524707794189453e+01 -5.713060379028320312e+00 2.634346246719360352e+00
-1.236351108551025391e+01 -5.404215812683105469e+00 1.990071654319763184e+00
-9.663203239440917969e+00 -4.211836814880371094e+00 7.796472907066345215e-01
-3.157999753952026367e+00 -1.241462826728820801e+00 1.594283878803253174e-01
-9.709723472595214844e+00 -4.226064682006835938e+00 3.975546658039093018e-01
-3.089351654052734375e+00 -1.212608933448791504e+00 3.533509746193885803e-02
-9.107274055480957031e+00 -3.960073709487915039e+00 1.213300321251153946e-02
-1.337005805969238281e+01 -5.771634101867675781e+00 3.255133628845214844e+00
-1.299606513977050781e+01 -5.596737384796142578e+00 2.617430210113525391e+00
-9.742029190063476562e+00 -4.175250530242919922e+00 7.839253544807434082e-01
-3.138533830642700195e+00 -1.211629748344421387e+00 1.580673605203628540e-01
-9.824585914611816406e+00 -4.204545021057128906e+00 4.011936783790588379e-01
-3.106064319610595703e+00 -1.197226524353027344e+00 3.544155880808830261e-02
-9.174616813659667969e+00 -3.922594785690307617e+00 1.219042483717203140e-02
-1.322015953063964844e+01 -5.610944271087646484e+00 3.210196018218994141e+00
-1.301838970184326172e+01 -5.511906147003173828e+00 2.615065574645996094e+00
-9.954947471618652344e+00 -4.194389343261718750e+00 7.989724874496459961e-01
-3.130964040756225586e+00 -1.186684846878051758e+00 1.573164463043212891e-01
-1.006205177307128906e+01 -4.233314037322998047e+00 4.098223447799682617e-01
-3.123639106750488281e+00 -1.182038545608520508e+00 3.555866703391075134e-02
-9.333106994628906250e+00 -3.922797918319702148e+00 1.236879732459783554e-02
-1.325073623657226562e+01 -5.528218269348144531e+00 3.209323644638061523e+00
-1.015924644470214844e+01 -4.207253932952880859e+00 8.132820129394531250e-01
-3.221509456634521484e+00 -1.198448657989501953e+00 1.614934056997299194e-01
-1.007029151916503906e+01 -4.164239406585693359e+00 4.091095328330993652e-01
-3.071778535842895508e+00 -1.140915989875793457e+00 3.488795086741447449e-02
-9.215593338012695312e+00 -3.807039976119995117e+00 1.218187250196933746e-02
-1.037977313995361328e+01 -4.224156379699707031e+00 8.288454413414001465e-01
-1.033728218078613281e+01 -4.200556755065917969e+00 4.189011454582214355e-01
-3.089995384216308594e+00 -1.126155257225036621e+00 3.501570597290992737e-02
-9.483391761779785156e+00 -3.849721670150756836e+00 1.250440906733274460e-02
-1.055311679840087891e+01 -4.213002681732177734e+00 4.265918731689453125e-01
-3.094017267227172852e+00 -1.233937859535217285e+00 4.069583490490913391e-03
-3.154745101928710938e+00 -1.237045764923095703e+00 1.272159963846206665e-01
-3.109910249710083008e+00 -1.218212723731994629e+00 4.080579150468111038e-03
-3.116581201553344727e+00 -1.200070023536682129e+00 1.253777295351028442e-01
-3.107993364334106445e+00 -1.195517539978027344e+00 4.068361595273017883e-03
-3.116407871246337891e+00 -1.178097486495971680e+00 1.250775903463363647e-01
-3.100301980972290039e+00 -1.170772314071655273e+00 4.048814065754413605e-03
-3.096175432205200195e+00 -1.147556662559509277e+00 4.034153185784816742e-03
-3.107857227325439453e+00 -1.130246281623840332e+00 4.040261730551719666e-03
-9.944167137145996094e+00 -3.547499179840087891e+00 1.289902813732624054e-02
-9.844926834106445312e+00 -3.444148540496826172e+00 1.274264603853225708e-02
-1.006167793273925781e+01 -3.450830698013305664e+00 1.299554388970136642e-02
-1.012816143035888672e+01 -3.404321670532226562e+00 1.305418740957975388e-02
-1.016025733947753906e+01 -3.345865726470947266e+00 1.306884828954935074e-02
-1.004925823211669922e+01 -3.241101503372192383e+00 1.290025003254413605e-02
-1.032547092437744141e+01 -3.260376691818237305e+00 1.322889421135187149e-02
-1.036343479156494141e+01 -3.202569246292114258e+00 1.325210742652416229e-02
-1.035608863830566406e+01 -3.130817413330078125e+00 1.321789901703596115e-02
-1.039907932281494141e+01 -3.074302434921264648e+00 1.324844267219305038e-02
-1.044368457794189453e+01 -3.017932415008544922e+00 1.328142918646335602e-02
-9.997178077697753906e+00 -2.822556972503662109e+00 1.269133388996124268e-02
-8.926886558532714844e+00 -2.461336374282836914e+00 1.131322141736745834e-02
-1.037483024597167969e+01 -2.792181968688964844e+00 1.312626991420984268e-02
-1.013061904907226562e+01 -2.659903526306152344e+00 1.279640290886163712e-02
-9.214805603027343750e+00 -2.359103918075561523e+00 1.162109710276126862e-02
-1.000434494018554688e+01 -2.495928287506103516e+00 1.259726099669933319e-02
-1.098828220367431641e+01 -2.669893980026245117e+00 1.381532568484544754e-02
-1.078355121612548828e+01 -2.550179243087768555e+00 1.353799272328615189e-02
-1.122779846191406250e+01 -2.582597017288208008e+00 1.407555397599935532e-02
-1.119073486328125000e+01 -2.501874208450317383e+00 1.400958094745874405e-02
-1.118144416809082031e+01 -2.427857160568237305e+00 1.397903729230165482e-02
-1.074210166931152344e+01 -2.263532161712646484e+00 1.341215427964925766e-02
-1.017773056030273438e+01 -2.079471111297607422e+00 1.269133388996124268e-02
-1.163820648193359375e+01 -2.303569555282592773e+00 1.449460722506046295e-02
-1.148712253570556641e+01 -2.200507640838623047e+00 1.428935583680868149e-02
-1.122509098052978516e+01 -2.078991174697875977e+00 1.394727174192667007e-02
-1.121696376800537109e+01 -2.006378650665283203e+00 1.392161566764116287e-02
-1.185678768157958984e+01 -2.045825242996215820e+00 1.469985768198966980e-02
-1.183360481262207031e+01 -1.967131376266479492e+00 1.465587504208087921e-02
-8.227992057800292969e+00 -4.134377837181091309e-01 2.445092052221298218e-01
-1.188396358489990234e+01 -1.900643944740295410e+00 1.470352336764335632e-02
-8.267321586608886719e+00 -3.645732998847961426e-01 2.456068396568298340e-01
-1.072513484954833984e+01 -1.647881984710693359e+00 1.325699500739574432e-02
-1.132170677185058594e+01 -1.668500304222106934e+00 1.398148015141487122e-02
-1.195357131958007812e+01 -1.686746835708618164e+00 1.474872697144746780e-02
-1.096473884582519531e+01 -1.478654503822326660e+00 1.351722236722707748e-02
-1.170160865783691406e+01 -1.504979014396667480e+00 1.441397331655025482e-02
-8.285131454467773438e+00 -4.106009900569915771e-01 1.679680794477462769e-01
-1.194586753845214844e+01 -1.461940407752990723e+00 1.470352336764335632e-02
-8.282501220703125000e+00 -3.595398664474487305e-01 1.678668856620788574e-01
-1.161390399932861328e+01 -1.349038600921630859e+00 1.428446918725967407e-02
-1.253247642517089844e+01 -1.377856016159057617e+00 1.540357526391744614e-02
-1.265309143066406250e+01 -1.312591910362243652e+00 1.554163079708814621e-02
-1.237526321411132812e+01 -1.207067966461181641e+00 1.519099436700344086e-02
-1.296799755096435547e+01 -1.184601902961730957e+00 1.590937003493309021e-02
-8.321597099304199219e+00 -4.066755473613739014e-01 8.870504051446914673e-02
-1.234131622314453125e+01 -1.051040410995483398e+00 1.513235084712505341e-02
-8.281975746154785156e+00 -3.538149297237396240e-01 8.825788646936416626e-02
-1.274429702758789062e+01 -1.006634831428527832e+00 1.561859901994466782e-02
-1.152148818969726562e+01 -8.389463424682617188e-01 1.411342807114124298e-02
-1.256012439727783203e+01 -8.371324539184570312e-01 1.537914015352725983e-02
-1.257400798797607422e+01 -7.605926394462585449e-01 1.539013534784317017e-02
-8.265803337097167969e+00 -4.491067826747894287e-01 1.011348329484462738e-02
-8.256417274475097656e+00 -3.978027999401092529e-01 1.009882241487503052e-02
-8.265696525573730469e+00 -3.474288582801818848e-01 1.010737475007772446e-02
-8.256678581237792969e+00 -2.963104546070098877e-01 1.009393483400344849e-02
-1.329311180114746094e+01 -3.954011499881744385e-01 1.624779030680656433e-02
-1.342924976348876953e+01 -3.169908225536346436e-01 1.641150191426277161e-02
-1.401885223388671875e+01 -2.448529452085494995e-01 1.712987944483757019e-02
-1.324314117431640625e+01 -1.500283926725387573e-01 1.618059538304805756e-02
-1.375980472564697266e+01 -7.144642621278762817e-02 1.681100763380527496e-02
-1.377098464965820312e+01 1.299387309700250626e-02 1.682444661855697632e-02
-1.415863513946533203e+01 1.002376154065132141e-01 1.729847863316535950e-02
-1.414075469970703125e+01 1.868868172168731689e-01 1.727770827710628510e-02
-1.381240367889404297e+01 2.673218548297882080e-01 1.687820255756378174e-02
-1.351160049438476562e+01 3.444482982158660889e-01 1.651290617883205414e-02
-1.351922798156738281e+01 4.276636242866516113e-01 1.652512326836585999e-02
-1.482941246032714844e+01 5.602116584777832031e-01 1.813047751784324646e-02
-1.369878292083740234e+01 6.016950011253356934e-01 1.675236597657203674e-02
-1.441393184661865234e+01 7.217450737953186035e-01 1.763201132416725159e-02
-1.487549495697021484e+01 8.363898396492004395e-01 1.820256002247333527e-02
-1.308655071258544922e+01 8.163853287696838379e-01 1.601932570338249207e-02
-1.401410579681396484e+01 9.606077671051025391e-01 1.716164499521255493e-02
-1.402190876007080078e+01 1.047621726989746094e+00 1.717874966561794281e-02
-1.271971035003662109e+01 2.121133089065551758e+00 2.611127495765686035e-01
-1.436964797973632812e+01 1.339988470077514648e+00 1.763201132416725159e-02
-1.468626213073730469e+01 1.551525354385375977e+00 1.804251223802566528e-02
-1.270731449127197266e+01 2.128042697906494141e+00 1.371776759624481201e-01
-1.407260799407958984e+01 1.836923122406005859e+00 1.733879558742046356e-02
-1.460797882080078125e+01 1.998041033744812012e+00 1.801319047808647156e-02
-1.499933338165283203e+01 2.145406007766723633e+00 1.851165667176246643e-02
-1.270363807678222656e+01 2.056331634521484375e+00 1.572244614362716675e-02
-1.268387889862060547e+01 2.133080005645751953e+00 1.571389473974704742e-02
-1.266759586334228516e+01 2.210350990295410156e+00 1.571022905409336090e-02
-1.491330432891845703e+01 2.886023998260498047e+00 1.855808123946189880e-02
-1.494630622863769531e+01 2.987668752670288086e+00 1.862161234021186829e-02
-1.424334812164306641e+01 5.409473896026611328e+00 1.861428283154964447e-02
-1.375824546813964844e+01 5.813302040100097656e+00 1.824776269495487213e-02
-5.605772495269775391e+00 3.258750200271606445e+00 1.924449354410171509e-01
-8.183633804321289062e+00 4.499629974365234375e+00 1.891032904386520386e-01
-5.571009159088134766e+00 3.198056697845458984e+00 1.300705075263977051e-01
-5.585841655731201172e+00 3.252302169799804688e+00 1.308802813291549683e-01
-5.564059257507324219e+00 3.285498380661010742e+00 1.308397948741912842e-01
-8.171456336975097656e+00 4.435122966766357422e+00 9.898936748504638672e-02
-8.143213272094726562e+00 4.484696388244628906e+00 9.897872805595397949e-02
-5.543835163116455078e+00 3.232947587966918945e+00 6.832800060510635376e-02
-8.167984962463378906e+00 4.440508365631103516e+00 1.135842688381671906e-02
-8.160723686218261719e+00 4.501651763916015625e+00 1.138652581721544266e-02
-8.138183593750000000e+00 4.554570674896240234e+00 1.139385625720024109e-02
-5.608185291290283203e+00 3.183991432189941406e+00 7.878938689827919006e-03
-5.567745208740234375e+00 3.206365346908569336e+00 7.849616929888725281e-03
-5.555738449096679688e+00 3.245007514953613281e+00 7.860612124204635620e-03
-5.525397777557373047e+00 3.272919893264770508e+00 7.845951244235038757e-03
-1.007021522521972656e+01 6.742455959320068359e+00 1.480614859610795975e-02
-1.001293182373046875e+01 6.793451309204101562e+00 1.478293538093566895e-02
-2.651146173477172852e+00 2.338970661163330078e+00 1.049295142292976379e-01
-2.614380359649658203e+00 2.335217714309692383e+00 1.040395274758338928e-01
-2.604450941085815430e+00 2.355237722396850586e+00 1.042175218462944031e-01
-2.578891515731811523e+00 2.361049413681030273e+00 1.037725284695625305e-01
-2.622438669204711914e+00 2.316850423812866211e+00 7.085552811622619629e-02
-2.591779232025146484e+00 2.318233966827392578e+00 7.041015475988388062e-02
