-4.332063674926757812e+00 -5.829607486724853516e+00 8.873427286744117737e-03
-2.503307819366455078e+00 -2.870796442031860352e+00 2.149534374475479126e-01
-2.480171680450439453e+00 -2.842260599136352539e+00 7.638226449489593506e-02
-4.335277557373046875e+00 -5.759771823883056641e+00 8.807453326880931854e-03
-2.508320569992065430e+00 -2.841161727905273438e+00 2.138828933238983154e-01
-2.484987497329711914e+00 -2.812752723693847656e+00 7.599762082099914551e-02
-4.339012145996093750e+00 -5.691709518432617188e+00 8.743923157453536987e-03
-2.498426675796508789e+00 -2.795197248458862305e+00 2.115727812051773071e-01
-2.502866029739379883e+00 -2.798197507858276367e+00 7.601786404848098755e-02
-4.296240329742431641e+00 -5.564454078674316406e+00 8.588762953877449036e-03
-2.522001743316650391e+00 -2.785010814666748047e+00 7.607859373092651367e-02
-4.464584827423095703e+00 -5.709720611572265625e+00 8.855100721120834351e-03
-4.487119197845458984e+00 -5.666539669036865234e+00 8.830665610730648041e-03
-2.478080511093139648e+00 -2.871295452117919922e+00 4.038144648075103760e-02
-4.392305850982666016e+00 -5.477410316467285156e+00 8.577767759561538696e-03
-2.498117685317993164e+00 -2.861881017684936523e+00 1.784828305244445801e-01
-2.493019819259643555e+00 -2.853024244308471680e+00 4.033886268734931946e-02
-4.460502147674560547e+00 -5.493052482604980469e+00 8.644962683320045471e-03
-2.517615318298339844e+00 -2.848744392395019531e+00 1.786236315965652466e-01
-2.506503343582153320e+00 -2.833180189132690430e+00 4.027498140931129456e-02
-4.559540271759033203e+00 -5.545138359069824219e+00 8.770801126956939697e-03
-2.533715248107910156e+00 -2.831754207611083984e+00 1.785297542810440063e-01
-2.526508808135986328e+00 -2.820726394653320312e+00 4.031756892800331116e-02
-4.614593982696533203e+00 -5.542417526245117188e+00 8.811118081212043762e-03
-2.547799110412597656e+00 -2.809615373611450195e+00 4.038144648075103760e-02
-4.686543464660644531e+00 -5.559107780456542969e+00 8.883200585842132568e-03
-2.474872112274169922e+00 -2.899367570877075195e+00 4.657235927879810333e-03
-2.482153415679931641e+00 -2.872021913528442383e+00 4.637687932699918747e-03
-2.498290061950683594e+00 -2.857105016708374023e+00 1.424849033355712891e-01
-2.498412132263183594e+00 -2.855232477188110352e+00 4.635244607925415039e-03
-2.524385213851928711e+00 -2.851448774337768555e+00 1.429726183414459229e-01
-2.513895034790039062e+00 -2.837603330612182617e+00 4.631579387933015823e-03
-2.518489837646484375e+00 -2.809861183166503906e+00 1.416595727205276489e-01
-2.521243572235107422e+00 -2.810958623886108398e+00 4.613253287971019745e-03
-2.531721115112304688e+00 -2.788032531738281250e+00 4.601036198437213898e-03
-2.556225061416625977e+00 -2.780543565750122070e+00 4.614475183188915253e-03
-5.032019138336181641e+00 -5.406634807586669922e+00 9.023698978126049042e-03
-5.023266792297363281e+00 -5.331260681152343750e+00 8.949173614382743835e-03
-4.838464260101318359e+00 -5.072405338287353516e+00 8.564328774809837341e-03
-4.868107318878173828e+00 -5.041182994842529297e+00 8.561885915696620941e-03
-4.946483135223388672e+00 -5.059842586517333984e+00 8.644962683320045471e-03
-4.956334114074707031e+00 -5.008073329925537109e+00 8.608311414718627930e-03
-5.093135833740234375e+00 -5.083533763885498047e+00 8.791571483016014099e-03
-4.748958110809326172e+00 -4.682188987731933594e+00 8.147718384861946106e-03
-4.758255481719970703e+00 -4.634124279022216797e+00 8.114731870591640472e-03
-5.175034046173095703e+00 -4.978524684906005859e+00 8.773244917392730713e-03
-5.214183330535888672e+00 -4.954944133758544922e+00 8.787905797362327576e-03
-5.194179534912109375e+00 -4.875633716583251953e+00 8.703606203198432922e-03
-5.224648952484130859e+00 -3.883926391601562500e+00 1.932162642478942871e-01
-5.212265491485595703e+00 -4.832792282104492188e+00 8.684058673679828644e-03
-5.237100124359130859e+00 -3.843515396118164062e+00 1.928009241819381714e-01
-5.235920906066894531e+00 -4.795316696166992188e+00 8.674284443259239197e-03
-5.080591678619384766e+00 -4.596055507659912109e+00 8.370073512196540833e-03
-4.829064369201660156e+00 -4.314933776855468750e+00 7.911925204098224640e-03
-5.330047607421875000e+00 -4.704083442687988281e+00 8.685279637575149536e-03
-5.219817161560058594e+00 -3.924672603607177734e+00 1.322366744279861450e-01
-5.428915023803710938e+00 -4.732399940490722656e+00 8.798900991678237915e-03
-5.237377643585205078e+00 -3.887802839279174805e+00 1.320746988058090210e-01
-5.357817649841308594e+00 -4.612875461578369141e+00 8.637632243335247040e-03
-5.257102012634277344e+00 -3.852639198303222656e+00 1.319734901189804077e-01
-5.378402709960937500e+00 -4.573435783386230469e+00 8.625415153801441193e-03
-5.395642757415771484e+00 -4.531344890594482422e+00 8.608311414718627930e-03
-5.461060523986816406e+00 -4.529433727264404297e+00 8.668175898492336273e-03
-5.508863449096679688e+00 -4.512315273284912109e+00 8.699940517544746399e-03
-5.199297904968261719e+00 -3.903654575347900391e+00 6.922229379415512085e-02
-5.541889190673828125e+00 -4.482831001281738281e+00 8.708492852747440338e-03
-5.211102485656738281e+00 -3.862746953964233398e+00 6.906259804964065552e-02
-5.575541496276855469e+00 -4.453735351562500000e+00 8.718267083168029785e-03
-5.220987796783447266e+00 -3.820660591125488281e+00 6.888160854578018188e-02
-5.587846755981445312e+00 -4.407673358917236328e+00 8.695053867995738983e-03
-5.230552673339843750e+00 -3.778598785400390625e+00 6.870061904191970825e-02
-5.625042438507080078e+00 -4.381292343139648438e+00 8.710936643183231354e-03
-5.343466758728027344e+00 -4.109547615051269531e+00 8.235683664679527283e-03
-5.276995182037353516e+00 -4.007135868072509766e+00 8.095184341073036194e-03
-9.989104270935058594e+00 -6.940023422241210938e+00 1.295016855001449585e-01
-5.198269844055175781e+00 -3.897299289703369141e+00 7.937581278383731842e-03
-5.245972156524658203e+00 -3.885846138000488281e+00 2.450905591249465942e-01
-5.218066215515136719e+00 -3.862355232238769531e+00 7.931472733616828918e-03
-5.249550819396972656e+00 -3.838837623596191406e+00 2.441526651382446289e-01
-1.018697261810302734e+01 -6.893696308135986328e+00 1.309602260589599609e-01
-5.250548362731933594e+00 -3.836755037307739258e+00 7.944911718368530273e-03
-5.308053970336914062e+00 -3.829037427902221680e+00 7.996223866939544678e-03
-1.012217903137207031e+01 -6.670229434967041016e+00 1.290651857852935791e-01
-5.380323886871337891e+00 -3.831198692321777344e+00 8.069528266787528992e-03
-5.793976783752441406e+00 -4.072405338287353516e+00 8.652293123304843903e-03
-5.828715324401855469e+00 -4.043617725372314453e+00 8.666954003274440765e-03
-1.056685543060302734e+01 -6.687592983245849609e+00 1.331427246332168579e-01
-5.850115776062011719e+00 -4.005517482757568359e+00 8.662067353725433350e-03
-5.808297634124755859e+00 -3.924756050109863281e+00 8.564328774809837341e-03
-1.111386489868164062e+01 -6.844232559204101562e+00 1.389662474393844604e-01
-5.780686378479003906e+00 -3.854646682739257812e+00 8.488581515848636627e-03
-1.051466941833496094e+01 -6.386579513549804688e+00 1.309815198183059692e-01
-5.883590698242187500e+00 -3.871322870254516602e+00 8.604645729064941406e-03
-1.100057792663574219e+01 -6.589660644531250000e+00 1.365282535552978516e-01
-5.849360942840576172e+00 -3.797576189041137695e+00 8.520347066223621368e-03
-1.064993476867675781e+01 -6.291142940521240234e+00 1.316948235034942627e-01
-5.880972862243652344e+00 -3.767007350921630859e+00 8.532564155757427216e-03
-1.039282989501953125e+01 -6.053553104400634766e+00 1.280537992715835571e-01
-5.893831729888916016e+00 -3.724441051483154297e+00 8.517903275787830353e-03
-1.040636539459228516e+01 -5.976223945617675781e+00 1.277663409709930420e-01
-5.942032337188720703e+00 -3.704077243804931641e+00 8.554555475711822510e-03
-1.470087337493896484e+01 -6.973119735717773438e+00 4.829071164131164551e-01
-1.158188343048095703e+01 -6.557134628295898438e+00 1.417023539543151855e-01
-6.031092643737792969e+00 -3.708403348922729492e+00 8.649850264191627502e-03
-8.415992736816406250e+00 -3.928913354873657227e+00 2.756587564945220947e-01
-1.133986473083496094e+01 -6.328548431396484375e+00 1.382635980844497681e-01
-6.036632537841796875e+00 -3.660956382751464844e+00 8.625415153801441193e-03
-8.429949760437011719e+00 -3.872609615325927734e+00 2.753324210643768311e-01
-1.138899612426757812e+01 -6.264632701873779297e+00 1.383913606405258179e-01
-6.062414646148681641e+00 -3.625900506973266602e+00 8.630301803350448608e-03
-1.490871143341064453e+01 -6.738394737243652344e+00 4.855770766735076904e-01
-1.146853828430175781e+01 -6.217030525207519531e+00 1.388917267322540283e-01
-6.116418361663818359e+00 -3.607430696487426758e+00 8.675506338477134705e-03
-1.499818611145019531e+01 -6.668313026428222656e+00 4.871494472026824951e-01
-1.207800006866455078e+01 -6.451845169067382812e+00 1.457905322313308716e-01
-6.114233493804931641e+00 -3.555757045745849609e+00 8.641297928988933563e-03
-1.180588817596435547e+01 -6.213680267333984375e+00 1.420430392026901245e-01
-6.143743515014648438e+00 -3.522650241851806641e+00 8.652293123304843903e-03
-1.473595905303955078e+01 -6.983659267425537109e+00 9.202711582183837891e-01
-1.257615089416503906e+01 -6.520858764648437500e+00 1.508262455463409424e-01
-6.202676773071289062e+00 -3.506046056747436523e+00 8.704828098416328430e-03
-1.481472682952880859e+01 -6.909991264343261719e+00 9.225249290466308594e-01
-8.418859481811523438e+00 -3.923207283020019531e+00 1.880708336830139160e-01
-1.187679767608642578e+01 -6.066061973571777344e+00 1.419898122549057007e-01
-6.230187416076660156e+00 -3.471328258514404297e+00 8.713380433619022369e-03
-1.488679027557373047e+01 -6.832703113555908203e+00 9.243842363357543945e-01
-8.430048942565917969e+00 -3.865641593933105469e+00 1.877873837947845459e-01
-1.244976806640625000e+01 -6.262686729431152344e+00 1.483775824308395386e-01
-6.260134696960449219e+00 -3.437848806381225586e+00 8.725597523152828217e-03
-1.495846366882324219e+01 -6.754790782928466797e+00 9.262436628341674805e-01
-1.232488346099853516e+01 -6.105395317077636719e+00 1.464399695396423340e-01
-6.238017559051513672e+00 -3.376050233840942383e+00 8.665733039379119873e-03
-1.102389526367187500e+01 -5.376936435699462891e+00 1.305876076221466064e-01
-6.238320827484130859e+00 -3.326887607574462891e+00 8.637632243335247040e-03
-1.183549785614013672e+01 -5.683166027069091797e+00 1.397860199213027954e-01
-6.250649929046630859e+00 -3.284361362457275391e+00 8.626637049019336700e-03
-1.471873378753662109e+01 -6.966256618499755859e+00 7.650872468948364258e-01
-8.393178939819335938e+00 -3.967045307159423828e+00 9.884031862020492554e-02
-6.422544956207275391e+00 -3.324554920196533203e+00 8.835553191602230072e-03
-1.488887405395507812e+01 -6.935284137725830078e+00 7.717047333717346191e-01
-8.408294677734375000e+00 -3.911253452301025391e+00 9.873385727405548096e-02
-6.246830463409423828e+00 -3.185151100158691406e+00 8.566772565245628357e-03
-1.486486053466796875e+01 -6.813413619995117188e+00 7.682787179946899414e-01
-8.413951873779296875e+00 -3.851264238357543945e+00 9.852093458175659180e-02
-6.054461956024169922e+00 -3.040403127670288086e+00 8.277221582829952240e-03
-1.491731357574462891e+01 -6.727003574371337891e+00 7.688418626785278320e-01
-1.143529033660888672e+01 -5.149571895599365234e+00 1.335259974002838135e-01
-6.076589107513427734e+00 -3.004969596862792969e+00 8.282109163701534271e-03
-1.329793834686279297e+01 -5.890492439270019531e+00 1.548505574464797974e-01
-6.316987514495849609e+00 -3.075756549835205078e+00 8.583877235651016235e-03
-1.276820945739746094e+01 -5.562377929687500000e+00 1.482817679643630981e-01
-6.332133769989013672e+00 -3.035209178924560547e+00 8.578989654779434204e-03
-1.475680351257324219e+01 -6.968715667724609375e+00 6.126701235771179199e-01
-9.961885452270507812e+00 -4.267290115356445312e+00 1.153846830129623413e-01
-6.534229755401611328e+00 -3.082919359207153320e+00 8.827000856399536133e-03
-8.423203468322753906e+00 -3.914724349975585938e+00 3.487091064453125000e-01
-1.262631225585937500e+01 -5.317177295684814453e+00 1.458650529384613037e-01
-6.488626956939697266e+00 -3.012866735458374023e+00 8.740258403122425079e-03
-1.485302162170410156e+01 -6.792504310607910156e+00 6.131578087806701660e-01
-1.339414501190185547e+01 -5.544014453887939453e+00 1.543395221233367920e-01
-6.585213184356689453e+00 -3.008735656738281250e+00 8.845326490700244904e-03
-1.495092105865478516e+01 -6.726661205291748047e+00 6.154837608337402344e-01
-1.352701950073242188e+01 -5.502037048339843750e+00 1.554786860942840576e-01
-6.495011806488037109e+00 -2.919484853744506836e+00 8.699940517544746399e-03
-1.115651226043701172e+01 -4.458263397216796875e+00 1.279153823852539062e-01
-6.525607109069824219e+00 -2.885238647460937500e+00 8.717045187950134277e-03
-1.348275279998779297e+01 -5.292148113250732422e+00 1.542117744684219360e-01
-6.552358627319335938e+00 -2.849131584167480469e+00 8.729262277483940125e-03
-1.181405353546142578e+01 -4.553704738616943359e+00 1.348035484552383423e-01
-6.595462799072265625e+00 -2.819880962371826172e+00 8.763470686972141266e-03
-1.326050281524658203e+01 -5.018001079559326172e+00 1.509539932012557983e-01
-6.586828708648681641e+00 -2.768509626388549805e+00 8.729262277483940125e-03
-1.128412246704101562e+01 -4.191133975982666016e+00 1.281602531671524048e-01
-6.601842880249023438e+00 -2.727277755737304688e+00 8.726818487048149109e-03
-1.161650753021240234e+01 -3.305624485015869141e+00 3.584572374820709229e-01
-1.321867847442626953e+01 -4.817574977874755859e+00 1.497935503721237183e-01
-6.623085975646972656e+00 -2.688598871231079102e+00 8.732927963137626648e-03
-1.162020111083984375e+01 -3.229734420776367188e+00 3.579529225826263428e-01
-1.331672477722167969e+01 -4.760949611663818359e+00 1.505707353353500366e-01
-6.647818088531494141e+00 -2.651243925094604492e+00 8.743923157453536987e-03
-1.270685195922851562e+01 -4.455167770385742188e+00 1.433631777763366699e-01
-6.823180675506591797e+00 -2.672773361206054688e+00 8.952839300036430359e-03
-1.148381805419921875e+01 -3.947401046752929688e+00 1.292887628078460693e-01
-6.758252143859863281e+00 -2.599622249603271484e+00 8.846548385918140411e-03
-1.183664321899414062e+01 -3.987639665603637695e+00 1.329830288887023926e-01
-6.952759265899658203e+00 -2.625582218170166016e+00 9.079898707568645477e-03
-1.445032405853271484e+01 -4.769634246826171875e+00 1.620155125856399536e-01
-1.164170932769775391e+01 -3.304149389266967773e+00 2.450386732816696167e-01
-1.313109970092773438e+01 -4.245026111602783203e+00 1.469296962022781372e-01
-6.888598442077636719e+00 -2.505202531814575195e+00 8.955283090472221375e-03
-1.166561794281005859e+01 -3.233723163604736328e+00 2.451196461915969849e-01
-1.271169471740722656e+01 -4.023460865020751953e+00 1.419578641653060913e-01
-6.899130821228027344e+00 -2.461207628250122070e+00 8.949173614382743835e-03
-1.311629772186279297e+01 -4.063151359558105469e+00 1.461950987577438354e-01
-6.844253540039062500e+00 -2.394393205642700195e+00 8.858766406774520874e-03
-1.336778163909912109e+01 -4.051330566406250000e+00 1.487182825803756714e-01
-6.822871685028076172e+00 -2.340024709701538086e+00 8.812339976429939270e-03
-1.348634338378906250e+01 -3.997077226638793945e+00 1.497616022825241089e-01
-6.835206031799316406e+00 -2.297479152679443359e+00 8.809897117316722870e-03
-1.358360862731933594e+01 -3.935398817062377930e+00 1.505707353353500366e-01
-6.890966415405273438e+00 -2.269258260726928711e+00 8.863652125000953674e-03
-1.163415813446044922e+01 -3.293368577957153320e+00 1.287351548671722412e-01
-6.885725975036621094e+00 -2.220794439315795898e+00 8.839217945933341980e-03
-1.163776206970214844e+01 -3.217391014099121094e+00 1.285541653633117676e-01
-6.955484867095947266e+00 -2.196267843246459961e+00 8.911300450563430786e-03
-1.389799308776855469e+01 -3.750617027282714844e+00 1.532642543315887451e-01
-6.959275722503662109e+00 -2.150595903396606445e+00 8.899083361029624939e-03
-1.372734832763671875e+01 -3.614349365234375000e+00 1.511349827051162720e-01
-6.954153537750244141e+00 -2.102355957031250000e+00 8.875870145857334137e-03
-1.425580787658691406e+01 -3.660103797912597656e+00 1.567030102014541626e-01
-6.948701858520507812e+00 -2.054260015487670898e+00 8.852656930685043335e-03
-1.379200839996337891e+01 -3.450961112976074219e+00 1.513691991567611694e-01
-7.052441596984863281e+00 -2.037958145141601562e+00 8.968722075223922729e-03
-1.379737949371337891e+01 -3.362481832504272461e+00 1.511988639831542969e-01
-7.034979820251464844e+00 -1.986223578453063965e+00 8.930847980082035065e-03
-1.454843235015869141e+01 -3.451086997985839844e+00 1.591942459344863892e-01
-6.994977474212646484e+00 -1.928667068481445312e+00 8.864874951541423798e-03
-1.457810306549072266e+01 -3.363777875900268555e+00 1.592900604009628296e-01
-7.062686443328857422e+00 -1.900783538818359375e+00 8.935734629631042480e-03
-1.337298488616943359e+01 -2.999403476715087891e+00 1.459182947874069214e-01
-7.171905517578125000e+00 -1.883061170578002930e+00 9.059130214154720306e-03
-1.384545516967773438e+01 -3.016266107559204102e+00 1.508688330650329590e-01
-7.124230861663818359e+00 -1.823891043663024902e+00 8.984603919088840485e-03
-1.409849739074707031e+01 -2.980898857116699219e+00 1.534239351749420166e-01
-6.833537101745605469e+00 -1.704861044883728027e+00 8.604645729064941406e-03
-1.372077846527099609e+01 -2.813195943832397461e+00 1.491228342056274414e-01
-7.162595272064208984e+00 -1.740342140197753906e+00 9.005373343825340271e-03
-1.446355819702148438e+01 -2.873126506805419922e+00 1.570011079311370850e-01
-7.195521831512451172e+00 -1.701653838157653809e+00 9.033473208546638489e-03
-1.375721263885498047e+01 -2.645175457000732422e+00 1.491547673940658569e-01
-7.232140541076660156e+00 -1.663523316383361816e+00 9.066460654139518738e-03
-7.165114879608154297e+00 -1.601880192756652832e+00 8.969943970441818237e-03
-7.208034515380859375e+00 -1.565100073814392090e+00 9.011481888592243195e-03
-7.299697399139404297e+00 -1.538162708282470703e+00 9.114108048379421234e-03
-1.498477172851562500e+01 -2.501542091369628906e+00 1.617493480443954468e-01
-7.356026172637939453e+00 -1.502952337265014648e+00 9.172750636935234070e-03
-1.496725845336914062e+01 -2.404316425323486328e+00 1.613980233669281006e-01
-7.320965766906738281e+00 -1.449050903320312500e+00 9.117772802710533142e-03
-7.464272499084472656e+00 -1.429878473281860352e+00 9.285150095820426941e-03
-1.474636840820312500e+01 -2.183553934097290039e+00 1.587151587009429932e-01
-7.370645046234130859e+00 -1.365111947059631348e+00 9.158089756965637207e-03
-7.548194885253906250e+00 -1.350145697593688965e+00 9.368226863443851471e-03
-7.461735248565673828e+00 -1.287482500076293945e+00 9.250941686332225800e-03
-7.466535091400146484e+00 -1.241181850433349609e+00 9.247276000678539276e-03
-7.509558677673339844e+00 -1.201030135154724121e+00 9.291258640587329865e-03
-1.412806320190429688e+01 -1.650917172431945801e+00 1.514437198638916016e-01
-7.630452632904052734e+00 -1.172394156455993652e+00 9.431757032871246338e-03
-1.420551109313964844e+01 -1.571675300598144531e+00 1.521676778793334961e-01
-7.635524272918701172e+00 -1.125260829925537109e+00 9.429314173758029938e-03
-7.401668548583984375e+00 -1.044436097145080566e+00 9.132433682680130005e-03
-7.317754268646240234e+00 -9.868388772010803223e-01 9.021256119012832642e-03
-1.484839344024658203e+01 -1.366662502288818359e+00 1.587577462196350098e-01
-7.454593181610107422e+00 -9.587576389312744141e-01 9.182523936033248901e-03
-7.732306480407714844e+00 -9.462829828262329102e-01 9.517278522253036499e-03
-7.726047515869140625e+00 -8.974360227584838867e-01 9.502617642283439636e-03
-7.624055385589599609e+00 -8.382102847099304199e-01 9.370670653879642487e-03
-7.812073230743408203e+00 -8.103998899459838867e-01 9.595469571650028229e-03
-7.681540966033935547e+00 -7.492480278015136719e-01 9.429314173758029938e-03
-7.777611732482910156e+00 -7.104700803756713867e-01 9.541712701320648193e-03
-7.806735038757324219e+00 -6.648555994033813477e-01 9.572256356477737427e-03
-8.608445167541503906e+00 2.545528411865234375e-01 2.556043565273284912e-01
-7.582378387451171875e+00 -5.989099740982055664e-01 9.292480535805225372e-03
-8.601726531982421875e+00 3.071900904178619385e-01 2.554560303688049316e-01
-7.724543571472167969e+00 -5.624687671661376953e-01 9.462300688028335571e-03
-8.067095756530761719e+00 -5.376720428466796875e-01 9.877688251435756683e-03
-8.038302421569824219e+00 -4.862310886383056641e-01 9.838593192398548126e-03
-7.971237182617187500e+00 -4.331021010875701904e-01 9.753072634339332581e-03
-7.957763195037841797e+00 -3.834133744239807129e-01 9.733525104820728302e-03
-8.604298591613769531e+00 2.603485584259033203e-01 1.743046045303344727e-01
-7.932990074157714844e+00 -3.334443569183349609e-01 9.700538590550422668e-03
-5.618715286254882812e+00 4.081453680992126465e-01 1.671989560127258301e-01
-8.576560974121093750e+00 3.121930360794067383e-01 1.737782508134841919e-01
-7.600102424621582031e+00 -2.727476358413696289e-01 9.291258640587329865e-03
-5.605144023895263672e+00 4.417496323585510254e-01 1.668726354837417603e-01
-7.084861755371093750e+00 -2.107378989458084106e-01 8.659623563289642334e-03
-8.059749603271484375e+00 -1.902464032173156738e-01 9.849589318037033081e-03
-7.984776973724365234e+00 -1.394619196653366089e-01 9.756737388670444489e-03
-8.664843559265136719e+00 2.149325162172317505e-01 9.228219091892242432e-02
-7.972483158111572266e+00 -9.031836688518524170e-02 9.740855544805526733e-03
-8.626381874084472656e+00 2.669505774974822998e-01 9.188828617334365845e-02
-7.970886707305908203e+00 -4.138804227113723755e-02 9.738411754369735718e-03
-5.630723953247070312e+00 4.129078686237335205e-01 1.143203377723693848e-01
-8.631576538085937500e+00 3.201354742050170898e-01 9.196280688047409058e-02
-7.975990772247314453e+00 7.525897119194269180e-03 9.744520299136638641e-03
-5.759642124176025391e+00 4.579088091850280762e-01 1.169926002621650696e-01
-8.623455047607421875e+00 3.728326261043548584e-01 9.189892560243606567e-02
-7.986794471740722656e+00 5.654339119791984558e-02 9.757959283888339996e-03
-7.948300361633300781e+00 1.050462052226066589e-01 9.711533784866333008e-03
-8.201457977294921875e+00 1.587290018796920776e-01 1.002185232937335968e-02
-5.618998050689697266e+00 3.466565907001495361e-01 5.993871018290519714e-02
-8.210327148437500000e+00 2.093040645122528076e-01 1.003407035022974014e-02
-5.619758129119873047e+00 3.813306987285614014e-01 5.997065454721450806e-02
-8.320832252502441406e+00 2.632189691066741943e-01 1.017090491950511932e-02
-5.615642070770263672e+00 4.127257168292999268e-01 2.645563185214996338e-01
-5.631273746490478516e+00 4.168391227722167969e-01 6.011969968676567078e-02
-8.187154769897460938e+00 3.092866539955139160e-01 1.000963617116212845e-02
-5.609671592712402344e+00 4.498654007911682129e-01 5.991742014884948730e-02
-8.369923591613769531e+00 3.676342070102691650e-01 1.023565605282783508e-02
-5.607801914215087891e+00 4.843632578849792480e-01 5.992806702852249146e-02
-8.340544700622558594e+00 4.176339507102966309e-01 1.020266953855752945e-02
-8.322849273681640625e+00 4.679606258869171143e-01 1.018434297293424606e-02
-5.667977809906005859e+00 3.535885214805603027e-01 6.938206031918525696e-03
-5.598045349121093750e+00 3.817591667175292969e-01 2.106510698795318604e-01
-5.632778644561767578e+00 3.861031830310821533e-01 6.897889077663421631e-03
-5.650407314300537109e+00 4.201767146587371826e-01 2.127144336700439453e-01
-5.600387096405029297e+00 4.184228181838989258e-01 6.861236877739429474e-03
-5.627801418304443359e+00 4.532346725463867188e-01 2.119641155004501343e-01
-5.581766128540039062e+00 4.514883160591125488e-01 6.841689348220825195e-03
-5.568928241729736328e+00 4.848615229129791260e-01 6.829471793025732040e-03
-8.421457290649414062e+00 7.853119373321533203e-01 1.033339370042085648e-02
-8.724959373474121094e+00 8.676466941833496094e-01 1.071213092654943466e-02
-9.101345062255859375e+00 9.615086913108825684e-01 1.118127536028623581e-02
-8.667939186096191406e+00 9.695366024971008301e-01 1.065593026578426361e-02
-8.650903701782226562e+00 1.021414041519165039e+00 1.064249221235513687e-02
-8.657373428344726562e+00 1.076079249382019043e+00 1.065837405622005463e-02
-8.535584449768066406e+00 1.114165425300598145e+00 1.051665470004081726e-02
-8.894182205200195312e+00 1.216522932052612305e+00 1.096747163683176041e-02
-9.006331443786621094e+00 1.288206458091735840e+00 1.111530140042304993e-02
-8.855836868286132812e+00 1.322180390357971191e+00 1.093937270343303680e-02
-3.066632270812988281e+00 8.247499465942382812e-01 9.424965828657150269e-02
-8.967119216918945312e+00 1.395095229148864746e+00 1.108720246702432632e-02
-3.154988050460815430e+00 8.693062067031860352e-01 9.712728857994079590e-02
-8.981094360351562500e+00 1.453765273094177246e+00 1.111530140042304993e-02
-3.087064504623413086e+00 8.710057735443115234e-01 9.519898146390914917e-02
-8.840847015380859375e+00 1.486787676811218262e+00 1.095281075686216354e-02
-3.047090530395507812e+00 8.799476027488708496e-01 9.413099288940429688e-02
-9.145809173583984375e+00 1.595839500427246094e+00 1.134254317730665207e-02
-9.014807701110839844e+00 1.630041360855102539e+00 1.119227055460214615e-02
-3.133496999740600586e+00 8.232815861701965332e-01 1.828371882438659668e-01
-8.974165916442871094e+00 1.679621458053588867e+00 1.115439645946025848e-02
-3.146703720092773438e+00 8.474257588386535645e-01 1.839077323675155640e-01
-9.206192016601562500e+00 1.781583189964294434e+00 1.145616453140974045e-02
-3.126045465469360352e+00 8.624690175056457520e-01 1.830062270164489746e-01
-3.118511676788330078e+00 8.615620136260986328e-01 6.551099568605422974e-02
-9.148017883300781250e+00 1.828628897666931152e+00 1.139752101153135300e-02
-3.091870546340942383e+00 8.734906911849975586e-01 1.813158988952636719e-01
-3.087191581726074219e+00 8.733325600624084473e-01 6.496439874172210693e-02
-9.612604141235351562e+00 1.982911705970764160e+00 1.199128199368715286e-02
-3.067369461059570312e+00 8.880880475044250488e-01 6.466073542833328247e-02
-9.106305122375488281e+00 1.936798810958862305e+00 1.137430872768163681e-02
-3.147311210632324219e+00 8.097757697105407715e-01 3.460050001740455627e-02
-9.482049942016601562e+00 2.077608346939086914e+00 1.185933593660593033e-02
-3.171308994293212891e+00 8.349545001983642578e-01 1.540781259536743164e-01
-3.133581399917602539e+00 8.267761468887329102e-01 3.450468555092811584e-02
-9.251587867736816406e+00 2.086685180664062500e+00 1.158688962459564209e-02
-3.162268400192260742e+00 8.533565402030944824e-01 1.538903862237930298e-01
-3.125553607940673828e+00 8.452047705650329590e-01 3.447274491190910339e-02
-9.228868484497070312e+00 2.141152381896972656e+00 1.157467160373926163e-02
-3.161786794662475586e+00 8.740746378898620605e-01 1.541250646114349365e-01
-3.135727167129516602e+00 8.686380386352539062e-01 3.464308753609657288e-02
-9.605617523193359375e+00 2.290761709213256836e+00 1.206458546221256256e-02
-3.150597333908081055e+00 8.918261528015136719e-01 1.538434624671936035e-01
-3.113984346389770508e+00 8.832236528396606445e-01 3.446209803223609924e-02
-9.544759750366210938e+00 2.338236570358276367e+00 1.200594287365674973e-02
-3.095062017440795898e+00 8.984115123748779297e-01 3.431304916739463806e-02
-9.581632614135742188e+00 2.409684419631958008e+00 1.207069400697946548e-02
-3.077988386154174805e+00 9.139699339866638184e-01 3.418529406189918518e-02
-3.142088413238525391e+00 8.107346296310424805e-01 3.964514471590518951e-03
-3.133187770843505859e+00 8.289757966995239258e-01 3.959627822041511536e-03
-3.120321035385131836e+00 8.460913896560668945e-01 3.949853591620922089e-03
-3.136268377304077148e+00 8.711090683937072754e-01 3.976732026785612106e-03
-3.102970123291015625e+00 8.824040889739990234e-01 3.941301722079515457e-03
-3.072533130645751953e+00 8.941618800163269043e-01 3.909536637365818024e-03
-3.068905830383300781e+00 9.135684370994567871e-01 3.911979962140321732e-03
-1.015117549896240234e+01 3.089788198471069336e+00 1.296377927064895630e-02
-1.014157485961914062e+01 3.154987096786499023e+00 1.297599636018276215e-02
-1.069383716583251953e+01 3.398898363113403320e+00 1.370903477072715759e-02
-1.081069660186767578e+01 3.509218692779541016e+00 1.388618536293506622e-02
-1.057633304595947266e+01 3.505020380020141602e+00 1.361251808702945709e-02
-1.026570701599121094e+01 3.472129106521606445e+00 1.323989126831293106e-02
-1.115831279754638672e+01 3.850490331649780273e+00 1.442130375653505325e-02
-1.073735523223876953e+01 3.779113531112670898e+00 1.390695478767156601e-02
-1.072902488708496094e+01 3.850329875946044922e+00 1.392650231719017029e-02
-1.065824127197265625e+01 3.898912429809570312e+00 1.386541686952114105e-02
-1.149897670745849609e+01 4.286643028259277344e+00 1.499307341873645782e-02
-1.028333091735839844e+01 3.905500888824462891e+00 1.343903318047523499e-02
-1.100902652740478516e+01 4.258587837219238281e+00 1.442130375653505325e-02
-1.092779350280761719e+01 4.304434776306152344e+00 1.434922218322753906e-02
-1.042874526977539062e+01 4.181959152221679688e+00 1.372736040502786636e-02
-1.053991603851318359e+01 4.301796436309814453e+00 1.390817761421203613e-02
-9.116963386535644531e+00 3.786452531814575195e+00 1.206092070788145065e-02
-1.174646091461181641e+01 4.963258266448974609e+00 1.557950396090745926e-02
-1.108093547821044922e+01 4.762392520904541016e+00 1.473528891801834106e-02
-1.104325962066650391e+01 4.826689720153808594e+00 1.472429372370243073e-02
-1.151695346832275391e+01 5.118122100830078125e+00 1.539746578782796860e-02
-1.056034469604492188e+01 4.770813941955566406e+00 1.415740977972745895e-02
-1.112521171569824219e+01 5.108426570892333984e+00 1.495642121881246567e-02
-1.105378532409667969e+01 5.157988071441650391e+00 1.490266621112823486e-02
-1.097403812408447266e+01 5.203010082244873047e+00 1.483791321516036987e-02
-1.108515548706054688e+01 5.339244842529296875e+00 1.503216940909624100e-02
-1.103152561187744141e+01 5.397053241729736328e+00 1.500406861305236816e-02
-1.040624713897705078e+01 5.170516967773437500e+00 1.419650577008724213e-02
-1.168227577209472656e+01 5.894186019897460938e+00 1.598634012043476105e-02
-1.076744174957275391e+01 5.515759468078613281e+00 1.478049252182245255e-02
-1.035810661315917969e+01 5.386561393737792969e+00 1.426369976252317429e-02
-1.164874267578125000e+01 6.148832321166992188e+00 1.609263010323047638e-02
-9.117156982421875000e+00 6.240091800689697266e+00 3.279010057449340820e-01
-1.228336048126220703e+01 6.580502033233642578e+00 1.702481135725975037e-02
-4.701594352722167969e+00 3.251973390579223633e+00 1.227635383605957031e+00
-9.075411796569824219e+00 6.293637752532958984e+00 3.277823626995086670e-01
-1.221551609039306641e+01 6.640940666198730469e+00 1.698693633079528809e-02
-4.698366641998291016e+00 3.292544126510620117e+00 1.232044577598571777e+00
-4.666290760040283203e+00 3.271280050277709961e+00 1.006891369819641113e+00
-9.003090858459472656e+00 6.325644493103027344e+00 3.265660405158996582e-01
-1.221481704711914062e+01 6.737987518310546875e+00 1.704313606023788452e-02
-4.670103073120117188e+00 3.315650463104248047e+00 1.229944944381713867e+00
-4.651750564575195312e+00 3.303841829299926758e+00 1.008109211921691895e+00
-4.690156459808349609e+00 3.334815263748168945e+00 5.896329879760742188e-01
-4.724478244781494141e+00 3.361702203750610352e+00 3.820816576480865479e-01
-4.746710300445556641e+00 3.378769636154174805e+00 1.729245483875274658e-01
-1.175612449645996094e+01 6.579367160797119141e+00 1.645915023982524872e-02
-4.650464534759521484e+00 3.344814062118530273e+00 1.230154871940612793e+00
-4.631391048431396484e+00 3.332322120666503906e+00 1.008109211921691895e+00
-4.669626235961914062e+00 3.361069917678833008e+00 8.014280200004577637e-01
-4.663148880004882812e+00 3.358879327774047852e+00 5.888175964355468750e-01
-4.690001487731933594e+00 3.380708456039428711e+00 3.809638619422912598e-01
-4.712916851043701172e+00 3.398476839065551758e+00 1.724498867988586426e-01
-1.093548297882080078e+01 6.208511829376220703e+00 1.536325830966234207e-02
-4.648028850555419922e+00 3.386528253555297852e+00 1.234984040260314941e+00
-4.633139610290527344e+00 3.376918077468872070e+00 1.012981057167053223e+00
-4.608099937438964844e+00 3.359899282455444336e+00 7.943919301033020020e-01
-4.647273063659667969e+00 3.390946865081787109e+00 5.894291996955871582e-01
-4.653052330017089844e+00 3.397653341293334961e+00 3.796488344669342041e-01
-4.695204257965087891e+00 3.429689407348632812e+00 1.725685596466064453e-01
-1.055141925811767578e+01 6.076374530792236328e+00 1.487578731030225754e-02
-4.620868206024169922e+00 3.410339355468750000e+00 1.233304262161254883e+00
-4.593318462371826172e+00 3.391245365142822266e+00 1.008805274963378906e+00
-4.589787483215332031e+00 3.389876127243041992e+00 7.948057651519775391e-01
-4.601579189300537109e+00 3.401068210601806641e+00 5.862694978713989258e-01
-4.629710674285888672e+00 3.424360036849975586e+00 3.794516026973724365e-01
-4.690945625305175781e+00 3.470919370651245117e+00 1.731915473937988281e-01
-9.106763839721679688e+00 6.242172718048095703e+00 2.235593199729919434e-01
-1.103203487396240234e+01 6.443614482879638672e+00 1.560882572084665298e-02
-4.677350997924804688e+00 3.497832536697387695e+00 1.483319878578186035e+00
-4.596723556518554688e+00 3.436286687850952148e+00 1.232464432716369629e+00
-4.716344356536865234e+00 3.263316631317138672e+00 1.173106551170349121e+00
-4.558228492736816406e+00 3.408750057220458984e+00 1.005673408508300781e+00
-4.571280479431152344e+00 3.419754743576049805e+00 7.952197194099426270e-01
-4.576642036437988281e+00 3.426258087158203125e+00 5.857598781585693359e-01
-4.748745918273925781e+00 3.558983325958251953e+00 1.761285066604614258e-01
-9.072397232055664062e+00 6.300785064697265625e+00 2.236605435609817505e-01
-1.100777626037597656e+01 6.520357608795166016e+00 1.563081704080104828e-02
-4.646529197692871094e+00 3.519443750381469727e+00 1.480365991592407227e+00
-4.588024139404296875e+00 3.473870038986206055e+00 1.235823750495910645e+00
-4.691418647766113281e+00 3.288819789886474609e+00 1.171904087066650391e+00
-4.545862197875976562e+00 3.443195104598999023e+00 1.007587313652038574e+00
-4.557315826416015625e+00 3.453122377395629883e+00 7.964613437652587891e-01
-4.606264591217041016e+00 3.492743015289306641e+00 5.922830700874328613e-01
-4.701009750366210938e+00 3.567169666290283203e+00 3.888540863990783691e-01
-4.739508628845214844e+00 3.332411527633666992e+00 3.269658684730529785e-01
-4.728411197662353516e+00 3.589262723922729492e+00 1.761878281831741333e-01
-9.037653923034667969e+00 6.359210491180419922e+00 2.237617671489715576e-01
-1.099156379699707031e+01 6.602194786071777344e+00 1.566502451896667480e-02
-4.585574626922607422e+00 3.519032478332519531e+00 1.703407526016235352e+00
-4.604083538055419922e+00 3.531959772109985352e+00 1.473719835281372070e+00
-4.702100753784179688e+00 3.337056398391723633e+00 1.402378797531127930e+00
-4.573605060577392578e+00 3.507311105728149414e+00 1.237713456153869629e+00
-4.679937362670898438e+00 3.323784112930297852e+00 1.174108505249023438e+00
-4.537931442260742188e+00 3.481212377548217773e+00 1.010545134544372559e+00
-4.635929584503173828e+00 3.294964313507080078e+00 9.476940631866455078e-01
-4.571400165557861328e+00 3.508154869079589844e+00 8.026697039604187012e-01
-4.682383060455322266e+00 3.330441474914550781e+00 7.442359924316406250e-01
-4.605259895324707031e+00 3.536694288253784180e+00 5.949330925941467285e-01
-4.687087059020996094e+00 3.336251735687255859e+00 5.347214341163635254e-01
-4.675077915191650391e+00 3.592907190322875977e+00 3.885253071784973145e-01
-4.711653232574462891e+00 3.356216430664062500e+00 3.264587521553039551e-01
-4.702337265014648438e+00 3.615162134170532227e+00 1.760395020246505737e-01
-4.738176345825195312e+00 3.377603292465209961e+00 1.178226247429847717e-01
-1.132407379150390625e+01 6.896824359893798828e+00 1.619892194867134094e-02
-4.559363365173339844e+00 3.542304039001464844e+00 1.466335177421569824e+00
-4.679169178009033203e+00 3.364143371582031250e+00 1.401669740676879883e+00
-4.559720516204833984e+00 3.541305065155029297e+00 1.239812970161437988e+00
-4.660249710083007812e+00 3.353009223937988281e+00 1.174308896064758301e+00
-4.525817394256591797e+00 3.516241073608398438e+00 1.012633085250854492e+00
-4.623630046844482422e+00 3.329111814498901367e+00 9.493377208709716797e-01
-4.577940940856933594e+00 3.558018684387207031e+00 8.076363205909729004e-01
-4.651399612426757812e+00 3.351572513580322266e+00 7.425661683082580566e-01
-4.599962711334228516e+00 3.577710628509521484e+00 5.970734953880310059e-01
-4.654413700103759766e+00 3.356212854385375977e+00 5.333332419395446777e-01
-4.636407852172851562e+00 3.608654737472534180e+00 3.871445357799530029e-01
-4.683684349060058594e+00 3.379805326461791992e+00 3.259516656398773193e-01
-4.623281002044677734e+00 3.599733352661132812e+00 1.739035397768020630e-01
-4.697099208831787109e+00 3.391979455947875977e+00 1.173165068030357361e-01
-1.132493591308593750e+01 6.992972850799560547e+00 1.626122929155826569e-02
-4.548206329345703125e+00 3.578603506088256836e+00 1.469781398773193359e+00
-4.667864322662353516e+00 3.399655342102050781e+00 1.404505729675292969e+00
-4.559422969818115234e+00 3.586140632629394531e+00 1.245691895484924316e+00
-4.656214714050292969e+00 3.393659114837646484e+00 1.178517103195190430e+00
-4.520409107208251953e+00 3.556732177734375000e+00 1.016286849975585938e+00
-4.619851589202880859e+00 3.369625806808471680e+00 9.527892470359802246e-01
-4.556801795959472656e+00 3.586654424667358398e+00 8.077743649482727051e-01
-4.609920501708984375e+00 3.364848136901855469e+00 7.392264604568481445e-01
-4.581049919128417969e+00 3.608330488204956055e+00 5.974811911582946777e-01
-4.617651462554931641e+00 3.372962236404418945e+00 5.314823985099792480e-01
-4.560105800628662109e+00 3.594413757324218750e+00 3.826076686382293701e-01
-4.648349761962890625e+00 3.397874593734741211e+00 3.249374628067016602e-01
-6.740753650665283203e+00 5.315174102783203125e+00 2.547737061977386475e-01
-4.681039333343505859e+00 3.424278020858764648e+00 1.174379736185073853e-01
-1.102413845062255859e+01 6.901026248931884766e+00 1.588982343673706055e-02
-4.658645153045654297e+00 3.436885595321655273e+00 1.408050656318664551e+00
-4.567158699035644531e+00 3.637805938720703125e+00 1.253880262374877930e+00
-4.626634597778320312e+00 3.415764331817626953e+00 1.176312804222106934e+00
-4.518524646759033203e+00 3.600357294082641602e+00 1.020810723304748535e+00
-4.597502231597900391e+00 3.396736621856689453e+00 9.524604678153991699e-01
-4.554845333099365234e+00 3.630597591400146484e+00 8.113613128662109375e-01
-4.588390350341796875e+00 3.392481088638305664e+00 7.390980720520019531e-01
-4.566599845886230469e+00 3.642574548721313477e+00 5.985004305839538574e-01
-4.595267295837402344e+00 3.400047540664672852e+00 5.312972664833068848e-01
-4.633029937744140625e+00 3.430491209030151367e+00 3.253318667411804199e-01
-6.712700843811035156e+00 5.360177040100097656e+00 2.549517154693603516e-01
-4.763566017150878906e+00 3.529721021652221680e+00 1.200495138764381409e-01
-9.109592437744140625e+00 6.253317832946777344e+00 1.176416948437690735e-01
-4.638571262359619141e+00 3.463706493377685547e+00 1.640331149101257324e+00
-4.666268825531005859e+00 3.486926555633544922e+00 1.416794896125793457e+00
-4.561493873596191406e+00 3.679265260696411133e+00 1.258499503135681152e+00
-4.600096225738525391e+00 3.439981460571289062e+00 1.174910068511962891e+00
-4.553826808929443359e+00 3.674392938613891602e+00 1.033860087394714355e+00
-4.565516948699951172e+00 3.416608333587646484e+00 9.501594305038452148e-01
-4.544043540954589844e+00 3.667808532714843750e+00 8.134308457374572754e-01
-4.556375026702880859e+00 3.412248611450195312e+00 7.372997403144836426e-01
-4.569538116455078125e+00 3.424596786499023438e+00 5.307419896125793457e-01
-4.698956012725830078e+00 3.524149894714355469e+00 3.314734101295471191e-01
-4.749814510345458984e+00 3.564884424209594727e+00 1.202519536018371582e-01
-9.050529479980468750e+00 6.294821739196777344e+00 1.173755452036857605e-01
-1.045838642120361328e+01 6.726898670196533203e+00 1.519221533089876175e-02
-4.621068000793457031e+00 3.495004892349243164e+00 1.641694307327270508e+00
-4.644011020660400391e+00 3.514906406402587891e+00 1.416558623313903809e+00
-4.695617675781250000e+00 3.288021564483642578e+00 1.336070656776428223e+00
-4.572907924652099609e+00 3.735016584396362305e+00 1.267947673797607422e+00
-4.567187309265136719e+00 3.459269285202026367e+00 1.171904087066650391e+00
-4.678820610046386719e+00 3.281130075454711914e+00 1.112884879112243652e+00
-4.611265182495117188e+00 3.767687559127807617e+00 1.052129268646240234e+00
-4.532675743103027344e+00 3.435620069503784180e+00 9.476940631866455078e-01
-4.549059867858886719e+00 3.718185901641845703e+00 8.183974623680114746e-01
-4.547203540802001953e+00 3.449131488800048828e+00 7.392264604568481445e-01
-4.685646057128906250e+00 3.556719541549682617e+00 5.467522144317626953e-01
-4.702684879302978516e+00 3.572241544723510742e+00 3.332764506340026855e-01
-4.754811763763427734e+00 3.346815586090087891e+00 2.731918096542358398e-01
-4.712728977203369141e+00 3.582466125488281250e+00 1.198673173785209656e-01
-9.005195617675781250e+00 6.345628261566162109e+00 1.172903701663017273e-01
-1.041356277465820312e+01 6.788759231567382812e+00 1.518732868134975433e-02
-4.588842868804931641e+00 3.515102624893188477e+00 1.637877702713012695e+00
-4.626983165740966797e+00 3.546882152557373047e+00 1.417976617813110352e+00
-4.692035198211669922e+00 3.328604936599731445e+00 1.340837478637695312e+00
-4.588328361511230469e+00 3.794783830642700195e+00 1.278655529022216797e+00
-4.553649425506591797e+00 3.493191242218017578e+00 1.173908114433288574e+00
-4.665001392364501953e+00 3.314324855804443359e+00 1.114414095878601074e+00
-4.578955650329589844e+00 3.788378000259399414e+00 1.050041317939758301e+00
-4.523246288299560547e+00 3.472377061843872070e+00 9.501594305038452148e-01
-4.529974937438964844e+00 3.749186038970947266e+00 8.190873265266418457e-01
-4.540110588073730469e+00 3.487842798233032227e+00 7.415385842323303223e-01
-4.692552566528320312e+00 3.341299057006835938e+00 6.920071244239807129e-01
-4.640051841735839844e+00 3.567196846008300781e+00 5.439758300781250000e-01
-4.678721427917480469e+00 3.333912611007690430e+00 4.793947637081146240e-01
-4.680677890777587891e+00 3.601029396057128906e+00 3.332764506340026855e-01
-4.727680206298828125e+00 3.371287822723388672e+00 2.728163599967956543e-01
-4.685905456542968750e+00 3.607656002044677734e+00 1.197458505630493164e-01
-4.734929084777832031e+00 3.380198240280151367e+00 6.194021925330162048e-02
-1.007885837554931641e+01 6.659040927886962891e+00 1.475850120186805725e-02
-4.576310634613037109e+00 3.550270080566406250e+00 1.641149044036865234e+00
-4.609738349914550781e+00 3.578781127929687500e+00 1.419394612312316895e+00
-4.651751995086669922e+00 3.343123197555541992e+00 1.335162758827209473e+00
-4.563076496124267578e+00 3.545108795166015625e+00 1.181923866271972656e+00
-4.644577026367187500e+00 3.342886447906494141e+00 1.114414095878601074e+00
-4.511086940765380859e+00 3.779092311859130859e+00 1.039775848388671875e+00
-4.511978626251220703e+00 3.507936477661132812e+00 9.522961378097534180e-01
-4.624308109283447266e+00 3.329523086547851562e+00 8.943586349487304688e-01
-4.532713413238525391e+00 3.526596546173095703e+00 7.438507080078125000e-01
-4.644584655761718750e+00 3.350280761718750000e+00 6.879519820213317871e-01
-4.614933967590332031e+00 3.593153715133666992e+00 5.436056256294250488e-01
-4.675145149230957031e+00 3.374806642532348633e+00 4.811410307884216309e-01
-4.653768539428710938e+00 3.625999927520751953e+00 3.329383730888366699e-01
-4.700427532196044922e+00 3.395553588867187500e+00 2.724409103393554688e-01
-4.687360763549804688e+00 3.389850378036499023e+00 6.158889085054397583e-02
-4.549901008605957031e+00 3.574716567993164062e+00 1.639513373374938965e+00
-4.638870239257812500e+00 3.647236585617065430e+00 1.435228586196899414e+00
-4.631151676177978516e+00 3.371602773666381836e+00 1.335162758827209473e+00
-4.552787303924560547e+00 3.582127571105957031e+00 1.184929728507995605e+00
-4.657289505004882812e+00 3.395609378814697266e+00 1.122442483901977539e+00
-4.521369457244873047e+00 3.559963941574096680e+00 9.588704705238342285e-01
-4.601397037506103516e+00 3.356088399887084961e+00 8.938935399055480957e-01
-4.534358024597167969e+00 3.572755098342895508e+00 7.477041482925415039e-01
-4.603097438812255859e+00 3.363486289978027344e+00 6.848509311676025391e-01
-4.585762977600097656e+00 3.615854263305664062e+00 5.427727699279785156e-01
-4.639065742492675781e+00 3.392253160476684570e+00 4.795610606670379639e-01
-4.616539955139160156e+00 3.642735958099365234e+00 3.318678140640258789e-01
-4.681116580963134766e+00 3.425510644912719727e+00 2.725347876548767090e-01
-6.692389488220214844e+00 5.284501075744628906e+00 1.726648062467575073e-01
-4.672925949096679688e+00 3.423275232315063477e+00 6.167406216263771057e-02
-4.512070655822753906e+00 3.589987277984619141e+00 1.633788466453552246e+00
-4.638448238372802734e+00 3.693183422088623047e+00 1.442082166671752930e+00
-4.638593673706054688e+00 3.420764446258544922e+00 1.343334436416625977e+00
-4.540683269500732422e+00 3.617932319641113281e+00 1.187534809112548828e+00
-4.631629467010498047e+00 3.420623302459716797e+00 1.121295571327209473e+00
-4.497127056121826172e+00 3.585794687271118164e+00 9.583774209022521973e-01
-4.612500667572021484e+00 3.407740354537963867e+00 9.000957012176513672e-01
-4.541032314300537109e+00 3.623396158218383789e+00 7.524567842483520508e-01
-4.581574440002441406e+00 3.391076326370239258e+00 6.847316622734069824e-01
-4.568936824798583984e+00 3.648272991180419922e+00 5.434205532073974609e-01
-4.599745750427246094e+00 3.407011985778808594e+00 4.776484966278076172e-01
-4.668837547302246094e+00 3.460712194442749023e+00 2.730510234832763672e-01
-9.113937377929687500e+00 6.260835647583007812e+00 4.151120483875274658e-01
-6.631728172302246094e+00 5.302987098693847656e+00 1.719359904527664185e-01
-4.740164279937744141e+00 3.517429113388061523e+00 6.284515559673309326e-02
-9.085201263427734375e+00 6.245764255523681641e+00 1.346957590430974960e-02
-4.655538558959960938e+00 3.473766803741455078e+00 1.584724903106689453e+00
-4.527954578399658203e+00 3.650826930999755859e+00 1.414667844772338867e+00
-4.627660274505615234e+00 3.456738710403442383e+00 1.346285343170166016e+00
-4.538222789764404297e+00 3.661720752716064453e+00 1.192745089530944824e+00
-4.583044528961181641e+00 3.428399324417114258e+00 1.114605307579040527e+00
-4.534902095794677734e+00 3.661655664443969727e+00 9.711974263191223145e-01
-4.581222057342529297e+00 3.428283214569091797e+00 8.980799913406372070e-01
-4.558825492858886719e+00 3.683602094650268555e+00 7.591361999511718750e-01
-4.571008205413818359e+00 3.426867008209228516e+00 6.862821578979492188e-01
-4.557231903076171875e+00 3.419023990631103516e+00 4.754032790660858154e-01
-4.756154060363769531e+00 3.570859193801879883e+00 2.794338166713714600e-01
-9.060586929321289062e+00 6.306364059448242188e+00 4.144367873668670654e-01
-4.728883743286132812e+00 3.554258346557617188e+00 6.298355758190155029e-02
-9.048348426818847656e+00 6.302535533905029297e+00 1.347201876342296600e-02
-4.616433620452880859e+00 3.488888502120971680e+00 1.578671216964721680e+00
-4.618789672851562500e+00 3.494470119476318359e+00 1.349917173385620117e+00
-4.712811470031738281e+00 3.301210403442382812e+00 1.286172628402709961e+00
-4.574088096618652344e+00 3.737228155136108398e+00 1.208175539970397949e+00
-4.554098129272460938e+00 3.450528144836425781e+00 1.112693667411804199e+00
-4.690917491912841797e+00 3.291980028152465820e+00 1.060068249702453613e+00
-4.584895133972167969e+00 3.748727560043334961e+00 9.868115186691284180e-01
-4.553801536560058594e+00 3.451554536819458008e+00 8.968395590782165527e-01
