-3.686352968215942383e+00 3.674269199371337891e+00 5.332688093185424805e-01
-3.804001331329345703e+00 3.525743961334228516e+00 4.820636510848999023e-01
-3.695639371871948242e+00 3.686097621917724609e+00 3.439458310604095459e-01
-3.841641902923583984e+00 3.563124895095825195e+00 2.956947982311248779e-01
-3.753740787506103516e+00 3.745355844497680664e+00 1.573794335126876831e-01
-3.866971492767333984e+00 3.589129924774169922e+00 1.068298965692520142e-01
-3.726439476013183594e+00 3.756150245666503906e+00 1.343750834465026855e+00
-3.752587556838989258e+00 3.511302232742309570e+00 1.249946236610412598e+00
-3.892467021942138672e+00 3.380987167358398438e+00 1.201691865921020508e+00
-3.654327154159545898e+00 3.682177305221557617e+00 1.114047050476074219e+00
-3.750944852828979492e+00 3.512221574783325195e+00 1.051066637039184570e+00
-3.627965688705444336e+00 3.656891345977783203e+00 9.101518392562866211e-01
-3.744354009628295898e+00 3.508504152297973633e+00 8.549956083297729492e-01
-3.655261754989624023e+00 3.685691356658935547e+00 7.230648994445800781e-01
-3.725681304931640625e+00 3.493450641632080078e+00 6.615145802497863770e-01
-3.652534484863281250e+00 3.685513496398925781e+00 5.316379666328430176e-01
-3.757608652114868164e+00 3.525853395462036133e+00 4.789171516895294189e-01
-3.679271697998046875e+00 3.715085029602050781e+00 3.445375859737396240e-01
-3.807333469390869141e+00 3.575011491775512695e+00 2.947369515895843506e-01
-3.734205245971679688e+00 3.771869659423828125e+00 1.575277745723724365e-01
-3.848518848419189453e+00 3.616212368011474609e+00 1.069311127066612244e-01
-8.102951049804687500e+00 6.579808235168457031e+00 1.275242026895284653e-02
-3.758408069610595703e+00 3.557762861251831055e+00 1.466402053833007812e+00
-3.714176416397094727e+00 3.790020465850830078e+00 1.347689390182495117e+00
-3.742258787155151367e+00 3.544953346252441406e+00 1.253727555274963379e+00
-3.873111248016357422e+00 3.406093835830688477e+00 1.202145934104919434e+00
-3.641931533813476562e+00 3.715003252029418945e+00 1.117196440696716309e+00
-3.718657970428466797e+00 3.525060415267944336e+00 1.048060655593872070e+00
-3.872463226318359375e+00 3.410321235656738281e+00 1.004884243011474609e+00
-3.641989231109619141e+00 3.716359376907348633e+00 9.193734526634216309e-01
-3.702718019485473633e+00 3.512405157089233398e+00 8.503935337066650391e-01
-3.645054101943969727e+00 3.720785617828369141e+00 7.255482673645019531e-01
-3.694825410842895508e+00 3.507369279861450195e+00 6.598447561264038086e-01
-3.617325782775878906e+00 3.695060491561889648e+00 5.298033356666564941e-01
-3.737347364425659180e+00 3.550214767456054688e+00 4.791022241115570068e-01
-3.640358209609985352e+00 3.721185445785522461e+00 3.430253267288208008e-01
-3.780260562896728516e+00 3.593490362167358398e+00 2.943425476551055908e-01
-3.713087558746337891e+00 3.796854972839355469e+00 1.576167643070220947e-01
-3.839297056198120117e+00 3.652162075042724609e+00 1.072955131530761719e-01
-8.139666557312011719e+00 6.692914962768554688e+00 1.287459302693605423e-02
-3.734423637390136719e+00 3.578760147094726562e+00 1.465584278106689453e+00
-3.698266506195068359e+00 3.820399045944213867e+00 1.350396990776062012e+00
-3.728852748870849609e+00 3.575919151306152344e+00 1.256563544273376465e+00
-3.857957839965820312e+00 3.434975624084472656e+00 1.203961849212646484e+00
-3.652395725250244141e+00 3.771695613861083984e+00 1.127484560012817383e+00
-3.704734325408935547e+00 3.555273532867431641e+00 1.050264954566955566e+00
-3.827287912368774414e+00 3.412461519241333008e+00 9.985762238502502441e-01
-3.658843040466308594e+00 3.779673576354980469e+00 9.294649958610534668e-01
-3.681807994842529297e+00 3.535741567611694336e+00 8.505579233169555664e-01
-3.638685226440429688e+00 3.760163068771362305e+00 7.288594245910644531e-01
-3.679670810699462891e+00 3.536159038543701172e+00 6.610007882118225098e-01
-3.588361263275146484e+00 3.710750102996826172e+00 5.288860201835632324e-01
-3.716928958892822266e+00 3.574460506439208984e+00 4.792873561382293701e-01
-3.608442783355712891e+00 3.734123945236206055e+00 3.421705365180969238e-01
-8.102785110473632812e+00 6.741557598114013672e+00 3.957163989543914795e-01
-3.757763147354125977e+00 3.618782520294189453e+00 1.056354790925979614e-01
-8.076160430908203125e+00 6.724177837371826172e+00 1.283916365355253220e-02
-3.711703777313232422e+00 3.600936889648437500e+00 1.465311765670776367e+00
-3.639253854751586914e+00 3.805891990661621094e+00 1.337350845336914062e+00
-3.712418317794799805e+00 3.604146480560302734e+00 1.258454203605651855e+00
-3.832468271255493164e+00 3.454670429229736328e+00 1.202599883079528809e+00
-3.674464464187622070e+00 3.841372489929199219e+00 1.141551852226257324e+00
-3.685660839080810547e+00 3.580669164657592773e+00 1.051066637039184570e+00
-3.808463096618652344e+00 3.437854051589965820e+00 9.991496205329895020e-01
-3.661443710327148438e+00 3.829097986221313477e+00 9.360765814781188965e-01
-3.667823553085327148e+00 3.565829753875732422e+00 8.523658514022827148e-01
-3.618282079696655273e+00 3.785282611846923828e+00 7.294112443923950195e-01
-3.682782888412475586e+00 3.582874298095703125e+00 6.654965281486511230e-01
-3.814798593521118164e+00 3.450829744338989258e+00 6.179402470588684082e-01
-3.577893257141113281e+00 3.745646238327026367e+00 5.307206511497497559e-01
-3.574438571929931641e+00 3.744645833969116211e+00 3.411185145378112793e-01
-3.916260957717895508e+00 3.547585964202880859e+00 2.482708841562271118e-01
-5.798668384552001953e+00 5.653190612792968750e+00 1.639799475669860840e-01
-8.017929077148437500e+00 6.759425163269042969e+00 1.281228475272655487e-02
-3.695030450820922852e+00 3.629036903381347656e+00 1.467492580413818359e+00
-3.707558870315551758e+00 3.643885135650634766e+00 1.264362454414367676e+00
-3.809040307998657227e+00 3.476151227951049805e+00 1.201918840408325195e+00
-3.637395620346069336e+00 3.849633216857910156e+00 1.137352585792541504e+00
-3.674098253250122070e+00 3.613521337509155273e+00 1.054072499275207520e+00
-3.861202955245971680e+00 3.528698921203613281e+00 1.018647193908691406e+00
-3.623680114746093750e+00 3.836458444595336914e+00 9.324228167533874512e-01
-3.652202129364013672e+00 3.594495058059692383e+00 8.538450598716735840e-01
-3.782735824584960938e+00 3.458200931549072266e+00 8.044266104698181152e-01
-3.586828470230102539e+00 3.798770904541015625e+00 7.277556657791137695e-01
-3.672741174697875977e+00 3.617234230041503906e+00 6.676802039146423340e-01
-3.785498380661010742e+00 3.466795682907104492e+00 6.166282296180725098e-01
-3.526169776916503906e+00 3.737140417098999023e+00 5.264398455619812012e-01
-3.837232351303100586e+00 3.516637563705444336e+00 4.343241453170776367e-01
-3.880432128906250000e+00 3.558721065521240234e+00 2.473791688680648804e-01
-3.808424949645996094e+00 3.758732080459594727e+00 1.083482280373573303e-01
-3.682245254516601562e+00 3.661137819290161133e+00 1.471309185028076172e+00
-3.698218107223510742e+00 3.679587125778198242e+00 1.268852710723876953e+00
-3.781201601028442383e+00 3.493509769439697266e+00 1.199875950813293457e+00
-3.603699684143066406e+00 3.861157894134521484e+00 1.134203314781188965e+00
-3.659493923187255859e+00 3.643600940704345703e+00 1.056276798248291016e+00
-3.811379432678222656e+00 3.526326894760131836e+00 1.011192202568054199e+00
-3.563123941421508789e+00 3.819019317626953125e+00 9.228532910346984863e-01
-3.630776643753051758e+00 3.617532968521118164e+00 8.540094494819641113e-01
-3.770145893096923828e+00 3.489398717880249023e+00 8.062872886657714844e-01
-3.501978158950805664e+00 3.754796028137207031e+00 7.152010202407836914e-01
-3.661713600158691406e+00 3.650904893875122070e+00 6.697353720664978027e-01
-3.754690408706665039e+00 3.481182336807250977e+00 6.150777339935302734e-01
-3.680109262466430664e+00 3.671808958053588867e+00 4.831741750240325928e-01
-3.795127391815185547e+00 3.521138191223144531e+00 4.319958090782165527e-01
-3.711422681808471680e+00 3.705637693405151367e+00 2.959765195846557617e-01
-3.855594873428344727e+00 3.579745292663574219e+00 2.471914440393447876e-01
-3.776802778244018555e+00 3.773549556732177734e+00 1.081052944064140320e-01
-3.872401237487792969e+00 3.599126338958740234e+00 5.628702789545059204e-02
-3.792435884475708008e+00 3.543548345565795898e+00 1.416013836860656738e+00
-3.695424079895019531e+00 3.722206592559814453e+00 1.275706171989440918e+00
-3.759694814682006836e+00 3.516644954681396484e+00 1.199875950813293457e+00
-3.905879497528076172e+00 3.393758535385131836e+00 1.156595468521118164e+00
-3.639828205108642578e+00 3.668768405914306641e+00 1.057078361511230469e+00
-3.760298728942871094e+00 3.522135019302368164e+00 1.003354907035827637e+00
-3.622401237487792969e+00 3.653752803802490234e+00 8.572965860366821289e-01
-3.751548290252685547e+00 3.515168190002441406e+00 8.069075345993041992e-01
-3.647618770599365234e+00 3.681758165359497070e+00 6.712767481803894043e-01
-3.740498781204223633e+00 3.510950088500976562e+00 6.162704229354858398e-01
-3.654007434844970703e+00 3.690782546997070312e+00 4.827114641666412354e-01
-3.748028278350830078e+00 3.520479202270507812e+00 4.290853440761566162e-01
-3.679486989974975586e+00 3.719114065170288086e+00 2.952440381050109863e-01
-3.827006816864013672e+00 3.597178220748901367e+00 2.467690557241439819e-01
-3.750766038894653320e+00 3.793808698654174805e+00 1.080243214964866638e-01
-3.840777397155761719e+00 3.613911390304565430e+00 5.614862591028213501e-02
-3.812673330307006836e+00 3.606529474258422852e+00 1.431805849075317383e+00
-3.692245244979858398e+00 3.764929533004760742e+00 1.282559752464294434e+00
-3.742289304733276367e+00 3.543665647506713867e+00 1.201237916946411133e+00
-3.883516788482666016e+00 3.416371583938598633e+00 1.156159162521362305e+00
-3.624106168746948242e+00 3.698030233383178711e+00 1.059082388877868652e+00
-3.723659276962280273e+00 3.530958175659179688e+00 9.993407726287841797e-01
-3.843569517135620117e+00 3.387184143066406250e+00 9.476588368415832520e-01
-3.630971670150756836e+00 3.707623720169067383e+00 8.646927475929260254e-01
-3.724891424179077148e+00 3.533361673355102539e+00 8.058220744132995605e-01
-3.629814863204956055e+00 3.709031581878662109e+00 6.721758842468261719e-01
-3.728242397308349609e+00 3.542726278305053711e+00 6.178209781646728516e-01
-3.624330759048461914e+00 3.706015110015869141e+00 4.817860424518585205e-01
-3.741521835327148438e+00 3.557831287384033203e+00 4.308316111564636230e-01
-3.662180185317993164e+00 3.747333288192749023e+00 2.956947982311248779e-01
-3.795455694198608398e+00 3.611640930175781250e+00 2.461589425802230835e-01
-3.711350440979003906e+00 3.800299882888793945e+00 1.075586974620819092e-01
-3.811290264129638672e+00 3.630513191223144531e+00 5.604216456413269043e-02
-3.763297796249389648e+00 3.603832960128784180e+00 1.421540975570678711e+00
-3.690033197402954102e+00 3.809149026870727539e+00 1.289885997772216797e+00
-3.727505445480346680e+00 3.573300600051879883e+00 1.203507781028747559e+00
-3.858837366104125977e+00 3.436890602111816406e+00 1.155068516731262207e+00
-3.677667140960693359e+00 3.799036264419555664e+00 1.081526517868041992e+00
-3.684929370880126953e+00 3.537425994873046875e+00 9.947531819343566895e-01
-3.827850341796875000e+00 3.415286779403686523e+00 9.489321708679199219e-01
-3.626671075820922852e+00 3.748975038528442383e+00 8.691304326057434082e-01
-3.713117122650146484e+00 3.565730571746826172e+00 8.079929351806640625e-01
-3.615259647369384766e+00 3.739790201187133789e+00 6.737173199653625488e-01
-3.712158441543579102e+00 3.571042299270629883e+00 6.187751293182373047e-01
-3.595296382904052734e+00 3.721738338470458984e+00 4.809530973434448242e-01
-3.729671955108642578e+00 3.590397357940673828e+00 4.319958090782165527e-01
-3.641891956329345703e+00 3.772606849670410156e+00 2.959201633930206299e-01
-5.837447166442871094e+00 5.629286766052246094e+00 8.634155988693237305e-02
-3.727953910827636719e+00 3.614097595214843750e+00 1.416540384292602539e+00
-3.662560462951660156e+00 3.827506542205810547e+00 1.288468003273010254e+00
-3.702714443206787109e+00 3.593391895294189453e+00 1.202599883079528809e+00
-3.844199419021606445e+00 3.466385364532470703e+00 1.157031893730163574e+00
-3.664443731307983398e+00 3.832151651382446289e+00 1.084532380104064941e+00
-3.670897722244262695e+00 3.567494392395019531e+00 9.968557953834533691e-01
-3.819226980209350586e+00 3.449914932250976562e+00 9.520242810249328613e-01
-3.657435417175292969e+00 3.827496528625488281e+00 8.821148276329040527e-01
-3.703918218612670898e+00 3.600841760635375977e+00 8.107838630676269531e-01
-3.587450504302978516e+00 3.756882190704345703e+00 6.728181838989257812e-01
-3.720051288604736328e+00 3.622845888137817383e+00 6.237844228744506836e-01
-3.566893577575683594e+00 3.737965822219848633e+00 4.802127480506896973e-01
-3.888014316558837891e+00 3.524393081665039062e+00 3.881271183490753174e-01
-3.569755315780639648e+00 3.743580341339111328e+00 2.919197380542755127e-01
-3.908840656280517578e+00 3.547001838684082031e+00 1.981583237648010254e-01
-3.791494131088256836e+00 3.701458215713500977e+00 5.641478672623634338e-02
-3.683674812316894531e+00 3.615279912948608398e+00 1.408117890357971191e+00
-3.862241983413696289e+00 3.519687414169311523e+00 1.373790502548217773e+00
-3.623654842376708984e+00 3.833666324615478516e+00 1.283032417297363281e+00
-3.686848402023315430e+00 3.622186422348022461e+00 1.204642772674560547e+00
-3.825740575790405273e+00 3.492539405822753906e+00 1.157904386520385742e+00
-3.629424810409545898e+00 3.842456579208374023e+00 1.081125736236572266e+00
-3.658734560012817383e+00 3.599588871002197266e+00 9.995319247245788574e-01
-3.816853523254394531e+00 3.490537881851196289e+00 9.567534923553466797e-01
-3.626433849334716797e+00 3.841975688934326172e+00 8.803068995475769043e-01
-3.683162450790405273e+00 3.624886989593505859e+00 8.110940456390380859e-01
-3.798212766647338867e+00 3.478363513946533203e+00 7.596094012260437012e-01
-3.565691947937011719e+00 3.780266284942626953e+00 6.730750203132629395e-01
-3.704115152359008789e+00 3.651877164840698242e+00 6.248579025268554688e-01
-3.810548782348632812e+00 3.493330717086791992e+00 5.716304183006286621e-01
-3.545256853103637695e+00 3.761230945587158203e+00 4.803978800773620605e-01
-3.854559898376464844e+00 3.537394285202026367e+00 3.869469761848449707e-01
-3.734020948410034180e+00 3.686505317687988281e+00 2.465343922376632690e-01
-3.881851911544799805e+00 3.566186904907226562e+00 1.978957056999206543e-01
-3.802849054336547852e+00 3.758391618728637695e+00 5.692580714821815491e-02
-3.657316207885742188e+00 3.633734464645385742e+00 1.406538724899291992e+00
-3.851945877075195312e+00 3.553812265396118164e+00 1.377858638763427734e+00
-3.680435657501220703e+00 3.660536527633666992e+00 1.209863543510437012e+00
-3.788471460342407227e+00 3.501375675201416016e+00 1.153105258941650391e+00
-3.585060596466064453e+00 3.842447280883789062e+00 1.074913501739501953e+00
-3.635883569717407227e+00 3.621278047561645508e+00 9.993407726287841797e-01
-3.801857948303222656e+00 3.519904136657714844e+00 9.583905339241027832e-01
-3.569158315658569336e+00 3.828081607818603516e+00 8.720889091491699219e-01
-3.658751487731933594e+00 3.645326375961303711e+00 8.106288313865661621e-01
-3.760838031768798828e+00 3.486805677413940430e+00 7.563993334770202637e-01
-3.546485900878906250e+00 3.806427240371704102e+00 6.738457679748535156e-01
-3.665474891662597656e+00 3.658404588699340820e+00 6.221146583557128906e-01
-3.776657342910766602e+00 3.505151510238647461e+00 5.697619915008544922e-01
-3.674939155578613281e+00 3.670412063598632812e+00 4.334094524383544922e-01
-3.813055753707885742e+00 3.542651414871215820e+00 3.849554359912872314e-01
-3.733232736587524414e+00 3.731237888336181641e+00 2.479892969131469727e-01
-3.853311777114868164e+00 3.583813428878784180e+00 1.975580751895904541e-01
-3.762044191360473633e+00 3.763973474502563477e+00 5.665964633226394653e-02
-3.881855726242065430e+00 3.612889051437377930e+00 6.478835828602313995e-03
-3.836428880691528320e+00 3.583322048187255859e+00 1.380147099494934082e+00
-3.662709712982177734e+00 3.687887191772460938e+00 1.211452484130859375e+00
-3.765491008758544922e+00 3.523221969604492188e+00 1.152668952941894531e+00
-3.627419471740722656e+00 3.657457590103149414e+00 1.003163814544677734e+00
-3.733555316925048828e+00 3.499456405639648438e+00 9.465675950050354004e-01
-3.641879558563232422e+00 3.673319578170776367e+00 8.118692636489868164e-01
-3.725667476654052734e+00 3.496952533721923828e+00 7.536271214485168457e-01
-3.642260074615478516e+00 3.680120944976806641e+00 6.219953894615173340e-01
-3.755803585052490234e+00 3.528939485549926758e+00 5.698719024658203125e-01
-3.644640445709228516e+00 3.685098171234130859e+00 4.324947297573089600e-01
-3.786161899566650391e+00 3.561198234558105469e+00 3.844391405582427979e-01
-3.710268020629882812e+00 3.754074096679687500e+00 2.479892969131469727e-01
-3.831249237060546875e+00 3.607389450073242188e+00 1.975580751895904541e-01
-3.736068248748779297e+00 3.784140110015869141e+00 5.661706626415252686e-02
-3.848696947097778320e+00 3.626353025436401367e+00 6.460509262979030609e-03
-3.814369916915893555e+00 3.606794357299804688e+00 1.380147099494934082e+00
-3.660473346710205078e+00 3.731147766113281250e+00 1.218262195587158203e+00
-3.735299825668334961e+00 3.538206577301025391e+00 1.150051236152648926e+00
-3.619334459304809570e+00 3.694370269775390625e+00 1.007177948951721191e+00
-3.705592870712280273e+00 3.516207456588745117e+00 9.449304938316345215e-01
-3.913007974624633789e+00 4.630061149597167969e+00 1.071094393730163574e+00
-3.626875638961791992e+00 3.703360557556152344e+00 8.135748505592346191e-01
-3.705574750900268555e+00 3.521109819412231445e+00 7.539188861846923828e-01
-3.623081207275390625e+00 3.705950021743774414e+00 6.225917935371398926e-01
-3.735520124435424805e+00 3.553288221359252930e+00 5.700917243957519531e-01
-3.621960401535034180e+00 3.707391738891601562e+00 4.324947297573089600e-01
-3.762072563171386719e+00 3.582299470901489258e+00 3.842178285121917725e-01
-3.683674573898315430e+00 3.773195505142211914e+00 2.477546334266662598e-01
-3.810489177703857422e+00 3.632208585739135742e+00 1.976331025362014771e-01
-3.820584774017333984e+00 3.644378185272216797e+00 6.450735498219728470e-03
-3.792865753173828125e+00 3.630799770355224609e+00 1.380401372909545898e+00
-3.673431396484375000e+00 3.790604352951049805e+00 1.230292677879333496e+00
-3.721267700195312500e+00 3.568489551544189453e+00 1.152450799942016602e+00
-3.671001195907592773e+00 3.793392181396484375e+00 1.028013586997985840e+00
-3.686075687408447266e+00 3.540922164916992188e+00 9.454762339591979980e-01
-3.906610488891601562e+00 4.680444240570068359e+00 1.077184081077575684e+00
-3.623316764831542969e+00 3.745425939559936523e+00 8.179163932800292969e-01
-3.707427740097045898e+00 3.566413402557373047e+00 7.587339282035827637e-01
-3.866813421249389648e+00 4.634407997131347656e+00 8.407475352287292480e-01
-3.603722333908081055e+00 3.731682062149047852e+00 6.231881380081176758e-01
-3.721522808074951172e+00 3.583725929260253906e+00 5.713007450103759766e-01
-3.599144220352172852e+00 3.729545831680297852e+00 4.324947297573089600e-01
-3.727815389633178711e+00 3.593549489974975586e+00 3.829639256000518799e-01
-3.647278547286987305e+00 3.782065629959106445e+00 2.468629181385040283e-01
-3.927132606506347656e+00 4.715059757232666016e+00 1.821210831403732300e-01
-5.801532745361328125e+00 5.602352619171142578e+00 9.853254072368144989e-03
-3.767737865447998047e+00 3.651311635971069336e+00 1.379384279251098633e+00
-3.654144287109375000e+00 3.817293882369995117e+00 1.231654644012451172e+00
-3.702802658081054688e+00 3.594654321670532227e+00 1.153541445732116699e+00
-3.849677801132202148e+00 4.668528079986572266e+00 1.299441576004028320e+00
-3.668682336807250977e+00 3.837841272354125977e+00 1.033939242362976074e+00
-3.670623779296875000e+00 3.569642543792724609e+00 9.471132159233093262e-01
-3.883455276489257812e+00 4.711164951324462891e+00 1.078750014305114746e+00
-3.624155282974243164e+00 3.792586088180541992e+00 8.233433961868286133e-01
-3.695397138595581055e+00 3.598757505416870117e+00 7.607766985893249512e-01
-3.843343257904052734e+00 4.664161682128906250e+00 8.418512344360351562e-01
-3.577330589294433594e+00 3.750131845474243164e+00 6.225917935371398926e-01
-3.746436119079589844e+00 3.652285814285278320e+00 5.785546302795410156e-01
-3.842164993286132812e+00 4.666049957275390625e+00 6.192930340766906738e-01
-3.536999225616455078e+00 3.710444688796997070e+00 4.277548193931579590e-01
-3.896034717559814453e+00 4.734838008880615234e+00 4.040426611900329590e-01
-3.913367033004760742e+00 4.757594108581542969e+00 1.828330606222152710e-01
-3.855663061141967773e+00 3.769281864166259766e+00 6.587569136172533035e-03
-3.748714923858642578e+00 3.677747964859008789e+00 1.380655646324157715e+00
-3.662770986557006836e+00 3.873610496520996094e+00 1.242550373077392578e+00
-3.679980754852294922e+00 3.616622447967529297e+00 1.153323411941528320e+00
-3.847507238388061523e+00 4.724660873413085938e+00 1.308469891548156738e+00
-3.643042802810668945e+00 3.858138322830200195e+00 1.033365726470947266e+00
-3.663367033004760742e+00 3.606585025787353516e+00 9.509329199790954590e-01
-3.860070228576660156e+00 4.741777896881103516e+00 1.080315947532653809e+00
-3.619125366210937500e+00 3.834149122238159180e+00 8.275298476219177246e-01
-3.673950672149658203e+00 3.622058868408203125e+00 7.609225511550903320e-01
-3.816527605056762695e+00 4.689961433410644531e+00 8.422651290893554688e-01
-3.547443866729736328e+00 3.764785051345825195e+00 6.213990449905395508e-01
-3.723955631256103516e+00 3.675204753875732422e+00 5.785546302795410156e-01
-3.822249174118041992e+00 4.700342655181884766e+00 6.207199692726135254e-01
-3.833557367324829102e+00 4.717611789703369141e+00 4.005578160285949707e-01
-3.779933214187622070e+00 3.738271236419677734e+00 1.995839178562164307e-01
-3.877799034118652344e+00 4.773758411407470703e+00 1.825364083051681519e-01
-3.813271760940551758e+00 3.773876428604125977e+00 6.554582621902227402e-03
-3.795384407043457031e+00 3.769514322280883789e+00 1.406336307525634766e+00
-3.675016164779663086e+00 3.656342506408691406e+00 1.158776998519897461e+00
-3.808028697967529297e+00 4.735227584838867188e+00 1.304900527000427246e+00
-3.605241775512695312e+00 3.865345239639282227e+00 1.029351592063903809e+00
-3.643258094787597656e+00 3.631077766418457031e+00 9.514786601066589355e-01
-3.834604501724243164e+00 4.769978523254394531e+00 1.081359863281250000e+00
-3.596204996109008789e+00 3.857005834579467773e+00 8.276849389076232910e-01
-3.652357101440429688e+00 3.645232439041137695e+00 7.610684633255004883e-01
-3.790160417556762695e+00 4.716378688812255859e+00 8.428169488906860352e-01
-3.680943489074707031e+00 3.677612304687500000e+00 5.753672719001770020e-01
-3.797696590423583984e+00 4.729136466979980469e+00 6.214334368705749512e-01
-3.668089628219604492e+00 3.668609857559204102e+00 3.837015032768249512e-01
-3.786427497863769531e+00 4.718476295471191406e+00 3.986510038375854492e-01
-3.739976167678833008e+00 3.744425773620605469e+00 1.986835598945617676e-01
-3.842805624008178711e+00 4.790444850921630859e+00 1.822694092988967896e-01
-3.778741121292114258e+00 3.785878896713256836e+00 6.535035092383623123e-03
-3.749677419662475586e+00 3.770102500915527344e+00 1.397945523262023926e+00
-3.656637668609619141e+00 3.682978391647338867e+00 1.160085797309875488e+00
-3.798967123031616211e+00 4.783770561218261719e+00 1.311829209327697754e+00
-3.633368968963623047e+00 3.665935039520263672e+00 9.547526836395263672e-01
-3.763017654418945312e+00 4.740200519561767578e+00 1.069354414939880371e+00
-3.643840074539184570e+00 3.681637048721313477e+00 7.639867067337036133e-01
-3.745142221450805664e+00 4.719374179840087891e+00 8.392298817634582520e-01
-3.644332647323608398e+00 3.685992956161499023e+00 5.731691122055053711e-01
-3.766135454177856445e+00 4.749232292175292969e+00 6.210257411003112793e-01
-3.655321359634399414e+00 3.700981140136718750e+00 3.847341537475585938e-01
-3.753685712814331055e+00 4.736927986145019531e+00 3.982565104961395264e-01
-3.715526580810546875e+00 3.765880346298217773e+00 1.986085027456283569e-01
-3.825132131576538086e+00 4.828820228576660156e+00 1.828330606222152710e-01
-3.739994287490844727e+00 3.793327093124389648e+00 6.508156657218933105e-03
-3.610572338104248047e+00 3.675067186355590820e+00 1.354466319084167480e+00
-3.637387275695800781e+00 3.708829641342163086e+00 1.161176562309265137e+00
-3.764716386795043945e+00 4.800835609436035156e+00 1.310149550437927246e+00
-3.631443977355957031e+00 3.709239244461059570e+00 9.602094888687133789e-01
-3.717458248138427734e+00 4.742275238037109375e+00 1.064656734466552734e+00
-3.629480361938476562e+00 3.712414741516113281e+00 7.657375931739807129e-01
-3.704507112503051758e+00 4.727452754974365234e+00 8.366085886955261230e-01
-3.626508474349975586e+00 3.713262319564819336e+00 5.739384889602661133e-01
-3.736310482025146484e+00 4.771468162536621094e+00 6.209238171577453613e-01
-3.629758358001708984e+00 3.720485210418701172e+00 3.844391405582427979e-01
-3.721475362777709961e+00 4.755941867828369141e+00 3.979277610778808594e-01
-3.699324369430541992e+00 3.795763969421386719e+00 1.989836692810058594e-01
-3.652588129043579102e+00 3.770330667495727539e+00 1.173392534255981445e+00
-3.727406501770019531e+00 4.813795089721679688e+00 1.307420134544372559e+00
-3.655782938003540039e+00 3.780223846435546875e+00 9.727600216865539551e-01
-3.906529664993286133e+00 4.683565616607666016e+00 1.016231775283813477e+00
-3.619003534317016602e+00 3.747424364089965820e+00 7.683640122413635254e-01
-3.662702083587646484e+00 4.733644485473632812e+00 8.337113857269287109e-01
-3.599515438079833984e+00 3.731152296066284180e+00 5.732790231704711914e-01
-3.701486349105834961e+00 4.787220478057861328e+00 6.200065016746520996e-01
-3.597172975540161133e+00 3.732633590698242188e+00 3.834064900875091553e-01
-3.948469638824462891e+00 4.747307777404785156e+00 1.250296384096145630e-01
-3.689613103866577148e+00 4.827613830566406250e+00 1.543135166168212891e+00
-3.655699729919433594e+00 3.820169925689697266e+00 1.181900143623352051e+00
-3.706113100051879883e+00 4.847449302673339844e+00 1.310359477996826172e+00
-3.886097431182861328e+00 4.714265823364257812e+00 1.249657034873962402e+00
-3.673273324966430664e+00 3.845246315002441406e+00 9.836736321449279785e-01
-3.654199361801147461e+00 4.781277656555175781e+00 1.063264727592468262e+00
-3.876464128494262695e+00 4.705924987792968750e+00 1.015903115272521973e+00
-3.606184482574462891e+00 3.780296802520751953e+00 7.705526351928710938e-01
-3.621562242507934570e+00 4.740288734436035156e+00 8.309521079063415527e-01
-3.825741529464721680e+00 4.647654056549072266e+00 7.796880602836608887e-01
-3.574496746063232422e+00 3.751009702682495117e+00 5.729493498802185059e-01
-3.681097984313964844e+00 4.821703433990478516e+00 6.215353608131408691e-01
-3.834454059600830078e+00 4.661553859710693359e+00 5.610040426254272461e-01
-3.557699680328369141e+00 3.737299203872680664e+00 3.816362321376800537e-01
-3.900289773941040039e+00 4.744965553283691406e+00 3.466300368309020996e-01
-3.923074007034301758e+00 4.776081562042236328e+00 1.251511126756668091e-01
-3.666927337646484375e+00 4.859446048736572266e+00 1.546088814735412598e+00
-3.654983997344970703e+00 3.866642236709594727e+00 1.189316987991333008e+00
-3.682190656661987305e+00 4.877902030944824219e+00 1.312459230422973633e+00
-3.849676132202148438e+00 4.728904247283935547e+00 1.247252345085144043e+00
-3.635437965393066406e+00 3.852693557739257812e+00 9.798538088798522949e-01
-3.626572847366333008e+00 4.805967807769775391e+00 1.063786745071411133e+00
-3.851250886917114258e+00 4.734213352203369141e+00 1.016889214515686035e+00
-3.588348627090454102e+00 3.808112859725952148e+00 7.717199325561523438e-01
-3.605530023574829102e+00 4.779816627502441406e+00 8.339872956275939941e-01
-3.806535720825195312e+00 4.682584285736083984e+00 7.816148400306701660e-01
-3.668807983398437500e+00 4.867236614227294922e+00 6.244911551475524902e-01
-3.819590806961059570e+00 4.701996326446533203e+00 5.630399584770202637e-01
-3.698741436004638672e+00 4.910512924194335938e+00 4.050946533679962158e-01
-3.852224349975585938e+00 4.745552539825439453e+00 3.449396789073944092e-01
-3.721107244491577148e+00 4.942000865936279297e+00 1.836043894290924072e-01
-3.895584344863891602e+00 4.802392482757568359e+00 1.252118498086929321e-01
-3.628934621810913086e+00 4.870973110198974609e+00 1.542642712593078613e+00
-3.585900068283081055e+00 3.840490579605102539e+00 1.174483299255371094e+00
-3.669718742370605469e+00 4.923921585083007812e+00 1.318757891654968262e+00
-3.811993837356567383e+00 4.741746902465820312e+00 1.244446873664855957e+00
-3.601673126220703125e+00 3.864138126373291016e+00 9.771254658699035645e-01
-3.617607116699218750e+00 4.855768203735351562e+00 1.069876432418823242e+00
-3.818423271179199219e+00 4.753140926361083984e+00 1.015903115272521973e+00
-3.579683303833007812e+00 4.806615829467773438e+00 8.348150849342346191e-01
-3.792631864547729492e+00 4.724412918090820312e+00 7.846975922584533691e-01
-3.633529186248779297e+00 4.882473945617675781e+00 6.235738992691040039e-01
-3.786929607391357422e+00 4.720684051513671875e+00 5.624846816062927246e-01
-3.663182497024536133e+00 4.925909042358398438e+00 4.045028984546661377e-01
-3.802426099777221680e+00 4.743392944335937500e+00 3.430803418159484863e-01
-3.685943126678466797e+00 4.958322525024414062e+00 1.833670586347579956e-01
-3.848541975021362305e+00 4.804356098175048828e+00 1.246449947357177734e-01
-3.582899093627929688e+00 4.871286392211914062e+00 1.535750508308410645e+00
-3.645810842514038086e+00 4.955008983612060547e+00 1.321067452430725098e+00
-3.774298906326293945e+00 4.754304409027099609e+00 1.241641283035278320e+00
-3.590078353881835938e+00 4.881047725677490234e+00 1.070572376251220703e+00
-3.762826204299926758e+00 4.743251800537109375e+00 1.008835673332214355e+00
-3.560096979141235352e+00 4.842055320739746094e+00 8.371604681015014648e-01
-3.770964860916137695e+00 4.756920814514160156e+00 7.862390279769897461e-01
-3.595256090164184570e+00 4.893453121185302734e+00 6.221469044685363770e-01
-3.752328395843505859e+00 4.736807346343994141e+00 5.616518259048461914e-01
-3.620487689971923828e+00 4.931402206420898438e+00 4.031221270561218262e-01
-3.760855913162231445e+00 4.750978469848632812e+00 3.419534564018249512e-01
-3.637708187103271484e+00 4.956671237945556641e+00 1.824770867824554443e-01
-3.811547517776489258e+00 4.818470954895019531e+00 1.244020685553550720e-01
-3.629703760147094727e+00 4.997062206268310547e+00 1.326316475868225098e+00
-3.742033958435058594e+00 4.773519039154052734e+00 1.240639328956604004e+00
-3.563532829284667969e+00 4.907764911651611328e+00 1.071616411209106445e+00
-3.709319829940795898e+00 4.735190391540527344e+00 1.002261281013488770e+00
-3.937425613403320312e+00 4.662046909332275391e+00 9.577763080596923828e-01
-3.550682306289672852e+00 4.891862392425537109e+00 8.419891595840454102e-01
-3.745985031127929688e+00 4.785435676574707031e+00 7.871381640434265137e-01
-3.561074256896972656e+00 4.909784317016601562e+00 6.214334368705749512e-01
-3.713991165161132812e+00 4.747977733612060547e+00 5.602636933326721191e-01
-3.576107263565063477e+00 4.934133529663085938e+00 4.015440940856933594e-01
-3.753154039382934570e+00 4.801496505737304688e+00 3.439254760742187500e-01
-3.620127916336059570e+00 4.996706008911132812e+00 1.831297278404235840e-01
-3.698880910873413086e+00 4.778570652008056641e+00 1.236030220985412598e+00
-3.601621389389038086e+00 5.024783134460449219e+00 1.092321395874023438e+00
-3.571940660476684570e+00 4.985211849212646484e+00 8.542678952217102051e-01
-3.711699724197387695e+00 4.802053451538085938e+00 7.861105799674987793e-01
-3.533776998519897461e+00 4.935586452484130859e+00 6.219430565834045410e-01
-3.692092180252075195e+00 4.780133724212646484e+00 5.613741874694824219e-01
-3.503960847854614258e+00 4.897553443908691406e+00 3.968099951744079590e-01
-3.578933954238891602e+00 5.004189968109130859e+00 1.825957447290420532e-01
-3.943235874176025391e+00 4.747648239135742188e+00 6.570900976657867432e-02
-3.701831817626953125e+00 4.839989662170410156e+00 1.482021808624267578e+00
-3.558506250381469727e+00 5.027660846710205078e+00 1.322747111320495605e+00
-3.672465085983276367e+00 4.805068492889404297e+00 1.237032175064086914e+00
-3.890146732330322266e+00 4.720751285552978516e+00 1.191257119178771973e+00
-3.580960035324096680e+00 5.061257839202880859e+00 1.095453262329101562e+00
-3.649136304855346680e+00 4.778000831604003906e+00 1.001768231391906738e+00
-3.858561992645263672e+00 4.684088230133056641e+00 9.525043368339538574e-01
-3.532134056091308594e+00 4.994096755981445312e+00 8.520604968070983887e-01
-3.668326854705810547e+00 4.806605339050292969e+00 7.831562161445617676e-01
-3.842279434204101562e+00 4.672625541687011719e+00 7.267149090766906738e-01
-3.483905553817749023e+00 4.929555416107177734e+00 6.184776425361633301e-01
-3.683221578598022461e+00 4.829617023468017578e+00 5.645207166671752930e-01
-3.844740152359008789e+00 4.678946018218994141e+00 5.053394436836242676e-01
-3.892149686813354492e+00 4.740014553070068359e+00 2.881631851196289062e-01
-3.925445318222045898e+00 4.785669803619384766e+00 6.590064615011215210e-02
-3.656254529953002930e+00 4.841676235198974609e+00 1.475640892982482910e+00
-3.660616636276245117e+00 4.850972652435302734e+00 1.243044018745422363e+00
-3.853053092956542969e+00 4.734634876251220703e+00 1.188772082328796387e+00
-3.537996768951416016e+00 5.066179752349853516e+00 1.091799378395080566e+00
-3.619750261306762695e+00 4.800301551818847656e+00 1.001768231391906738e+00
-3.834112405776977539e+00 4.713040351867675781e+00 9.535897374153137207e-01
-3.498589754104614258e+00 5.011614799499511719e+00 8.513706922531127930e-01
-3.625635147094726562e+00 4.811598777770996094e+00 7.803303003311157227e-01
-3.809155225753784180e+00 4.690718173980712891e+00 7.258800268173217773e-01
-3.675678968429565430e+00 4.881556510925292969e+00 5.679448246955871582e-01
-3.822237730026245117e+00 4.710186958312988281e+00 5.061710476875305176e-01
-3.703757047653198242e+00 4.922420978546142578e+00 3.476442098617553711e-01
-3.852925777435302734e+00 4.751392841339111328e+00 2.874122560024261475e-01
-3.732404470443725586e+00 4.964100360870361328e+00 1.257584393024444580e-01
-3.887825012207031250e+00 4.799565315246582031e+00 6.576224416494369507e-02
-3.626477718353271484e+00 4.864019393920898438e+00 1.475640892982482910e+00
-3.648927927017211914e+00 4.897697448730468750e+00 1.249256253242492676e+00
-3.822699785232543945e+00 4.756657600402832031e+00 1.188389778137207031e+00
-3.594351291656494141e+00 4.827960014343261719e+00 1.002918720245361328e+00
-3.786560297012329102e+00 4.713372707366943359e+00 9.489381313323974609e-01
-3.596635341644287109e+00 4.834550380706787109e+00 7.804587483406066895e-01
-3.781544208526611328e+00 4.715551376342773438e+00 7.261185050010681152e-01
-3.635558366775512695e+00 4.890433788299560547e+00 5.663716197013854980e-01
-3.785786628723144531e+00 4.724219322204589844e+00 5.051731467247009277e-01
-3.667530298233032227e+00 4.937039852142333984e+00 3.470807671546936035e-01
-3.815582275390625000e+00 4.764808177947998047e+00 2.868021428585052490e-01
-3.698895215988159180e+00 4.982894420623779297e+00 1.256572157144546509e-01
-3.837064981460571289e+00 4.796781063079833984e+00 6.540026515722274780e-02
-3.600020408630371094e+00 4.890874862670898438e+00 1.477058887481689453e+00
-3.801066160202026367e+00 4.782770156860351562e+00 1.423916339874267578e+00
-3.619387865066528320e+00 4.920783996582031250e+00 1.249456644058227539e+00
-3.773916006088256836e+00 4.755419731140136719e+00 1.182272911071777344e+00
-3.571085929870605469e+00 4.858666896820068359e+00 1.004726648330688477e+00
-3.739762544631958008e+00 4.714073657989501953e+00 9.444414973258972168e-01
-3.580405712127685547e+00 4.874911785125732422e+00 7.834131121635437012e-01
-3.751306056976318359e+00 4.737109184265136719e+00 7.258800268173217773e-01
-3.594878435134887695e+00 4.898200035095214844e+00 5.647057890892028809e-01
-3.749925613403320312e+00 4.738763332366943359e+00 5.042583942413330078e-01
-3.627130270004272461e+00 4.945763111114501953e+00 3.461229205131530762e-01
-3.786893844604492188e+00 4.788914680480957031e+00 2.868490815162658691e-01
-3.671797275543212891e+00 5.010334968566894531e+00 1.257786899805068970e-01
-3.777189016342163086e+00 4.781785488128662109e+00 6.487859785556793213e-02
-3.775856733322143555e+00 4.811366081237792969e+00 1.425505280494689941e+00
-3.599488019943237305e+00 4.957169532775878906e+00 1.253063678741455078e+00
-3.742244482040405273e+00 4.775396347045898438e+00 1.181508302688598633e+00
-3.539468526840209961e+00 4.878091812133789062e+00 1.004233598709106445e+00
-3.708939552307128906e+00 4.734598636627197266e+00 9.439763426780700684e-01
-3.548097848892211914e+00 4.893577575683593750e+00 7.828993201255798340e-01
-3.728285074234008789e+00 4.767858505249023438e+00 7.270726561546325684e-01
-3.574103116989135742e+00 4.933066844940185547e+00 5.661865472793579102e-01
-3.719551324844360352e+00 4.760112762451171875e+00 5.040920972824096680e-01
-3.584419965744018555e+00 4.950942993164062500e+00 3.449396789073944092e-01
-3.719322919845581055e+00 4.763246536254882812e+00 2.839392721652984619e-01
-3.636296987533569336e+00 5.026290416717529297e+00 1.256167292594909668e-01
-3.756405115127563477e+00 4.847530841827392578e+00 1.429364204406738281e+00
-3.590122222900390625e+00 5.008625030517578125e+00 1.260478377342224121e+00
-3.711070775985717773e+00 4.795939445495605469e+00 1.180934906005859375e+00
-3.908094167709350586e+00 4.686896324157714844e+00 1.128823637962341309e+00
-3.626644372940063477e+00 5.063308715820312500e+00 1.037762761116027832e+00
-3.662290334701538086e+00 4.734606266021728516e+00 9.394797682762145996e-01
-3.876024007797241211e+00 4.655038833618164062e+00 8.934091925621032715e-01
-3.530125617980957031e+00 4.932190895080566406e+00 7.855967283248901367e-01
-3.705027818679809570e+00 4.798503875732421875e+00 7.282654047012329102e-01
-3.540291786193847656e+00 4.950045108795166016e+00 5.656312704086303711e-01
-3.693317651748657227e+00 4.786791324615478516e+00 5.045078992843627930e-01
-3.555715799331665039e+00 4.975280284881591797e+00 3.451087474822998047e-01
-3.896956205368041992e+00 4.695157051086425781e+00 2.290713340044021606e-01
-3.517068862915039062e+00 4.924837589263916016e+00 1.225395798683166504e-01
-3.952322244644165039e+00 4.765246868133544922e+00 7.563732098788022995e-03
-3.704101800918579102e+00 4.841096401214599609e+00 1.420738458633422852e+00
-3.562151432037353516e+00 5.034557819366455078e+00 1.261480212211608887e+00
-3.679785728454589844e+00 4.816279888153076172e+00 1.180361390113830566e+00
-3.887388229370117188e+00 4.720655918121337891e+00 1.131188273429870605e+00
-3.575007915496826172e+00 5.056470870971679688e+00 1.031845927238464355e+00
-3.636168241500854492e+00 4.760913848876953125e+00 9.402549862861633301e-01
-3.838591575622558594e+00 4.668036460876464844e+00 8.913664817810058594e-01
-3.506662607192993164e+00 4.963478565216064453e+00 7.871381640434265137e-01
-3.668291568756103516e+00 4.811672210693359375e+00 7.268341779708862305e-01
-3.842167377471923828e+00 4.677375316619873047e+00 6.693384647369384766e-01
-3.443238496780395508e+00 4.877316951751708984e+00 5.548960566520690918e-01
-3.690448522567749023e+00 4.844241619110107422e+00 5.081667304039001465e-01
-3.858291864395141602e+00 4.702022075653076172e+00 4.498645961284637451e-01
-3.876942873001098633e+00 4.729799747467041016e+00 2.295965403318405151e-01
-3.915404796600341797e+00 4.780124664306640625e+00 7.549071218818426132e-03
-3.670805454254150391e+00 4.859070777893066406e+00 1.419376492500305176e+00
-3.517730236053466797e+00 5.037042617797851562e+00 1.256670832633972168e+00
-3.659030914306640625e+00 4.850522041320800781e+00 1.183228611946105957e+00
-3.850904703140258789e+00 4.735264778137207031e+00 1.129005551338195801e+00
-3.528673410415649414e+00 5.056471347808837891e+00 1.027408242225646973e+00
-3.612240791320800781e+00 4.790234088897705078e+00 9.416505098342895508e-01
-3.815489768981933594e+00 4.698413848876953125e+00 8.926796913146972656e-01
-3.477843284606933594e+00 4.987341880798339844e+00 7.875235080718994141e-01
-3.640489816665649414e+00 4.836469650268554688e+00 7.271919250488281250e-01
-3.809011936187744141e+00 4.695458889007568359e+00 6.685690879821777344e-01
-3.675631046295166016e+00 4.886704921722412109e+00 5.102456808090209961e-01
-3.841297864913940430e+00 4.740329265594482422e+00 4.512660503387451172e-01
-3.728844404220581055e+00 4.961055278778076172e+00 2.915892302989959717e-01
-3.847219705581665039e+00 4.752722263336181641e+00 2.295590341091156006e-01
-3.745154857635498047e+00 4.988191127777099609e+00 6.641166657209396362e-02
-3.846379756927490234e+00 4.755077838897705078e+00 7.472102064639329910e-03
-3.643832921981811523e+00 4.885406494140625000e+00 1.420511484146118164e+00
-3.810588121414184570e+00 4.736399650573730469e+00 1.358814239501953125e+00
-3.635649204254150391e+00 4.881541728973388672e+00 1.185331344604492188e+00
-3.832860231399536133e+00 4.772604465484619141e+00 1.132279634475708008e+00
-3.593399524688720703e+00 4.826571464538574219e+00 9.444414973258972168e-01
-3.777304887771606445e+00 4.710159778594970703e+00 8.904910087585449219e-01
-3.614298582077026367e+00 4.863497734069824219e+00 7.279075980186462402e-01
-3.780129432678222656e+00 4.718742370605468750e+00 6.685690879821777344e-01
-3.633695125579833984e+00 4.893164634704589844e+00 5.085825324058532715e-01
-3.801546573638916016e+00 4.750572204589843750e+00 4.500120878219604492e-01
-3.671547174453735352e+00 4.947743892669677734e+00 2.894772589206695557e-01
-3.827968120574951172e+00 4.788727760314941406e+00 2.301592826843261719e-01
-3.698995590209960938e+00 4.990190982818603516e+00 6.613486260175704956e-02
-3.826492786407470703e+00 4.790309429168701172e+00 7.490428164601325989e-03
-3.691168546676635742e+00 5.012758731842041016e+00 1.450928330421447754e+00
-3.800880908966064453e+00 4.784143924713134766e+00 1.365794897079467773e+00
-3.615513086318969727e+00 4.917201519012451172e+00 1.188580989837646484e+00
-3.780285835266113281e+00 4.766755580902099609e+00 1.125367641448974609e+00
-3.565471887588500977e+00 4.850917816162109375e+00 9.449067115783691406e-01
-3.726222515106201172e+00 4.705327987670898438e+00 8.852382302284240723e-01
-3.586737871170043945e+00 4.888784885406494141e+00 7.283846735954284668e-01
-3.743704795837402344e+00 4.732493400573730469e+00 6.672502160072326660e-01
-3.600067377090454102e+00 4.910546302795410156e+00 5.080835819244384766e-01
-3.751921653747558594e+00 4.747987747192382812e+00 4.475780129432678223e-01
-3.631674051284790039e+00 4.957286357879638672e+00 2.887263596057891846e-01
-3.805323839187622070e+00 4.820754051208496094e+00 2.305719554424285889e-01
-3.647047758102416992e+00 4.983743190765380859e+00 6.575159728527069092e-02
-3.605940341949462891e+00 4.960476398468017578e+00 1.429364204406738281e+00
-3.775671005249023438e+00 4.812750339508056641e+00 1.367321848869323730e+00
-3.596805572509765625e+00 4.955180168151855469e+00 1.192404031753540039e+00
-3.735203266143798828e+00 4.769732475280761719e+00 1.120638489723205566e+00
-3.571611404418945312e+00 4.922277927398681641e+00 9.545201063156127930e-01
-3.687530279159545898e+00 4.715633869171142578e+00 8.829036355018615723e-01
-3.554926156997680664e+00 4.908288478851318359e+00 7.280268073081970215e-01
-3.725609779357910156e+00 4.769474506378173828e+00 6.692285537719726562e-01
-3.571038007736206055e+00 4.934158325195312500e+00 5.082499384880065918e-01
-3.709834337234497070e+00 4.754408359527587891e+00 4.460290372371673584e-01
-3.581871271133422852e+00 4.952766418457031250e+00 2.871775925159454346e-01
-3.615813970565795898e+00 5.005216598510742188e+00 6.574095040559768677e-02
-3.720097780227661133e+00 4.793653488159179688e+00 1.595254659652709961e+00
-3.734714031219482422e+00 4.821167945861816406e+00 1.363177180290222168e+00
-3.590345144271850586e+00 5.010667324066162109e+00 1.200432300567626953e+00
-3.695640802383422852e+00 4.779337406158447266e+00 1.117546319961547852e+00
-3.605771541595458984e+00 5.034051418304443359e+00 9.718862771987915039e-01
-3.651875734329223633e+00 4.729558467864990234e+00 8.812986612319946289e-01
-3.532826900482177734e+00 4.941316127777099609e+00 7.296966910362243652e-01
-3.705987691879272461e+00 4.804837703704833984e+00 6.709871292114257812e-01
-3.535481452941894531e+00 4.948678970336914062e+00 5.075014829635620117e-01
-3.676940202713012695e+00 4.772342205047607422e+00 4.455864727497100830e-01
-3.540386915206909180e+00 4.959204196929931641e+00 2.862859070301055908e-01
-3.576325893402099609e+00 5.015096664428710938e+00 6.558125466108322144e-02
-3.690026283264160156e+00 4.815621376037597656e+00 1.595000505447387695e+00
-3.703283071517944336e+00 4.841667652130126953e+00 1.362522721290588379e+00
-3.573136091232299805e+00 5.051836013793945312e+00 1.205019950866699219e+00
-3.665052413940429688e+00 4.800360202789306641e+00 1.117182493209838867e+00
-3.569682359695434570e+00 5.048821449279785156e+00 9.704908132553100586e-01
-3.614389896392822266e+00 4.740862369537353516e+00 8.792559504508972168e-01
-3.488701581954956055e+00 4.943431377410888672e+00 7.268341779708862305e-01
-3.677037954330444336e+00 4.828277111053466797e+00 6.710969805717468262e-01
-3.665702342987060547e+00 4.818624973297119141e+00 4.477992653846740723e-01
-3.662159442901611328e+00 4.840486526489257812e+00 1.595763325691223145e+00
-3.709381580352783203e+00 4.911805629730224609e+00 1.375829458236694336e+00
-3.515663146972656250e+00 5.035838127136230469e+00 1.196035861968994141e+00
-3.642040252685546875e+00 4.831395626068115234e+00 1.119183301925659180e+00
-3.531851768493652344e+00 5.060908317565917969e+00 9.686301350593566895e-01
-3.597726583480834961e+00 4.779549121856689453e+00 8.823200464248657227e-01
-3.642564535140991211e+00 4.844392776489257812e+00 6.702177524566650391e-01
-3.666611909866333008e+00 4.881693840026855469e+00 4.515610635280609131e-01
-3.699064254760742188e+00 4.930274486541748047e+00 2.313973009586334229e-01
-3.720340251922607422e+00 4.962239265441894531e+00 7.577170617878437042e-03
-3.628338336944580078e+00 4.857442378997802734e+00 1.593983411788940430e+00
-3.682090282440185547e+00 4.938385486602783203e+00 1.376920223236083984e+00
-3.625829458236694336e+00 4.871794700622558594e+00 1.123366832733154297e+00
-3.580133914947509766e+00 4.817415237426757812e+00 8.852382302284240723e-01
-3.614548444747924805e+00 4.869046211242675781e+00 6.705474257469177246e-01
-3.642529726028442383e+00 4.912110805511474609e+00 4.522986710071563721e-01
-3.663984775543212891e+00 4.946454524993896484e+00 2.310971766710281372e-01
-3.686847925186157227e+00 4.980954647064208984e+00 7.571062538772821426e-03
-3.552544355392456055e+00 4.817343711853027344e+00 1.573642253875732422e+00
-3.643041610717773438e+00 4.949096202850341797e+00 1.373648047447204590e+00
-3.611006498336791992e+00 4.914553642272949219e+00 1.128095984458923340e+00
-3.544655084609985352e+00 4.831315040588378906e+00 8.837791085243225098e-01
-3.586954832077026367e+00 4.894340038299560547e+00 6.709871292114257812e-01
-3.608197450637817383e+00 4.928735733032226562e+00 4.517823755741119385e-01
-3.621177673339843750e+00 4.951904296875000000e+00 2.303093522787094116e-01
-3.647955656051635742e+00 4.992178916931152344e+00 7.553957868367433548e-03
-3.624080181121826172e+00 4.987145900726318359e+00 1.378010988235473633e+00
-3.590598583221435547e+00 4.950149536132812500e+00 1.131188273429870605e+00
-3.553824901580810547e+00 4.906655311584472656e+00 8.935551047325134277e-01
-3.559769153594970703e+00 4.920282840728759766e+00 6.715366244316101074e-01
-3.573214054107666016e+00 4.944315910339355469e+00 4.511922597885131836e-01
-3.586630821228027344e+00 4.968358516693115234e+00 2.300467342138290405e-01
-3.616085529327392578e+00 5.012846469879150391e+00 7.551514543592929840e-03
