-1.310165319591760635e-02 -7.363239526748657227e-01 6.145233660936355591e-02
-3.582902252674102783e-02 -7.333153486251831055e-01 3.449510037899017334e-02
-2.268982306122779846e-02 -7.376353740692138672e-01 5.458268150687217712e-02
-2.788174152374267578e-02 -7.449533343315124512e-01 2.798676863312721252e-02
-5.587873607873916626e-02 -7.548918128013610840e-01 8.059254847466945648e-03
-5.831820890307426453e-02 -6.821322441101074219e-01 5.712822452187538147e-02
-7.692118734121322632e-02 -7.329329252243041992e-01 7.846329361200332642e-03
-1.174168065190315247e-01 -6.798371076583862305e-01 3.893389925360679626e-02
-9.458836168050765991e-02 -6.978419423103332520e-01 3.308714181184768677e-02
-1.095504313707351685e-01 -7.098035812377929688e-01 3.374418988823890686e-02
-1.175914928317070007e-01 -7.021814584732055664e-01 7.580170873552560806e-03
-1.030375882983207703e-01 -7.221726179122924805e-01 2.738651446998119354e-02
-1.242497786879539490e-01 -6.898604035377502441e-01 7.463061716407537460e-03
-1.174219027161598206e-01 -6.997161507606506348e-01 2.663620002567768097e-02
-6.674457550048828125e+00 -6.997169494628906250e+00 1.181413047015666962e-02
-6.722127914428710938e+00 -6.961119174957275391e+00 1.182268280535936356e-02
-6.762617588043212891e+00 -6.917597293853759766e+00 1.181901898235082626e-02
-6.811266422271728516e+00 -6.882369518280029297e+00 1.183001417666673660e-02
-6.829303264617919922e+00 -6.816427707672119141e+00 1.178847439587116241e-02
-6.750655651092529297e+00 -6.655743598937988281e+00 1.158200297504663467e-02
-6.751965999603271484e+00 -6.575823307037353516e+00 1.151480711996555328e-02
-6.787142753601074219e+00 -6.529417037963867188e+00 1.150625478476285934e-02
-6.830703258514404297e+00 -6.491093635559082031e+00 1.151236426085233688e-02
-6.785826206207275391e+00 -6.369668960571289062e+00 1.137064304202795029e-02
-6.880512714385986328e+00 -6.379585266113281250e+00 1.146349497139453888e-02
-6.711565971374511719e+00 -6.146785736083984375e+00 1.111896708607673645e-02
-6.873741149902343750e+00 -6.218192100524902344e+00 1.132421661168336868e-02
-6.786491394042968750e+00 -6.063961505889892578e+00 1.111896708607673645e-02
-6.850562095642089844e+00 -6.046027183532714844e+00 1.116294879466295242e-02
-6.852856159210205078e+00 -5.973652839660644531e+00 1.110674999654293060e-02
-6.718870162963867188e+00 -5.784688949584960938e+00 1.083185989409685135e-02
-6.749667167663574219e+00 -5.739467620849609375e+00 1.082453038543462753e-02
-6.783225536346435547e+00 -5.696658134460449219e+00 1.082208659499883652e-02
-6.838833332061767578e+00 -5.672166347503662109e+00 1.085507310926914215e-02
-6.779128551483154297e+00 -5.552790641784667969e+00 1.070602238178253174e-02
-6.760203361511230469e+00 -5.468324661254882812e+00 1.062294468283653259e-02
-6.776439666748046875e+00 -5.413011074066162109e+00 1.059606578201055527e-02
-6.771838665008544922e+00 -5.341602325439453125e+00 1.053742319345474243e-02
-4.310645580291748047e+00 -2.662796258926391602e+00 1.503781974315643311e-01
-6.763462543487548828e+00 -5.267996788024902344e+00 1.047389302402734756e-02
-4.327756881713867188e+00 -2.636816501617431641e+00 1.504078656435012817e-01
-6.733830451965332031e+00 -5.178846836090087891e+00 1.037859916687011719e-02
-4.360133171081542969e+00 -2.619994163513183594e+00 1.509715169668197632e-01
-6.733624458312988281e+00 -5.113241195678710938e+00 1.032972987741231918e-02
-6.741668701171875000e+00 -5.054431915283203125e+00 1.029429957270622253e-02
-6.790237426757812500e+00 -5.026059150695800781e+00 1.032117661088705063e-02
-8.105031967163085938e+00 -4.669427871704101562e+00 2.776167392730712891e-01
-4.307256698608398438e+00 -2.693236827850341797e+00 1.028619855642318726e-01
-6.662698745727539062e+00 -4.868661403656005859e+00 1.008171867579221725e-02
-8.129184722900390625e+00 -4.617140293121337891e+00 2.774684131145477295e-01
-4.325402736663818359e+00 -2.667806863784790039e+00 1.029024720191955566e-01
-6.745973110198974609e+00 -4.866300106048583984e+00 1.016235258430242538e-02
-4.349377632141113281e+00 -2.645893096923828125e+00 1.030846685171127319e-01
-6.781407356262207031e+00 -4.828876495361328125e+00 1.017090491950511932e-02
-4.366388320922851562e+00 -2.619670629501342773e+00 1.031049191951751709e-01
-6.675099849700927734e+00 -4.691719532012939453e+00 9.968097321689128876e-03
-4.387543201446533203e+00 -2.595884084701538086e+00 1.032263860106468201e-01
-6.660214900970458984e+00 -4.620462894439697266e+00 9.903344325721263885e-03
-6.699992179870605469e+00 -4.587419509887695312e+00 9.920449927449226379e-03
-8.124013900756835938e+00 -4.672930240631103516e+00 1.897713541984558105e-01
-4.319075584411621094e+00 -2.696500062942504883e+00 5.421099811792373657e-02
-6.852299690246582031e+00 -4.630204677581787109e+00 1.010370906442403793e-02
-4.394231796264648438e+00 -2.709266662597656250e+00 2.425451576709747314e-01
-8.174275398254394531e+00 -4.635323524475097656e+00 1.902774572372436523e-01
-4.333836555480957031e+00 -2.668899297714233398e+00 5.418970435857772827e-02
-6.788229942321777344e+00 -4.526491165161132812e+00 9.968097321689128876e-03
-4.423574924468994141e+00 -2.690038204193115234e+00 2.432491332292556763e-01
-4.362096309661865234e+00 -2.649524688720703125e+00 5.433875322341918945e-02
-6.766588687896728516e+00 -4.452323913574218750e+00 9.896014817059040070e-03
-4.297793865203857422e+00 -2.577560186386108398e+00 2.354584038257598877e-01
-4.378271102905273438e+00 -2.622709512710571289e+00 5.433875322341918945e-02
-6.767779350280761719e+00 -4.393840312957763672e+00 9.858140721917152405e-03
-4.383089065551757812e+00 -2.589184045791625977e+00 5.420035123825073242e-02
-6.759245395660400391e+00 -4.329577445983886719e+00 9.806828573346138000e-03
-8.066798210144042969e+00 -4.698700428009033203e+00 9.939392656087875366e-02
-6.815271377563476562e+00 -4.306718826293945312e+00 9.849589318037033081e-03
-8.105882644653320312e+00 -4.655090808868408203e+00 9.952168911695480347e-02
-4.327109813690185547e+00 -2.697385072708129883e+00 6.229602731764316559e-03
-4.380444049835205078e+00 -2.695558786392211914e+00 1.930937021970748901e-01
-8.125591278076171875e+00 -4.600339889526367188e+00 9.941522032022476196e-02
-4.339319705963134766e+00 -2.668164730072021484e+00 6.223493721336126328e-03
-4.378107547760009766e+00 -2.657223701477050781e+00 1.922683566808700562e-01
-1.393728828430175781e+01 -6.506469726562500000e+00 4.565041661262512207e-01
-4.359885215759277344e+00 -2.644081830978393555e+00 6.229602731764316559e-03
-4.329164505004882812e+00 -2.591304302215576172e+00 1.894171535968780518e-01
-4.365728378295898438e+00 -2.611120700836181641e+00 6.214941851794719696e-03
-4.373915195465087891e+00 -2.579711675643920898e+00 6.203945726156234741e-03
-6.883591175079345703e+00 -4.003180027008056641e+00 9.728637523949146271e-03
-6.912362575531005859e+00 -3.963354825973510742e+00 9.734746068716049194e-03
-6.845143318176269531e+00 -3.869198560714721680e+00 9.606464765965938568e-03
-1.387072658538818359e+01 -6.463789939880371094e+00 3.098613619804382324e-01
-1.354740333557128906e+01 -6.919322013854980469e+00 1.619622707366943359e-01
-6.857398986816406250e+00 -3.820797443389892578e+00 9.590581990778446198e-03
-1.379327487945556641e+01 -6.938519954681396484e+00 1.643896400928497314e-01
-6.808839321136474609e+00 -3.739178180694580078e+00 9.490400552749633789e-03
-1.385619735717773438e+01 -6.863964080810546875e+00 1.646345108747482300e-01
-6.223066806793212891e+00 -3.367958545684814453e+00 8.644962683320045471e-03
-1.391602802276611328e+01 -6.787582397460937500e+00 1.648474335670471191e-01
-6.892153263092041016e+00 -3.675575733184814453e+00 9.542934596538543701e-03
-1.379245567321777344e+01 -6.622857570648193359e+00 1.628991514444351196e-01
-6.916347026824951172e+00 -3.634147405624389648e+00 9.545378386974334717e-03
-1.384096908569335938e+01 -6.541949748992919922e+00 1.629949659109115601e-01
-6.915425300598144531e+00 -3.579688787460327148e+00 9.513612836599349976e-03
-1.389172935485839844e+01 -6.461961269378662109e+00 1.631227284669876099e-01
-6.918551445007324219e+00 -3.527650117874145508e+00 9.487956762313842773e-03
-1.390565967559814453e+01 -6.364948749542236328e+00 1.628246307373046875e-01
-6.989217281341552734e+00 -3.509814500808715820e+00 9.555152617394924164e-03
-1.393807029724121094e+01 -6.276631355285644531e+00 1.627501100301742554e-01
-7.001657485961914062e+00 -3.462430715560913086e+00 9.542934596538543701e-03
-1.402477645874023438e+01 -6.212454795837402344e+00 1.633143723011016846e-01
-7.017376422882080078e+00 -3.416777372360229492e+00 9.535604156553745270e-03
-1.402596282958984375e+01 -6.110309123992919922e+00 1.628885120153427124e-01
-7.019272327423095703e+00 -3.364578247070312500e+00 9.509948082268238068e-03
-1.400987911224365234e+01 -6.001295566558837891e+00 1.622710227966308594e-01
-7.020792961120605469e+00 -3.312484741210937500e+00 9.484292007982730865e-03
-1.395704650878906250e+01 -5.877574920654296875e+00 1.612383276224136353e-01
-6.969333171844482422e+00 -3.236073255538940430e+00 9.387775324285030365e-03
-1.393002128601074219e+01 -5.765820503234863281e+00 1.605143845081329346e-01
-7.101843833923339844e+00 -3.244780063629150391e+00 9.539269842207431793e-03
-1.387992191314697266e+01 -5.645578384399414062e+00 1.595349162817001343e-01
-7.069630146026611328e+00 -3.177773952484130859e+00 9.469631128013134003e-03
-1.425507926940917969e+01 -5.696485042572021484e+00 1.634421199560165405e-01
-7.139297962188720703e+00 -3.156576395034790039e+00 9.536826051771640778e-03
-1.395932674407958984e+01 -5.479209423065185547e+00 1.596626788377761841e-01
-7.097089290618896484e+00 -3.085994243621826172e+00 9.454970248043537140e-03
-1.418395519256591797e+01 -5.467178821563720703e+00 1.618451774120330811e-01
-7.068077564239501953e+00 -3.021946907043457031e+00 9.391440078616142273e-03
-1.371502113342285156e+01 -5.189998626708984375e+00 1.561281085014343262e-01
-7.072659015655517578e+00 -2.972708940505981445e+00 9.373114444315433502e-03
-1.375785636901855469e+01 -5.109924793243408203e+00 1.562558561563491821e-01
-7.086144447326660156e+00 -2.927346944808959961e+00 9.367005899548530579e-03
-1.398342609405517578e+01 -5.096289157867431641e+00 1.584596484899520874e-01
-7.103046417236328125e+00 -2.883435964584350586e+00 9.365784004330635071e-03
-1.400595951080322266e+01 -5.007362842559814453e+00 1.583638340234756470e-01
-7.302660942077636719e+00 -2.912404537200927734e+00 9.605242870748043060e-03
-1.395432472229003906e+01 -4.892546176910400391e+00 1.574376076459884644e-01
-7.115549087524414062e+00 -2.787299633026123047e+00 9.336462244391441345e-03
-1.403230953216552734e+01 -4.823409080505371094e+00 1.579805612564086914e-01
-7.245450973510742188e+00 -2.787027835845947266e+00 9.484292007982730865e-03
-1.392234134674072266e+01 -4.690289020538330078e+00 1.564155519008636475e-01
-7.200671672821044922e+00 -2.719201564788818359e+00 9.403658099472522736e-03
-1.458061313629150391e+01 -3.677702665328979492e+00 1.540690183639526367e+00
-1.395275783538818359e+01 -4.605401992797851562e+00 1.564368456602096558e-01
-7.118765830993652344e+00 -2.638476848602294922e+00 9.275375865399837494e-03
-1.461449623107910156e+01 -3.591016769409179688e+00 1.541913151741027832e+00
-1.397599697113037109e+01 -4.518165111541748047e+00 1.563836187124252319e-01
-7.154556274414062500e+00 -2.601924657821655273e+00 9.301031939685344696e-03
-1.461593723297119141e+01 -3.496416091918945312e+00 1.539772748947143555e+00
-1.455997753143310547e+01 -3.477656602859497070e+00 9.864032268524169922e-01
-1.356206512451171875e+01 -4.292616844177246094e+00 1.514543741941452026e-01
-6.777630805969238281e+00 -2.417863607406616211e+00 8.791571483016014099e-03
-1.462742805480957031e+01 -3.404413700103759766e+00 1.538753628730773926e+00
-1.446440887451171875e+01 -3.361150264739990234e+00 9.785130620002746582e-01
-1.487750053405761719e+01 -3.454405307769775391e+00 4.533002376556396484e-01
-1.358623790740966797e+01 -4.208729267120361328e+00 1.514330804347991943e-01
-7.168956756591796875e+00 -2.507987260818481445e+00 9.279040619730949402e-03
-1.467520904541015625e+01 -3.320744752883911133e+00 1.541607499122619629e+00
-1.468818092346191406e+01 -3.318291187286376953e+00 9.922550916671752930e-01
-1.492376708984375000e+01 -3.368776082992553711e+00 4.540715515613555908e-01
-1.402042865753173828e+01 -4.249125957489013672e+00 1.559790521860122681e-01
-7.154887199401855469e+00 -2.453895330429077148e+00 9.241167455911636353e-03
-1.474874496459960938e+01 -3.242384672164916992e+00 1.547213315963745117e+00
-1.477843952178955078e+01 -3.243505239486694336e+00 9.969891905784606934e-01
-1.440911102294921875e+01 -3.159810781478881836e+00 4.378144443035125732e-01
-1.362248134613037109e+01 -4.037425994873046875e+00 1.512733846902847290e-01
-7.137581348419189453e+00 -2.399114847183227539e+00 9.199628606438636780e-03
-1.481408882141113281e+01 -3.161585807800292969e+00 1.552003860473632812e+00
-1.457854843139648438e+01 -3.669233322143554688e+00 1.397235035896301270e+00
-1.489175319671630859e+01 -3.172726154327392578e+00 1.003301382064819336e+00
-1.363451290130615234e+01 -3.950146675109863281e+00 1.511349827051162720e-01
-7.182561874389648438e+00 -2.365283489227294922e+00 9.238723665475845337e-03
-1.457274341583251953e+01 -3.572836160659790039e+00 1.394551157951354980e+00
-1.482885646820068359e+01 -3.064330101013183594e+00 9.977782368659973145e-01
-1.400678730010986328e+01 -3.965006589889526367e+00 1.549889445304870605e-01
-7.232153892517089844e+00 -2.332524776458740234e+00 9.283928200602531433e-03
-1.457695865631103516e+01 -3.479191303253173828e+00 1.392885446548461914e+00
-1.330897426605224609e+01 -3.679416418075561523e+00 1.470148712396621704e-01
-7.274937152862548828e+00 -2.297138452529907227e+00 9.320579469203948975e-03
-1.486480617523193359e+01 -3.457097530364990234e+00 1.976708412170410156e+00
-1.461064147949218750e+01 -3.392611265182495117e+00 1.394088506698608398e+00
-1.457951450347900391e+01 -3.380020380020141602e+00 8.446007966995239258e-01
-1.486681365966796875e+01 -3.441157817840576172e+00 3.089908361434936523e-01
-1.344232177734375000e+01 -3.627645969390869141e+00 1.482391953468322754e-01
-7.276474952697753906e+00 -2.248618602752685547e+00 9.304697625339031219e-03
-1.467294692993164062e+01 -3.312325954437255859e+00 1.398067831993103027e+00
-1.465549659729003906e+01 -3.303010702133178711e+00 8.478124141693115234e-01
-1.394588661193847656e+01 -3.671889543533325195e+00 1.535410583019256592e-01
-7.243231773376464844e+00 -2.189749002456665039e+00 9.244833141565322876e-03
-1.475232315063476562e+01 -3.235243320465087891e+00 1.403713107109069824e+00
-1.434336853027343750e+01 -3.135064363479614258e+00 2.972895503044128418e-01
-1.360979843139648438e+01 -3.494244098663330078e+00 1.496019214391708374e-01
-7.317905902862548828e+00 -2.163408517837524414e+00 9.323023259639739990e-03
-1.482838153839111328e+01 -3.156688451766967773e+00 1.409080743789672852e+00
-1.458868598937988281e+01 -3.663832664489746094e+00 1.255157828330993652e+00
-1.491466045379638672e+01 -3.169613838195800781e+00 8.604898452758789062e-01
-1.439069843292236328e+01 -3.053013324737548828e+00 2.978766560554504395e-01
-1.352718830108642578e+01 -3.384699106216430664e+00 1.484627574682235718e-01
-7.332003116607666016e+00 -2.118743419647216797e+00 9.324245154857635498e-03
-1.485624790191650391e+01 -3.067455768585205078e+00 1.409913539886474609e+00
-1.459250068664550781e+01 -3.569749832153320312e+00 1.253577828407287598e+00
-1.488591384887695312e+01 -3.068163633346557617e+00 8.577290177345275879e-01
-1.433277606964111328e+01 -2.948940277099609375e+00 2.962975800037384033e-01
-1.307749080657958984e+01 -3.187041759490966797e+00 1.433099508285522461e-01
-7.235154151916503906e+00 -2.042739868164062500e+00 9.184967726469039917e-03
-1.481495857238769531e+01 -3.533434629440307617e+00 1.829608798027038574e+00
-1.457826137542724609e+01 -3.471603155136108398e+00 1.250501036643981934e+00
-1.338089942932128906e+01 -3.174132108688354492e+00 1.464186608791351318e-01
-7.261048793792724609e+00 -2.002028703689575195e+00 9.202072396874427795e-03
-1.472513580322265625e+01 -3.416657686233520508e+00 1.815892577171325684e+00
-1.458666706085205078e+01 -3.379163503646850586e+00 1.249420046806335449e+00
-1.438203334808349609e+01 -3.326468706130981445e+00 6.935627460479736328e-01
-1.355504417419433594e+01 -3.127715349197387695e+00 1.481114327907562256e-01
-7.323409557342529297e+00 -1.970952033996582031e+00 9.265602566301822662e-03
-1.479909229278564453e+01 -3.338257789611816406e+00 1.822452545166015625e+00
-1.461490440368652344e+01 -3.291349411010742188e+00 1.250085234642028809e+00
-1.460488414764404297e+01 -3.283736705780029297e+00 7.033246755599975586e-01
-1.337883949279785156e+01 -3.000716686248779297e+00 1.459821760654449463e-01
-7.030692100524902344e+00 -1.845984101295471191e+00 8.880757726728916168e-03
-1.471757316589355469e+01 -3.219714879989624023e+00 1.257153511047363281e+00
-1.385522556304931641e+01 -3.018394708633422852e+00 1.509752869606018066e-01
-7.288918972015380859e+00 -1.866053223609924316e+00 9.192298166453838348e-03
-1.486962413787841797e+01 -3.157500028610229492e+00 1.268462777137756348e+00
-1.465910530090332031e+01 -3.670809984207153320e+00 1.117691040039062500e+00
-1.495580196380615234e+01 -3.170343875885009766e+00 7.182959914207458496e-01
-1.169562625885009766e+01 -1.601776599884033203e+00 3.503583669662475586e-01
-1.430003070831298828e+01 -3.023509979248046875e+00 1.556170731782913208e-01
-7.280826568603515625e+00 -1.816452860832214355e+00 9.167863056063652039e-03
-1.465646553039550781e+01 -3.582856178283691406e+00 1.668400287628173828e+00
-1.488286304473876953e+01 -3.064996242523193359e+00 1.267963886260986328e+00
-1.457283782958984375e+01 -3.554327487945556641e+00 1.109429955482482910e+00
-1.497790813446044922e+01 -3.079120635986328125e+00 7.184367775917053223e-01
-1.169631385803222656e+01 -1.528817415237426758e+00 3.500913679599761963e-01
-1.340927696228027344e+01 -2.749328136444091797e+00 1.457373052835464478e-01
-7.249079227447509766e+00 -1.761355638504028320e+00 9.114108048379421234e-03
-1.465690231323242188e+01 -3.487796306610107422e+00 1.665982365608215332e+00
-1.453615474700927734e+01 -3.451021909713745117e+00 1.105004310607910156e+00
-1.284232997894287109e+01 -2.551076173782348633e+00 1.394027620553970337e-01
-7.241260051727294922e+00 -1.712470293045043945e+00 9.090894833207130432e-03
-1.468577289581298828e+01 -3.399590730667114258e+00 1.666861534118652344e+00
-1.454248046875000000e+01 -3.358398675918579102e+00 1.103897929191589355e+00
-1.321811866760253906e+01 -2.541520833969116211e+00 1.433099508285522461e-01
-7.213624000549316406e+00 -1.659264206886291504e+00 9.043247438967227936e-03
-1.471896266937255859e+01 -3.312253475189208984e+00 1.668290376663208008e+00
-1.454821777343750000e+01 -3.265828132629394531e+00 1.102791547775268555e+00
-1.455794429779052734e+01 -3.260005712509155273e+00 5.600730180740356445e-01
-1.417232131958007812e+01 -2.634920597076416016e+00 1.534771770238876343e-01
-7.250018596649169922e+00 -1.620861768722534180e+00 9.076233953237533569e-03
-1.478658866882324219e+01 -3.232277870178222656e+00 1.673675894737243652e+00
-1.470731925964355469e+01 -3.206882238388061523e+00 1.113339185714721680e+00
-1.442143917083740234e+01 -3.136637926101684570e+00 5.540704727172851562e-01
-1.393725109100341797e+01 -2.502842187881469727e+00 1.507623642683029175e-01
-7.211943149566650391e+00 -1.565948724746704102e+00 9.016368538141250610e-03
-1.487404537200927734e+01 -3.147757768630981445e+00 1.124477028846740723e+00
-1.496839904785156250e+01 -3.159538030624389648e+00 5.743290185928344727e-01
-1.169254207611083984e+01 -1.593168854713439941e+00 2.389450967311859131e-01
-1.385381984710693359e+01 -2.400207757949829102e+00 1.496977359056472778e-01
-7.181296825408935547e+00 -1.513213872909545898e+00 8.966278284788131714e-03
-1.491554832458496094e+01 -3.061044216156005859e+00 1.126173496246337891e+00
-1.496302890777587891e+01 -3.062624454498291016e+00 5.733910799026489258e-01
-1.169813156127929688e+01 -1.520879149436950684e+00 2.388641238212585449e-01
-1.388110828399658203e+01 -2.317297458648681641e+00 1.498361378908157349e-01
-7.185547828674316406e+00 -1.468120932579040527e+00 8.960168808698654175e-03
-1.384668922424316406e+01 -2.224309921264648438e+00 1.493144631385803223e-01
-7.478901863098144531e+00 -1.480311393737792969e+00 9.314471855759620667e-03
-1.364463996887207031e+01 -2.106053590774536133e+00 1.469935774803161621e-01
-7.196147918701171875e+00 -1.378515601158142090e+00 8.951617404818534851e-03
-1.380567932128906250e+01 -2.044262409210205078e+00 1.485905200242996216e-01
-7.344096660614013672e+00 -1.360194921493530273e+00 9.125103242695331573e-03
-1.365064620971679688e+01 -1.935786843299865723e+00 1.467912942171096802e-01
-7.496023178100585938e+00 -1.340813755989074707e+00 9.303475730121135712e-03
-1.169041347503662109e+01 -1.584696531295776367e+00 1.256051361560821533e-01
-7.269574642181396484e+00 -1.254326224327087402e+00 9.012703783810138702e-03
-1.172272586822509766e+01 -1.515885114669799805e+00 1.258500069379806519e-01
-7.459630012512207031e+00 -1.240033984184265137e+00 9.238723665475845337e-03
-1.311628055572509766e+01 -1.614325642585754395e+00 1.407016068696975708e-01
-7.411801338195800781e+00 -1.185395359992980957e+00 9.170306846499443054e-03
-1.346064281463623047e+01 -1.572926640510559082e+00 1.442894041538238525e-01
-7.373468875885009766e+00 -1.132909417152404785e+00 9.114108048379421234e-03
-1.356545352935791016e+01 -1.500860333442687988e+00 1.453114598989486694e-01
-7.361484527587890625e+00 -1.084875106811523438e+00 9.090894833207130432e-03
-1.344213390350341797e+01 -1.403782486915588379e+00 1.438954919576644897e-01
-7.132337093353271484e+00 -1.006431221961975098e+00 8.800122886896133423e-03
-1.292206764221191406e+01 -1.269368052482604980e+00 1.382423043251037598e-01
-7.370278835296630859e+00 -9.939221143722534180e-01 9.086007252335548401e-03
-1.326915836334228516e+01 -1.221307873725891113e+00 1.418726891279220581e-01
-7.302843570709228516e+00 -9.392406344413757324e-01 8.995600044727325439e-03
-1.317876720428466797e+01 -1.131484270095825195e+00 1.408293545246124268e-01
-7.286632061004638672e+00 -8.917410969734191895e-01 8.968722075223922729e-03
-1.302996349334716797e+01 -1.038209676742553711e+00 1.391685307025909424e-01
-7.301899433135986328e+00 -8.481681942939758301e-01 8.980939164757728577e-03
-1.298223686218261719e+01 -9.542813301086425781e-01 1.385936290025711060e-01
-7.323864459991455078e+00 -8.052064776420593262e-01 9.001708589494228363e-03
-1.317740726470947266e+01 -8.873708844184875488e-01 1.406164318323135376e-01
-7.336624622344970703e+00 -7.610783576965332031e-01 9.011481888592243195e-03
-1.293108940124511719e+01 -7.911116480827331543e-01 1.379335671663284302e-01
-7.403858661651611328e+00 -7.221632599830627441e-01 9.088451042771339417e-03
-1.287080192565917969e+01 -7.081822752952575684e-01 1.372415572404861450e-01
-6.891303062438964844e+00 -6.295074224472045898e-01 8.454373106360435486e-03
-1.180256366729736328e+01 2.765325903892517090e-01 3.503880202770233154e-01
-1.288189601898193359e+01 -6.295368671417236328e-01 1.373160779476165771e-01
-7.441058635711669922e+00 -6.337130069732666016e-01 9.123881347477436066e-03
-1.176767349243164062e+01 3.479716181755065918e-01 3.494090437889099121e-01
-1.282557392120361328e+01 -5.479223728179931641e-01 1.366772949695587158e-01
-7.336145401000976562e+00 -5.794607400894165039e-01 8.990712463855743408e-03
-1.283968734741210938e+01 -4.696178734302520752e-01 1.367944180965423584e-01
-7.336570739746093750e+00 -5.342182517051696777e-01 8.987047709524631500e-03
-1.297425842285156250e+01 -3.948411941528320312e-01 1.381997317075729370e-01
-7.389599800109863281e+00 -4.925169348716735840e-01 9.048134088516235352e-03
-1.283648586273193359e+01 -3.118255138397216797e-01 1.367092430591583252e-01
-7.362537384033203125e+00 -4.453545808792114258e-01 9.011481888592243195e-03
-1.281116390228271484e+01 -2.325664162635803223e-01 1.364217996597290039e-01
-7.344162464141845703e+00 -3.990311920642852783e-01 8.985825814306735992e-03
-1.179015445709228516e+01 2.843489348888397217e-01 2.388033866882324219e-01
-1.280935001373291016e+01 -1.539181619882583618e-01 1.363898515701293945e-01
-7.341478347778320312e+00 -3.537201285362243652e-01 8.979717269539833069e-03
-1.176820182800292969e+01 3.560818433761596680e-01 2.383985072374343872e-01
-1.281505298614501953e+01 -7.534797489643096924e-02 1.364430785179138184e-01
-7.279567241668701172e+00 -3.059792816638946533e-01 8.901526220142841339e-03
-1.287927055358886719e+01 3.301539691165089607e-03 1.371244490146636963e-01
-7.311288356781005859e+00 -2.623828649520874023e-01 8.938178420066833496e-03
-1.284201049804687500e+01 8.209069073200225830e-02 1.367305219173431396e-01
-7.480686187744140625e+00 -2.225116193294525146e-01 9.143428876996040344e-03
-1.291325569152832031e+01 1.617882102727890015e-01 1.374970674514770508e-01
-7.319956302642822266e+00 -1.727839559316635132e-01 8.945508860051631927e-03
-1.251111221313476562e+01 2.335359454154968262e-01 1.332278996706008911e-01
-7.382868766784667969e+00 -1.289490163326263428e-01 9.021256119012832642e-03
-1.176671409606933594e+01 2.918747961521148682e-01 1.253176927566528320e-01
-7.372521400451660156e+00 -8.352154493331909180e-02 9.007817134261131287e-03
-7.217206954956054688e+00 7.474172115325927734e-01 2.153472751379013062e-01
-1.175270843505859375e+01 3.636973500251770020e-01 1.251899302005767822e-01
-7.463893890380859375e+00 -3.875553235411643982e-02 9.118994697928428650e-03
-7.230370044708251953e+00 7.936502099037170410e-01 2.158812731504440308e-01
-1.243574523925781250e+01 4.612278044223785400e-01 1.324933022260665894e-01
-7.440991401672363281e+00 7.021088153123855591e-03 9.090894833207130432e-03
-7.242243289947509766e+00 8.399576544761657715e-01 2.163855880498886108e-01
-1.259452056884765625e+01 5.445204973220825195e-01 1.342180073261260986e-01
-7.472807884216308594e+00 5.290456488728523254e-02 9.129989892244338989e-03
-1.255898284912109375e+01 6.202105283737182617e-01 1.338773220777511597e-01
-7.375350952148437500e+00 9.747399389743804932e-02 9.011481888592243195e-03
-1.260386276245117188e+01 6.999762654304504395e-01 1.343989819288253784e-01
-7.425604343414306641e+00 1.437133252620697021e-01 9.073791094124317169e-03
-1.266121006011962891e+01 7.811164855957031250e-01 1.350590586662292480e-01
-7.433579921722412109e+00 1.895026266574859619e-01 9.084786288440227509e-03
-7.226345062255859375e+00 7.533832788467407227e-01 1.471163183450698853e-01
-1.264819717407226562e+01 8.582479357719421387e-01 1.349738836288452148e-01
-7.456264972686767578e+00 2.358694821596145630e-01 9.114108048379421234e-03
-7.193761348724365234e+00 7.946355342864990234e-01 1.465494781732559204e-01
-1.231959533691406250e+01 9.119232892990112305e-01 1.315244883298873901e-01
-7.505640983581542969e+00 2.835410535335540771e-01 9.176415391266345978e-03
-7.187757015228271484e+00 8.386448025703430176e-01 1.465292423963546753e-01
-1.266661453247070312e+01 1.015794157981872559e+00 1.352932751178741455e-01
-7.504759311676025391e+00 3.296333849430084229e-01 9.177637286484241486e-03
-1.246288871765136719e+01 1.076458454132080078e+00 1.331853121519088745e-01
-7.479623794555664062e+00 3.745252490043640137e-01 9.149537421762943268e-03
-1.205677890777587891e+01 1.115953207015991211e+00 1.289161443710327148e-01
-7.534095287322998047e+00 4.236121475696563721e-01 9.219176135957241058e-03
-1.204074859619140625e+01 1.189026832580566406e+00 1.288203299045562744e-01
-7.539338588714599609e+00 4.703306257724761963e-01 9.228950366377830505e-03
-7.216952800750732422e+00 7.574179768562316895e-01 7.726025581359863281e-02
-7.520348548889160156e+00 5.154881477355957031e-01 9.209402836859226227e-03
-8.599188804626464844e+00 1.591097474098205566e+00 2.595499753952026367e-01
-7.201237201690673828e+00 8.004708886146545410e-01 7.714314758777618408e-02
-7.442252159118652344e+00 5.560344457626342773e-01 9.117772802710533142e-03
-7.187252044677734375e+00 8.435927033424377441e-01 7.704733312129974365e-02
-7.393846511840820312e+00 5.980607867240905762e-01 9.062794968485832214e-03
-1.233940124511718750e+01 1.525131344795227051e+00 1.323761940002441406e-01
-7.376090526580810547e+00 6.422029733657836914e-01 9.045690298080444336e-03
-1.221180820465087891e+01 1.585495114326477051e+00 1.311092823743820190e-01
-7.332184314727783203e+00 6.837357878684997559e-01 8.996821008622646332e-03
-1.229994010925292969e+01 1.673743367195129395e+00 1.321632713079452515e-01
-7.277101039886474609e+00 7.236655950546264648e-01 8.934512734413146973e-03
-8.606803894042968750e+00 1.544053316116333008e+00 1.770578473806381226e-01
-1.218450260162353516e+01 1.734247088432312012e+00 1.310347616672515869e-01
-7.201917171478271484e+00 7.608442306518554688e-01 8.847770281136035919e-03
-7.249934196472167969e+00 8.083659410476684570e-01 2.738651633262634277e-01
-8.562763214111328125e+00 1.590444445610046387e+00 1.763492971658706665e-01
-1.216670799255371094e+01 1.807948350906372070e+00 1.309602260589599609e-01
-7.181211948394775391e+00 8.032414317131042480e-01 8.828222751617431641e-03
-1.225321388244628906e+01 1.897718906402587891e+00 1.320142149925231934e-01
-7.178134441375732422e+00 8.475238680839538574e-01 8.830665610730648041e-03
-1.209128379821777344e+01 1.948683857917785645e+00 1.303959786891937256e-01
-7.191653728485107422e+00 8.938957452774047852e-01 8.853878825902938843e-03
-1.478574752807617188e+01 3.589855909347534180e+00 4.515796005725860596e-01
-1.137395954132080078e+01 1.904751062393188477e+00 1.227838695049285889e-01
-7.224705696105957031e+00 9.430540204048156738e-01 8.901526220142841339e-03
-1.138570213317871094e+01 1.978613376617431641e+00 1.230393722653388977e-01
-7.411984443664550781e+00 1.013791799545288086e+00 9.139764122664928436e-03
-8.590287208557128906e+00 1.547184467315673828e+00 9.293162077665328979e-02
-7.451160907745361328e+00 1.065765023231506348e+00 9.195963852107524872e-03
-8.545244216918945312e+00 1.593266248703002930e+00 9.254835546016693115e-02
-7.450415134429931641e+00 1.112350344657897949e+00 9.203294292092323303e-03
-8.507814407348632812e+00 1.640368103981018066e+00 9.225025027990341187e-02
-7.498784065246582031e+00 1.166653156280517578e+00 9.271710179746150970e-03
-1.159947967529296875e+01 2.310371398925781250e+00 1.259245276451110840e-01
-7.480626106262207031e+00 1.210885167121887207e+00 9.258272126317024231e-03
-1.474789905548095703e+01 3.591400861740112305e+00 3.073510527610778809e-01
-1.163993549346923828e+01 2.392776012420654297e+00 1.265207231044769287e-01
-7.450373649597167969e+00 1.252948284149169922e+00 9.230172261595726013e-03
-1.105962944030761719e+01 2.344303846359252930e+00 1.203671544790267944e-01
-7.440575122833251953e+00 1.298295497894287109e+00 9.227728471159934998e-03
-1.163118743896484375e+01 2.540129423141479492e+00 1.267549395561218262e-01
-7.477735042572021484e+00 1.352110505104064941e+00 9.283928200602531433e-03
-8.567660331726074219e+00 1.600443840026855469e+00 3.272125720977783203e-01
-1.166416168212890625e+01 2.622416257858276367e+00 1.272872537374496460e-01
-7.453570365905761719e+00 1.395024061203002930e+00 9.264379739761352539e-03
-1.148125934600830078e+01 2.655406951904296875e+00 1.254667341709136963e-01
-7.462542533874511719e+00 1.444151997566223145e+00 9.286371059715747833e-03
-1.115052700042724609e+01 2.651096582412719727e+00 1.220279857516288757e-01
-7.482959270477294922e+00 1.495794534683227539e+00 9.323023259639739990e-03
-1.129335784912109375e+01 2.758375406265258789e+00 1.237739697098731995e-01
-7.521629810333251953e+00 1.551580309867858887e+00 9.382887743413448334e-03
-1.138970088958740234e+01 2.856074571609497070e+00 1.250195950269699097e-01
-7.425893306732177734e+00 1.579396009445190430e+00 9.275375865399837494e-03
-1.061176395416259766e+01 2.730314493179321289e+00 1.166622340679168701e-01
-7.401410102844238281e+00 1.621720194816589355e+00 9.257049299776554108e-03
-1.100185871124267578e+01 2.902772426605224609e+00 1.211443394422531128e-01
-7.403026103973388672e+00 1.669744133949279785e+00 9.271710179746150970e-03
-1.128500556945800781e+01 3.051664352416992188e+00 1.244659870862960815e-01
-7.445243835449218750e+00 1.727340936660766602e+00 9.337684139609336853e-03
-1.130654239654541016e+01 3.132062196731567383e+00 1.249131336808204651e-01
-7.457850456237792969e+00 1.778559088706970215e+00 9.367005899548530579e-03
-1.129673099517822266e+01 3.204107284545898438e+00 1.250195950269699097e-01
-7.443883419036865234e+00 1.823572278022766113e+00 9.363340213894844055e-03
-1.127109622955322266e+01 3.271689891815185547e+00 1.249557137489318848e-01
-7.462617397308349609e+00 1.876773476600646973e+00 9.401214309036731720e-03
-1.123643016815185547e+01 3.336516857147216797e+00 1.247960180044174194e-01
-7.416103363037109375e+00 1.913533687591552734e+00 9.357231669127941132e-03
-1.067993259429931641e+01 3.242712020874023438e+00 1.188340857625007629e-01
-7.406155586242675781e+00 1.959513545036315918e+00 9.359675459563732147e-03
-1.110295963287353516e+01 3.445701599121093750e+00 1.237739697098731995e-01
-7.449006557464599609e+00 2.019837141036987305e+00 9.429314173758029938e-03
-1.109781169891357422e+01 3.518901109695434570e+00 1.239549592137336731e-01
-7.434545993804931641e+00 2.064970254898071289e+00 9.426870383322238922e-03
-1.496000385284423828e+01 6.054677009582519531e+00 4.756029129028320312e+00
-1.122251224517822266e+01 3.634373664855957031e+00 1.255944967269897461e-01
-7.516960144042968750e+00 2.137628078460693359e+00 9.547822177410125732e-03
-1.115347957611083984e+01 3.687783479690551758e+00 1.250728219747543335e-01
-7.533467292785644531e+00 2.192373275756835938e+00 9.585695341229438782e-03
-1.113253784179687500e+01 3.756790399551391602e+00 1.250941157341003418e-01
-7.527541160583496094e+00 2.240839004516601562e+00 9.595469571650028229e-03
-1.054539775848388672e+01 4.506493091583251953e+00 3.403608202934265137e-01
-1.112724113464355469e+01 3.831212759017944336e+00 1.252963989973068237e-01
-7.510779380798339844e+00 2.286111354827880859e+00 9.591803885996341705e-03
-1.055421638488769531e+01 4.587050914764404297e+00 3.415474891662597656e-01
-1.110446643829345703e+01 3.899747133255004883e+00 1.253070384263992310e-01
-7.483242988586425781e+00 2.327994823455810547e+00 9.574700146913528442e-03
-1.088451671600341797e+01 3.897690057754516602e+00 1.230926066637039185e-01
-7.557448387145996094e+00 2.402037620544433594e+00 9.688320569694042206e-03
-1.487840747833251953e+01 6.665954113006591797e+00 4.140544891357421875e+00
-1.091393756866455078e+01 3.983947277069091797e+00 1.236994490027427673e-01
-7.524495601654052734e+00 2.442497730255126953e+00 9.665107354521751404e-03
-1.471608638763427734e+01 6.088175296783447266e+00 3.224736452102661133e-01
-1.095020580291748047e+01 4.073500633239746094e+00 1.243914663791656494e-01
-7.725791454315185547e+00 2.560344696044921875e+00 9.943662211298942566e-03
-1.485630226135253906e+01 6.253215789794921875e+00 3.263808488845825195e-01
-1.053135299682617188e+01 3.991417646408081055e+00 1.199093610048294067e-01
-7.558371543884277344e+00 2.556437969207763672e+00 9.748185984790325165e-03
-1.056224155426025391e+01 4.522278308868408203e+00 2.326490730047225952e-01
-1.078558444976806641e+01 4.163635730743408203e+00 1.230926066637039185e-01
-7.573737621307373047e+00 2.613531589508056641e+00 9.788502007722854614e-03
-1.487513637542724609e+01 6.433964252471923828e+00 4.592218875885009766e+00
-1.050954437255859375e+01 4.576224803924560547e+00 2.321024686098098755e-01
-1.077751541137695312e+01 4.236687183380126953e+00 1.232948899269104004e-01
-7.532090663909912109e+00 2.650990247726440430e+00 9.755516424775123596e-03
-1.057028770446777344e+01 4.230288028717041016e+00 1.212188601493835449e-01
-7.542037010192871094e+00 2.706614255905151367e+00 9.789724834263324738e-03
-1.441036415100097656e+01 6.443992614746093750e+00 4.472812652587890625e+00
-1.486520481109619141e+01 6.691020488739013672e+00 3.300855457782745361e-01
-1.074138355255126953e+01 4.375415325164794922e+00 1.234865263104438782e-01
-7.096102714538574219e+00 2.595839262008666992e+00 9.231393225491046906e-03
-1.436354541778564453e+01 6.529105663299560547e+00 4.470631599426269531e+00
-1.495374202728271484e+01 6.137454986572265625e+00 4.409909725189208984e+00
-1.477114009857177734e+01 6.757981300354003906e+00 3.289113938808441162e-01
-1.066445159912109375e+01 4.420563697814941406e+00 1.229116171598434448e-01
-7.512939929962158203e+00 2.800709247589111328e+00 9.795833379030227661e-03
-1.452497386932373047e+01 6.710326671600341797e+00 4.533606052398681641e+00
-1.498880004882812500e+01 6.259579181671142578e+00 4.431491374969482422e+00
-1.448189544677734375e+01 6.733411788940429688e+00 3.233846426010131836e-01
-1.061870002746582031e+01 4.478145599365234375e+00 1.226986944675445557e-01
-7.655472278594970703e+00 2.907467842102050781e+00 1.000474859029054642e-02
-1.484000682830810547e+01 6.304655075073242188e+00 4.398855209350585938e+00
-1.440505123138427734e+01 6.805488109588623047e+00 3.225950896739959717e-01
-1.055150794982910156e+01 4.526265144348144531e+00 1.222409009933471680e-01
-7.623498916625976562e+00 2.948974609375000000e+00 9.986422955989837646e-03
-1.426567649841308594e+01 6.847025394439697266e+00 3.204087018966674805e-01
-1.054003429412841797e+01 4.598120212554931641e+00 1.224325448274612427e-01
-7.627590179443359375e+00 3.004491567611694336e+00 1.001574378460645676e-02
-1.448948478698730469e+01 6.366755485534667969e+00 4.317789554595947266e+00
-1.427731704711914062e+01 6.960717201232910156e+00 3.216233849525451660e-01
-1.057103538513183594e+01 4.689060211181640625e+00 1.231245473027229309e-01
-7.620149612426757812e+00 3.055703401565551758e+00 1.003040466457605362e-02
-1.443781471252441406e+01 6.450032234191894531e+00 4.314105033874511719e+00
-1.055118083953857422e+01 4.757945537567138672e+00 1.232310160994529724e-01
-7.595701694488525391e+00 3.100135087966918945e+00 1.002307515591382980e-02
-1.455783557891845703e+01 6.611100196838378906e+00 4.362007141113281250e+00
-1.481660366058349609e+01 6.077959060668945312e+00 4.210363864898681641e+00
-1.041452503204345703e+01 4.773433208465576172e+00 1.219747513532638550e-01
-7.562683582305908203e+00 3.140929698944091797e+00 1.000474859029054642e-02
-1.463700199127197266e+01 6.755689144134521484e+00 4.398065567016601562e+00
-1.495307064056396484e+01 6.241402149200439453e+00 4.259945869445800781e+00
-1.342015647888183594e+01 6.851377964019775391e+00 3.051039278507232666e-01
-1.032884025573730469e+01 4.811068534851074219e+00 1.213146746158599854e-01
-7.615118503570556641e+00 3.217633008956909180e+00 1.010004337877035141e-02
-1.045458412170410156e+01 4.947929859161376953e+00 1.231458410620689392e-01
-7.462933063507080078e+00 3.207438230514526367e+00 9.924114681780338287e-03
-1.062409114837646484e+01 5.108177661895751953e+00 1.255093216896057129e-01
-7.419288635253906250e+00 3.242756843566894531e+00 9.892349131405353546e-03
-1.035983371734619141e+01 5.059614658355712891e+00 1.227519288659095764e-01
-7.461391448974609375e+00 3.315834760665893555e+00 9.975426830351352692e-03
-1.486074447631835938e+01 6.635668754577636719e+00 4.278760910034179688e+00
-1.042086029052734375e+01 5.168851852416992188e+00 1.238484978675842285e-01
-7.710656166076660156e+00 3.483418703079223633e+00 1.033705938607454300e-02
-1.471230888366699219e+01 6.677959918975830078e+00 4.247740745544433594e+00
-1.059971046447753906e+01 5.338851928710937500e+00 1.263610273599624634e-01
-7.533736228942871094e+00 3.459308624267578125e+00 1.012814324349164963e-02
-1.489235973358154297e+01 6.870199680328369141e+00 4.311815261840820312e+00
-1.200635623931884766e+01 6.697755813598632812e+00 2.783812582492828369e-01
-1.055873966217041016e+01 5.399692535400390625e+00 1.262652128934860229e-01
-7.606613159179687500e+00 3.549446582794189453e+00 1.025520358234643936e-02
-1.487444400787353516e+01 6.972942352294921875e+00 4.318934440612792969e+00
-3.075005769729614258e+00 1.890022635459899902e+00 1.071248129010200500e-01
-1.188063144683837891e+01 6.723534107208251953e+00 2.764175236225128174e-01
-1.076236438751220703e+01 5.587395668029785156e+00 1.291077733039855957e-01
-7.601859092712402344e+00 3.604192733764648438e+00 1.027841586619615555e-02
-3.049777507781982422e+00 1.900397062301635742e+00 1.066501587629318237e-01
-1.187383651733398438e+01 6.816215991973876953e+00 2.772273123264312744e-01
-1.074910926818847656e+01 5.664515495300292969e+00 1.293632835149765015e-01
-7.596718788146972656e+00 3.659013986587524414e+00 1.030162908136844635e-02
-3.067637205123901367e+00 1.937757968902587891e+00 1.076884716749191284e-01
-1.075911903381347656e+01 5.754415512084960938e+00 1.299062520265579224e-01
-7.580412387847900391e+00 3.708634138107299805e+00 1.031018141657114029e-02
-1.070691013336181641e+01 5.811260700225830078e+00 1.297039687633514404e-01
-7.553931713104248047e+00 3.753297090530395508e+00 1.030529476702213287e-02
-1.035485267639160156e+01 5.702708244323730469e+00 1.258606463670730591e-01
-7.516475200653076172e+00 3.792369127273559570e+00 1.028574723750352859e-02
-3.096239566802978516e+00 1.879907250404357910e+00 7.334559410810470581e-02
-9.722588539123535156e+00 5.432518482208251953e+00 1.185785755515098572e-01
-7.472594261169433594e+00 3.827931880950927734e+00 1.025764737278223038e-02
-3.089754819869995117e+00 1.902014732360839844e+00 7.346706092357635498e-02
-1.055550479888916016e+01 5.983194351196289062e+00 1.291822940111160278e-01
-7.464934825897216797e+00 3.882015466690063477e+00 1.027963869273662567e-02
-3.065303325653076172e+00 1.912997364997863770e+00 7.316339761018753052e-02
-1.006522083282470703e+01 5.787174224853515625e+00 1.236142814159393311e-01
-7.430362701416015625e+00 3.922144651412963867e+00 1.026497781276702881e-02
-3.035764694213867188e+00 1.920544743537902832e+00 7.273826003074645996e-02
-1.026793003082275391e+01 5.987854480743408203e+00 1.265526711940765381e-01
-7.414971828460693359e+00 3.972384929656982422e+00 1.027719490230083466e-02
-1.034030246734619141e+01 6.115390300750732422e+00 1.279047429561614990e-01
-7.449321269989013672e+00 4.049808502197265625e+00 1.035905070602893829e-02
-7.465485572814941406e+00 4.118141651153564453e+00 1.041647139936685562e-02
-4.430751800537109375e+00 3.153866052627563477e+00 1.614140421152114868e-01
-7.457529544830322266e+00 4.173639297485351562e+00 1.044090650975704193e-02
-3.130050182342529297e+00 1.927526354789733887e+00 1.727101653814315796e-01
-4.327808856964111328e+00 3.120775938034057617e+00 1.583584249019622803e-01
-3.090607404708862305e+00 1.905469655990600586e+00 3.865674510598182678e-02
-7.220462322235107422e+00 4.099345684051513672e+00 1.014402601867914200e-02
-3.120706081390380859e+00 1.948282718658447266e+00 1.728509664535522461e-01
-3.054267168045043945e+00 1.909027695655822754e+00 3.834800049662590027e-02
-7.419616222381591797e+00 4.272825241088867188e+00 1.046045403927564621e-02
-3.081682920455932617e+00 1.950300574302673340e+00 1.713491529226303101e-01
-7.367354393005371094e+00 4.303140163421630859e+00 1.042380277067422867e-02
-1.030424404144287109e+01 6.617747306823730469e+00 1.303853392601013184e-01
-7.327906131744384766e+00 4.340619564056396484e+00 1.040547620505094528e-02
-4.407216072082519531e+00 3.101071596145629883e+00 1.091175153851509094e-01
-1.025171184539794922e+01 6.673211097717285156e+00 1.302362829446792603e-01
-3.152081012725830078e+00 1.893329620361328125e+00 4.492301959544420242e-03
-3.113253355026245117e+00 1.894609093666076660e+00 1.368200331926345825e-01
-4.390547275543212891e+00 3.129796266555786133e+00 1.091782450675964355e-01
-1.010456943511962891e+01 6.666057586669921875e+00 1.288842111825942993e-01
-3.118198633193969727e+00 1.899110555648803711e+00 4.460537340492010117e-03
-3.123681068420410156e+00 1.927318930625915527e+00 1.377954334020614624e-01
-4.363155364990234375e+00 3.150824069976806641e+00 1.089758053421974182e-01
-1.021809482574462891e+01 6.831302165985107422e+00 1.308644115924835205e-01
-3.082663059234619141e+00 1.903496623039245605e+00 4.426328465342521667e-03
-3.103324413299560547e+00 1.941149830818176270e+00 1.374202817678451538e-01
-1.031920528411865234e+01 6.990896224975585938e+00 1.327062249183654785e-01
-3.076858520507812500e+00 1.926089882850646973e+00 4.434880800545215607e-03
-3.079540252685546875e+00 1.952663302421569824e+00 1.368950605392456055e-01
-3.065826892852783203e+00 1.945468783378601074e+00 4.436102695763111115e-03
-3.057196140289306641e+00 1.966407537460327148e+00 4.440989345312118530e-03
-4.446606159210205078e+00 3.133358955383300781e+00 5.791591107845306396e-02
-7.299798011779785156e+00 4.758848667144775391e+00 1.064615789800882339e-02
-4.395556926727294922e+00 3.137925386428833008e+00 5.750070512294769287e-02
-7.308006286621093750e+00 4.828355789184570312e+00 1.070113573223352432e-02
-4.368927955627441406e+00 3.159563302993774414e+00 5.740489065647125244e-02
-7.287382602691650391e+00 4.879225730895996094e+00 1.071457378566265106e-02
-4.337359428405761719e+00 3.177447080612182617e+00 5.724519863724708557e-02
-7.210966587066650391e+00 4.892407894134521484e+00 1.064615789800882339e-02
-7.165977954864501953e+00 4.926363945007324219e+00 1.062416564673185349e-02
-4.436783790588378906e+00 3.090397119522094727e+00 6.605895236134529114e-03
-4.435713291168212891e+00 3.130247354507446289e+00 6.632773671299219131e-03
-4.446129798889160156e+00 3.176299095153808594e+00 2.051362693309783936e-01
-4.406661033630371094e+00 3.150426387786865234e+00 6.618112791329622269e-03
-4.403079986572265625e+00 3.186529874801635742e+00 2.040482908487319946e-01
-4.370239734649658203e+00 3.165088176727294922e+00 6.592456251382827759e-03
-4.349123954772949219e+00 3.190660715103149414e+00 6.590012460947036743e-03
-6.461472988128662109e+00 5.988955974578857422e+00 2.614782750606536865e-01
-7.171628952026367188e+00 5.329339027404785156e+00 1.091615948826074600e-02
-7.146783351898193359e+00 5.379256725311279297e+00 1.092837750911712646e-02
-7.111256599426269531e+00 5.421188354492187500e+00 1.092471182346343994e-02
-7.184715747833251953e+00 5.547222614288330078e+00 1.108964532613754272e-02
-7.104852199554443359e+00 5.555476188659667969e+00 1.101878471672534943e-02
-6.460899829864501953e+00 5.923306941986083984e+00 1.774829775094985962e-01
-7.085526466369628906e+00 5.610761165618896484e+00 1.104199700057506561e-02
-6.433960437774658203e+00 5.971680641174316406e+00 1.777461618185043335e-01
-7.029121875762939453e+00 5.636614799499511719e+00 1.100778952240943909e-02
-6.990522384643554688e+00 5.676486968994140625e+00 1.100168004631996155e-02
-7.018126010894775391e+00 5.770718097686767578e+00 1.110064052045345306e-02
-6.997955799102783203e+00 5.826468944549560547e+00 1.112507563084363937e-02
-7.014827728271484375e+00 5.913771629333496094e+00 1.120937429368495941e-02
-6.462205410003662109e+00 5.932682514190673828e+00 9.340006113052368164e-02
-6.954831123352050781e+00 5.936576366424560547e+00 1.117150112986564636e-02
-6.442527294158935547e+00 5.987879276275634766e+00 9.364492446184158325e-02
-6.904655456542968750e+00 5.967369079589843750e+00 1.114950980991125107e-02
-6.351046562194824219e+00 5.975904941558837891e+00 9.284645318984985352e-02
-6.865652561187744141e+00 6.007647037506103516e+00 1.114584412425756454e-02
-6.883302211761474609e+00 6.098068714141845703e+00 1.123503036797046661e-02
-6.847245216369628906e+00 6.141524791717529297e+00 1.123747508972883224e-02
-6.622872352600097656e+00 6.014013767242431641e+00 1.092959847301244736e-02
-6.479836463928222656e+00 5.957080364227294922e+00 1.075366884469985962e-02
-6.426326751708984375e+00 5.981058120727539062e+00 1.072556991130113602e-02
-6.387322902679443359e+00 6.018319129943847656e+00 1.072190422564744949e-02
-6.562288761138916016e+00 6.259633541107177734e+00 1.107987109571695328e-02
-6.709348201751708984e+00 6.479001045227050781e+00 1.139507815241813660e-02
-6.672327995300292969e+00 6.522842884063720703e+00 1.139996480196714401e-02
-6.659899234771728516e+00 6.591094493865966797e+00 1.144761312752962112e-02
-6.603083133697509766e+00 6.615555763244628906e+00 1.141951233148574829e-02
