-3.232390386983752251e-03 -7.192274928092956543e-01 7.369138300418853760e-02
-3.639346221461892128e-03 -7.268581390380859375e-01 6.755739450454711914e-02
-4.031306505203247070e-02 -6.742598414421081543e-01 6.920670717954635620e-02
-2.199777588248252869e-02 -7.355003356933593750e-01 4.152573645114898682e-02
-1.626110449433326721e-02 -7.160471081733703613e-01 1.124150529503822327e-01
-6.946928054094314575e-02 -6.719535589218139648e-01 4.451373219490051270e-02
-6.196714937686920166e-02 -7.292176485061645508e-01 6.802011281251907349e-02
-3.495157510042190552e-02 -7.153565883636474609e-01 3.365032374858856201e-02
-9.462492167949676514e-02 -7.327641844749450684e-01 1.496063917875289917e-02
-1.026285216212272644e-01 -7.246184349060058594e-01 1.481892820447683334e-02
-1.083315089344978333e-01 -7.019058465957641602e-01 3.336873278021812439e-02
-1.129911765456199646e-01 -7.262625098228454590e-01 8.979716803878545761e-04
-1.247931271791458130e-01 -7.151936292648315430e-01 8.869761368259787560e-04
-7.752714157104492188e-01 -2.261765718460083008e+00 7.096166163682937622e-02
-7.827720642089843750e-01 -2.240023374557495117e+00 1.563569307327270508e-01
-7.858356833457946777e-01 -2.247530698776245117e+00 7.066500186920166016e-02
-7.971717715263366699e-01 -2.237058162689208984e+00 1.564884483814239502e-01
-7.895407080650329590e-01 -2.214421033859252930e+00 6.977500766515731812e-02
-8.112238049507141113e-01 -2.233062505722045898e+00 1.565541923046112061e-01
-8.058450222015380859e-01 -2.217050552368164062e+00 7.001233845949172974e-02
-8.276820182800292969e-01 -2.235528945922851562e+00 1.570802032947540283e-01
-8.163084387779235840e-01 -2.203628301620483398e+00 6.974533945322036743e-02
-8.234216570854187012e-01 -2.182793855667114258e+00 1.537268757820129395e-01
-8.255788087844848633e-01 -2.187356233596801758e+00 6.938935071229934692e-02
-8.447236418724060059e-01 -2.197176933288574219e+00 6.986400485038757324e-02
-7.705116271972656250e-01 -2.242853403091430664e+00 4.801980778574943542e-02
-7.906395196914672852e-01 -2.258817911148071289e+00 1.350572407245635986e-01
-8.556385040283203125e-01 -2.185436964035034180e+00 6.965634226799011230e-02
-7.819445133209228516e-01 -2.231478214263916016e+00 4.787809029221534729e-02
-8.021351099014282227e-01 -2.247341871261596680e+00 1.346628367900848389e-01
-7.956218719482421875e-01 -2.226638317108154297e+00 4.787809029221534729e-02
-8.182991743087768555e-01 -2.248945474624633789e+00 1.350572407245635986e-01
-8.085849881172180176e-01 -2.219835996627807617e+00 4.783760756254196167e-02
-8.230574727058410645e-01 -2.219542980194091797e+00 1.335922926664352417e-01
-8.183630108833312988e-01 -2.204522371292114258e+00 4.761491343379020691e-02
-8.253690004348754883e-01 -2.184563875198364258e+00 1.317892819643020630e-01
-8.283373713493347168e-01 -2.190108060836791992e+00 4.741246998310089111e-02
-7.631879448890686035e-01 -2.261563062667846680e+00 2.541273646056652069e-02
-7.727845311164855957e-01 -2.248272180557250977e+00 1.116984263062477112e-01
-8.414006829261779785e-01 -2.184051275253295898e+00 4.739222675561904907e-02
-7.663075923919677734e-01 -2.225637197494506836e+00 2.506140805780887604e-02
-7.849126458168029785e-01 -2.238774776458740234e+00 1.114637628197669983e-01
-7.835940122604370117e-01 -2.231271266937255859e+00 2.517851628363132477e-02
-2.161645889282226562e+00 -6.948521137237548828e+00 8.890531025826931000e-03
-8.033418655395507812e-01 -2.249560117721557617e+00 1.993250995874404907e-01
-8.093953132629394531e-01 -2.264015674591064453e+00 1.129655912518501282e-01
-7.962588667869567871e-01 -2.223597288131713867e+00 2.514657936990261078e-02
-2.133360624313354492e+00 -6.712119579315185547e+00 8.604645729064941406e-03
-8.270158171653747559e-01 -2.271744728088378906e+00 2.017366290092468262e-01
-8.123267889022827148e-01 -2.228974103927612305e+00 1.114637628197669983e-01
-8.047443032264709473e-01 -2.204579830169677734e+00 2.498688548803329468e-02
-8.159816265106201172e-01 -2.199357271194458008e+00 1.957494020462036133e-01
-8.245970606803894043e-01 -2.220202445983886719e+00 1.112760379910469055e-01
-8.126779794692993164e-01 -2.184605121612548828e+00 2.481654286384582520e-02
-8.261846899986267090e-01 -2.183336496353149414e+00 1.096803471446037292e-01
-8.274846673011779785e-01 -2.183317661285400391e+00 2.485912851989269257e-02
-7.519689202308654785e-01 -2.223273277282714844e+00 2.867400879040360451e-03
-7.753559947013854980e-01 -2.249445676803588867e+00 8.932505548000335693e-02
-8.365443944931030273e-01 -2.167005300521850586e+00 2.473137341439723969e-02
-7.770135998725891113e-01 -2.251703023910522461e+00 2.910161623731255531e-03
-7.754765152931213379e-01 -2.209467411041259766e+00 1.731893718242645264e-01
-7.911323308944702148e-01 -2.250302076339721680e+00 8.955015242099761963e-02
-7.815192341804504395e-01 -2.220480918884277344e+00 2.875952981412410736e-03
-8.061569929122924805e-01 -2.252554416656494141e+00 1.769511699676513672e-01
-8.005412817001342773e-01 -2.233176708221435547e+00 8.906244486570358276e-02
-7.947913408279418945e-01 -2.214702844619750977e+00 2.874731319025158882e-03
-8.124437332153320312e-01 -2.226953983306884766e+00 1.753284335136413574e-01
-8.121708631515502930e-01 -2.222590923309326172e+00 8.883735537528991699e-02
-8.138623237609863281e-01 -2.224810361862182617e+00 2.894279081374406815e-03
-8.320008516311645508e-01 -2.237818002700805664e+00 1.765823513269424438e-01
-8.198647499084472656e-01 -2.201645851135253906e+00 8.819958567619323730e-02
-8.159711956977844238e-01 -2.188853502273559570e+00 2.853961894288659096e-03
-8.383209109306335449e-01 -2.209654092788696289e+00 8.872480690479278564e-02
-8.286762833595275879e-01 -2.181935787200927734e+00 2.851518336683511734e-03
-8.413271903991699219e-01 -2.174944639205932617e+00 2.849074779078364372e-03
-2.674283504486083984e+00 -6.789281368255615234e+00 8.914965204894542694e-03
-2.680905342102050781e+00 -6.685498237609863281e+00 8.800122886896133423e-03
-2.703360080718994141e+00 -6.623555660247802734e+00 8.740258403122425079e-03
-2.732444047927856445e+00 -6.579138278961181641e+00 8.703606203198432922e-03
-2.711265563964843750e+00 -6.416707038879394531e+00 8.510572835803031921e-03
-2.729659080505371094e+00 -6.351256847381591797e+00 8.445820771157741547e-03
-2.811030149459838867e+00 -6.431516647338867188e+00 8.575324900448322296e-03
-2.876836776733398438e+00 -6.473545551300048828e+00 8.654736913740634918e-03
-2.921032428741455078e+00 -6.465796470642089844e+00 8.668175898492336273e-03
-2.955226182937622070e+00 -6.435937404632568359e+00 8.652293123304843903e-03
-2.917701005935668945e+00 -6.252755641937255859e+00 8.429937995970249176e-03
-3.033554077148437500e+00 -6.398283958435058594e+00 8.651072159409523010e-03
-3.016343355178833008e+00 -6.262427806854248047e+00 8.492246270179748535e-03
-3.026586532592773438e+00 -6.186314105987548828e+00 8.414056152105331421e-03
-3.085401535034179688e+00 -6.209717273712158203e+00 8.471477776765823364e-03
-3.044165611267089844e+00 -6.033535957336425781e+00 8.256453089416027069e-03
-3.146326541900634766e+00 -6.142016410827636719e+00 8.431160822510719299e-03
-3.116592884063720703e+00 -5.993063449859619141e+00 8.252787403762340546e-03
-3.120163679122924805e+00 -5.911038398742675781e+00 8.166044950485229492e-03
-3.163457632064819336e+00 -5.905004024505615234e+00 8.184370584785938263e-03
-3.252647399902343750e+00 -5.983002662658691406e+00 8.319983258843421936e-03
-3.333250999450683594e+00 -6.042613029479980469e+00 8.431160822510719299e-03
-3.356590509414672852e+00 -5.997612953186035156e+00 8.396951481699943542e-03
-3.384441137313842773e+00 -5.961251735687255859e+00 8.374961093068122864e-03
-3.420954942703247070e+00 -5.940372943878173828e+00 8.374961093068122864e-03
-3.463896751403808594e+00 -5.930495738983154297e+00 8.390843868255615234e-03
-3.508883953094482422e+00 -5.923756599426269531e+00 8.411612361669540405e-03
-3.555463790893554688e+00 -5.919259548187255859e+00 8.436047472059726715e-03
-3.445030927658081055e+00 -5.656485557556152344e+00 8.091518655419349670e-03
-3.510146617889404297e+00 -5.684590339660644531e+00 8.162379264831542969e-03
-3.473859786987304688e+00 -5.549364566802978516e+00 7.998667657375335693e-03
-3.535705804824829102e+00 -5.571851253509521484e+00 8.062197826802730560e-03
-3.509780406951904297e+00 -5.456695556640625000e+00 7.926586084067821503e-03
-3.549203157424926758e+00 -5.444272041320800781e+00 7.940024137496948242e-03
-3.613962888717651367e+00 -5.469949722290039062e+00 8.009662851691246033e-03
-3.665261030197143555e+00 -5.474261760711669922e+00 8.048758842051029205e-03
-3.701588869094848633e+00 -5.455807209014892578e+00 8.054867386817932129e-03
-3.737828016281127930e+00 -5.437112331390380859e+00 8.060975931584835052e-03
-3.777977466583251953e+00 -5.423921108245849609e+00 8.075636811554431915e-03
-3.814646482467651367e+00 -5.405540466308593750e+00 8.082967251539230347e-03
-3.722120761871337891e+00 -5.206318855285644531e+00 7.819073274731636047e-03
-3.812065601348876953e+00 -5.263562679290771484e+00 7.940024137496948242e-03
-3.844290494918823242e+00 -5.240073204040527344e+00 7.940024137496948242e-03
-3.916333436965942383e+00 -5.270164012908935547e+00 8.021880872547626495e-03
-3.879439115524291992e+00 -5.154152870178222656e+00 7.881381548941135406e-03
-3.857034444808959961e+00 -5.059473991394042969e+00 7.772647775709629059e-03
-3.935674190521240234e+00 -5.097451686859130859e+00 7.867942564189434052e-03
-3.968725204467773438e+00 -5.075570106506347656e+00 7.871608249843120575e-03
-3.915365219116210938e+00 -4.944502830505371094e+00 7.705452386289834976e-03
-3.944379329681396484e+00 -4.918825149536132812e+00 7.703009061515331268e-03
-4.074715137481689453e+00 -5.017961025238037109e+00 7.897264324128627777e-03
-4.096536636352539062e+00 -4.982050895690917969e+00 7.880159653723239899e-03
-4.159021377563476562e+00 -4.995246410369873047e+00 7.941246964037418365e-03
-4.069061756134033203e+00 -4.826660156250000000e+00 7.712782826274633408e-03
-4.123920917510986328e+00 -4.831264972686767578e+00 7.760430220514535904e-03
-4.128639698028564453e+00 -4.777119636535644531e+00 7.714004255831241608e-03
-4.157873630523681641e+00 -4.751697063446044922e+00 7.714004255831241608e-03
-4.232707023620605469e+00 -4.777742385864257812e+00 7.798304315656423569e-03
-4.261942863464355469e+00 -4.751681327819824219e+00 7.798304315656423569e-03
-4.075896263122558594e+00 -4.488539695739746094e+00 7.407350465655326843e-03
-4.242778778076171875e+00 -4.615098953247070312e+00 7.659026887267827988e-03
-4.286686420440673828e+00 -4.605814933776855469e+00 7.687126751989126205e-03
-4.097477436065673828e+00 -4.348707675933837891e+00 7.299838121980428696e-03
-4.299399852752685547e+00 -4.507277011871337891e+00 7.610157132148742676e-03
-4.356844902038574219e+00 -4.511743545532226562e+00 7.662692107260227203e-03
-4.377455711364746094e+00 -4.477774620056152344e+00 7.650474552065134048e-03
-4.440723419189453125e+00 -4.487080097198486328e+00 7.712782826274633408e-03
-8.077030181884765625e+00 -6.973366260528564453e+00 2.160688787698745728e-01
-4.476665496826171875e+00 -4.468225002288818359e+00 7.727443706244230270e-03
-8.103690147399902344e+00 -6.910052299499511719e+00 2.156437486410140991e-01
-4.256188869476318359e+00 -4.196348190307617188e+00 7.302281446754932404e-03
-8.173466682434082031e+00 -6.883384227752685547e+00 2.163725495338439941e-01
-7.709468841552734375e+00 -6.983856201171875000e+00 1.107535436749458313e-01
-4.468834400177001953e+00 -4.352253437042236328e+00 7.621153257787227631e-03
-8.208630561828613281e+00 -6.827349185943603516e+00 2.161903530359268188e-01
-7.755901813507080078e+00 -6.939754486083984375e+00 1.108067780733108521e-01
-4.503382205963134766e+00 -4.332376956939697266e+00 7.634591776877641678e-03
-8.239552497863769531e+00 -6.767969131469726562e+00 2.159069329500198364e-01
-7.805080890655517578e+00 -6.897994041442871094e+00 1.109025925397872925e-01
-4.490011215209960938e+00 -4.266776561737060547e+00 7.567396853119134903e-03
-8.294900894165039062e+00 -6.728621959686279297e+00 2.162713259458541870e-01
-7.849518299102783203e+00 -6.851945400238037109e+00 1.109345257282257080e-01
-4.507357597351074219e+00 -4.230933189392089844e+00 7.552735973149538040e-03
-8.369584083557128906e+00 -6.704476833343505859e+00 2.171418368816375732e-01
-7.892170906066894531e+00 -6.804306030273437500e+00 1.109451726078987122e-01
-4.602163314819335938e+00 -4.267108440399169922e+00 7.667579222470521927e-03
-8.441929817199707031e+00 -6.677806377410888672e+00 2.179516106843948364e-01
-7.910933494567871094e+00 -6.736303806304931641e+00 1.106257885694503784e-01
-4.584749698638916016e+00 -4.198941230773925781e+00 7.595497183501720428e-03
-8.518988609313964844e+00 -6.654191970825195312e+00 2.188828438520431519e-01
-7.884771823883056641e+00 -6.630999565124511719e+00 1.096889078617095947e-01
-4.608943939208984375e+00 -4.169388771057128906e+00 7.593053393065929413e-03
-8.524824142456054688e+00 -6.574929237365722656e+00 2.179920971393585205e-01
-7.906080245971679688e+00 -6.566522598266601562e+00 1.094227582216262817e-01
-4.586716651916503906e+00 -4.098387718200683594e+00 7.514862809330224991e-03
-8.543529510498046875e+00 -6.506143093109130859e+00 2.174454927444458008e-01
-8.060646057128906250e+00 -6.611743927001953125e+00 1.109984070062637329e-01
-4.640267848968505859e+00 -4.095311641693115234e+00 7.561288308352231979e-03
-8.571303367614746094e+00 -6.444586277008056641e+00 2.171418368816375732e-01
-8.074644088745117188e+00 -6.540760040283203125e+00 1.106364279985427856e-01
-4.696969032287597656e+00 -4.094360828399658203e+00 7.612601388245820999e-03
-8.604263305664062500e+00 -6.387104988098144531e+00 2.169798761606216431e-01
-8.069336891174316406e+00 -6.454864025115966797e+00 1.100189462304115295e-01
-4.806121826171875000e+00 -4.137886524200439453e+00 7.748213130980730057e-03
-8.648936271667480469e+00 -6.338326930999755859e+00 2.171215862035751343e-01
-8.175488471984863281e+00 -6.457914829254150391e+00 1.109238788485527039e-01
-4.715624809265136719e+00 -4.009853363037109375e+00 7.562509737908840179e-03
-8.735457420349121094e+00 -6.319714069366455078e+00 2.183160036802291870e-01
-8.184997558593750000e+00 -6.384259700775146484e+00 1.105193197727203369e-01
-4.737843036651611328e+00 -3.978914260864257812e+00 7.558844983577728271e-03
-8.800919532775878906e+00 -6.285170078277587891e+00 2.189840674400329590e-01
-8.272341728210449219e+00 -6.371135711669921875e+00 1.111687421798706055e-01
-4.749083042144775391e+00 -3.938915491104125977e+00 7.538075093179941177e-03
-8.849124908447265625e+00 -6.237962722778320312e+00 2.192270159721374512e-01
-8.358239173889160156e+00 -6.355968952178955078e+00 1.117968782782554626e-01
-4.733708381652832031e+00 -3.877385139465332031e+00 7.475767284631729126e-03
-8.902006149291992188e+00 -6.193826198577880859e+00 2.195914089679718018e-01
-8.421871185302734375e+00 -6.323175907135009766e+00 1.121269166469573975e-01
-4.659447669982910156e+00 -3.769024610519409180e+00 7.321829441934823990e-03
-8.941492080688476562e+00 -6.140220165252685547e+00 2.196319103240966797e-01
-8.421951293945312500e+00 -6.242798805236816406e+00 1.116158887743949890e-01
-4.770776271820068359e+00 -3.810889482498168945e+00 7.459884975105524063e-03
-9.006311416625976562e+00 -6.103750705718994141e+00 2.202999740839004517e-01
-8.462518692016601562e+00 -6.192777156829833984e+00 1.116478294134140015e-01
-4.849029064178466797e+00 -3.824896812438964844e+00 7.545405533164739609e-03
-9.064370155334472656e+00 -6.062269210815429688e+00 2.208060771226882935e-01
-8.476040840148925781e+00 -6.123168945312500000e+00 1.113284453749656677e-01
-4.827438354492187500e+00 -3.760046243667602539e+00 7.475767284631729126e-03
-9.105568885803222656e+00 -6.009290695190429688e+00 2.209073007106781006e-01
-8.520779609680175781e+00 -6.076270580291748047e+00 1.114242598414421082e-01
-4.910662651062011719e+00 -3.776686906814575195e+00 7.568618748337030411e-03
-9.202591896057128906e+00 -5.992588043212890625e+00 2.223648875951766968e-01
-8.564444541931152344e+00 -6.028478622436523438e+00 1.115094348788261414e-01
-4.881976604461669922e+00 -3.707175254821777344e+00 7.489206269383430481e-03
-9.261058807373046875e+00 -5.950060367584228516e+00 2.228912413120269775e-01
-8.537219047546386719e+00 -5.931312561035156250e+00 1.106790229678153992e-01
-4.916633605957031250e+00 -3.686148166656494141e+00 7.507532369345426559e-03
-9.362416267395019531e+00 -5.934338092803955078e+00 2.244500815868377686e-01
-7.968131542205810547e+00 -5.463748931884765625e+00 1.028646305203437805e-01
-4.976131916046142578e+00 -3.683278322219848633e+00 7.563732098788022995e-03
-9.363047599792480469e+00 -5.854516506195068359e+00 2.235998064279556274e-01
-8.467750549316406250e+00 -5.730269432067871094e+00 1.088584959506988525e-01
-4.813743114471435547e+00 -3.517566442489624023e+00 7.283955812454223633e-03
-9.413260459899902344e+00 -5.805878639221191406e+00 2.239439636468887329e-01
-8.435394287109375000e+00 -5.633223056793212891e+00 1.079961434006690979e-01
-4.937422752380371094e+00 -3.561677694320678711e+00 7.437893655151128769e-03
-9.592206001281738281e+00 -5.835306167602539062e+00 2.273450344800949097e-01
-8.157526969909667969e+00 -5.375578880310058594e+00 1.040144264698028564e-01
-4.990138053894042969e+00 -3.553356885910034180e+00 7.484319619834423065e-03
-9.623543739318847656e+00 -5.773767948150634766e+00 2.272438108921051025e-01
-8.702569007873535156e+00 -5.658467292785644531e+00 1.105193197727203369e-01
-5.014301300048828125e+00 -3.524396181106567383e+00 7.487984374165534973e-03
-9.715580940246582031e+00 -5.748210906982421875e+00 2.285799384117126465e-01
-8.850747108459472656e+00 -5.677853107452392578e+00 1.119565740227699280e-01
-4.986534118652343750e+00 -3.459362268447875977e+00 7.414680905640125275e-03
-9.671218872070312500e+00 -5.642138481140136719e+00 2.267174422740936279e-01
-8.914992332458496094e+00 -5.642155170440673828e+00 1.123291924595832825e-01
-4.833565711975097656e+00 -3.309495210647583008e+00 7.156895473599433899e-03
-9.717789649963378906e+00 -5.589669704437255859e+00 2.270008623600006104e-01
-8.446455955505371094e+00 -5.273320674896240234e+00 1.060159280896186829e-01
-4.431209087371826172e+00 -2.994235992431640625e+00 6.533813197165727615e-03
-9.819741249084472656e+00 -5.568404674530029297e+00 2.285799384117126465e-01
-8.619141578674316406e+00 -5.307911396026611328e+00 1.077725738286972046e-01
-4.908757686614990234e+00 -3.273231744766235352e+00 7.208208087831735611e-03
-9.930521011352539062e+00 -5.550975799560546875e+00 2.303614467382431030e-01
-7.457612514495849609e+00 -4.529732227325439453e+00 9.289968758821487427e-02
-5.137594699859619141e+00 -3.380467891693115234e+00 7.513640448451042175e-03
-9.955637931823730469e+00 -5.485114097595214844e+00 2.301589995622634888e-01
-8.092596054077148438e+00 -4.847696304321289062e+00 1.004372611641883850e-01
-5.236243247985839844e+00 -3.399522304534912109e+00 7.627262268215417862e-03
-1.002600860595703125e+01 -5.443961620330810547e+00 2.310092598199844360e-01
-9.110558509826660156e+00 -5.381800651550292969e+00 1.126592308282852173e-01
-5.170271396636962891e+00 -3.311773538589477539e+00 7.501423824578523636e-03
-1.013327312469482422e+01 -5.421962261199951172e+00 2.327098101377487183e-01
-8.964550018310546875e+00 -5.221617221832275391e+00 1.104554459452629089e-01
-5.178659439086914062e+00 -3.272508144378662109e+00 7.484319619834423065e-03
-1.010886287689208984e+01 -5.329376220703125000e+00 2.313939183950424194e-01
-8.340005874633789062e+00 -4.789544582366943359e+00 1.023961827158927917e-01
-5.342058181762695312e+00 -3.330072164535522461e+00 7.690791506320238113e-03
-1.016089344024658203e+01 -5.277387142181396484e+00 2.318392992019653320e-01
-8.573726654052734375e+00 -4.854053497314453125e+00 1.048980727791786194e-01
-5.311279773712158203e+00 -3.265804290771484375e+00 7.617487572133541107e-03
-1.026962852478027344e+01 -5.254103660583496094e+00 2.335803061723709106e-01
-8.687172889709472656e+00 -4.848134994506835938e+00 1.059201136231422424e-01
-5.351739406585693359e+00 -3.245598554611206055e+00 7.646809332072734833e-03
-1.033203125000000000e+01 -5.206288814544677734e+00 2.342686206102371216e-01
-8.829779624938964844e+00 -4.856909275054931641e+00 1.072934865951538086e-01
-5.094350814819335938e+00 -3.046906232833862305e+00 7.252190727740526199e-03
-1.041304016113281250e+01 -5.167237281799316406e+00 2.353820800781250000e-01
-8.848866462707519531e+00 -4.796921253204345703e+00 1.071657389402389526e-01
-5.291248798370361328e+00 -3.120749950408935547e+00 7.505088578909635544e-03
-1.048497295379638672e+01 -5.122998237609863281e+00 2.362930774688720703e-01
-8.373633384704589844e+00 -4.473040580749511719e+00 1.010760441422462463e-01
-5.271398067474365234e+00 -3.065602540969848633e+00 7.450111210346221924e-03
-1.050810050964355469e+01 -5.054666042327880859e+00 2.361108660697937012e-01
-8.800881385803222656e+00 -4.632083892822265625e+00 1.058881729841232300e-01
-5.264083385467529297e+00 -3.018277645111083984e+00 7.413459010422229767e-03
-1.052536392211914062e+01 -4.983676910400390625e+00 2.358072102069854736e-01
-8.847779273986816406e+00 -4.587661266326904297e+00 1.061117425560951233e-01
-5.279891967773437500e+00 -2.984444618225097656e+00 7.409793790429830551e-03
-1.056571292877197266e+01 -4.923645973205566406e+00 2.360298931598663330e-01
-8.966594696044921875e+00 -4.579678535461425781e+00 1.071976721286773682e-01
-5.321691036224365234e+00 -2.965133428573608398e+00 7.442780770361423492e-03
-1.068297004699707031e+01 -4.898729801177978516e+00 2.379733473062515259e-01
-8.513043403625488281e+00 -4.282371520996093750e+00 1.014593169093132019e-01
-5.327513217926025391e+00 -2.925685167312622070e+00 7.425676099956035614e-03
-1.070189094543457031e+01 -4.828154563903808594e+00 2.377304285764694214e-01
-9.279279708862304688e+00 -4.596690177917480469e+00 1.102531701326370239e-01
-5.380543231964111328e+00 -2.911980152130126953e+00 7.474545855075120926e-03
-1.070207118988037109e+01 -4.749420166015625000e+00 2.370826005935668945e-01
-9.236310005187988281e+00 -4.505036354064941406e+00 1.094121038913726807e-01
-5.438898563385009766e+00 -2.900556802749633789e+00 7.530745584517717361e-03
-1.080431747436523438e+01 -4.715659141540527344e+00 2.387021481990814209e-01
-9.237636566162109375e+00 -4.435726165771484375e+00 1.091033592820167542e-01
-5.466331005096435547e+00 -2.872246265411376953e+00 7.544184103608131409e-03
-1.086428642272949219e+01 -4.662683010101318359e+00 2.393904775381088257e-01
-8.507088661193847656e+00 -4.020884990692138672e+00 1.001817584037780762e-01
-5.520262718200683594e+00 -2.857499122619628906e+00 7.594274822622537613e-03
-1.094796085357666016e+01 -4.619252681732177734e+00 2.406051307916641235e-01
-9.393826484680175781e+00 -4.369688987731933594e+00 1.103063896298408508e-01
-5.571545124053955078e+00 -2.840834856033325195e+00 7.640700787305831909e-03
-1.097609806060791016e+01 -4.551990509033203125e+00 2.406051307916641235e-01
-9.376819610595703125e+00 -4.291991233825683594e+00 1.097953766584396362e-01
-5.521848201751708984e+00 -2.772937536239624023e+00 7.549071218818426132e-03
-1.105381774902343750e+01 -4.504932403564453125e+00 2.416983246803283691e-01
-9.397506713867187500e+00 -4.231911659240722656e+00 1.097314879298210144e-01
-5.421332359313964844e+00 -2.680934667587280273e+00 7.389024365693330765e-03
-1.114715099334716797e+01 -4.463408946990966797e+00 2.431356906890869141e-01
-9.345583915710449219e+00 -4.139746665954589844e+00 1.088265553116798401e-01
-5.452065467834472656e+00 -2.654623746871948242e+00 7.408571895211935043e-03
-1.122084903717041016e+01 -4.413224697113037109e+00 2.441479116678237915e-01
-8.956447601318359375e+00 -3.901811599731445312e+00 1.040144264698028564e-01
-5.644995212554931641e+00 -2.705840110778808594e+00 7.648031227290630341e-03
-1.130367565155029297e+01 -4.365905284881591797e+00 2.453625798225402832e-01
-9.597897529602050781e+00 -4.111371517181396484e+00 1.111687421798706055e-01
-5.653352737426757812e+00 -2.667311906814575195e+00 7.637036032974720001e-03
-4.814533233642578125e+00 -1.629336953163146973e+00 1.508528590202331543e-01
-1.140784358978271484e+01 -4.325888156890869141e+00 2.470428794622421265e-01
-9.212849617004394531e+00 -3.879704236984252930e+00 1.064311414957046509e-01
-5.693194389343261719e+00 -2.643523216247558594e+00 7.668800652027130127e-03
-4.800721168518066406e+00 -1.591899871826171875e+00 1.501112133264541626e-01
-1.144635295867919922e+01 -4.260343074798583984e+00 2.473060488700866699e-01
-9.352895736694335938e+00 -3.871287345886230469e+00 1.077725738286972046e-01
-5.719312191009521484e+00 -2.613111734390258789e+00 7.682239636778831482e-03
-4.799941062927246094e+00 -1.559016585350036621e+00 1.497848778963088989e-01
-1.153895568847656250e+01 -4.214381694793701172e+00 2.487433999776840210e-01
-9.577469825744628906e+00 -3.895580768585205078e+00 1.100828200578689575e-01
-5.551908016204833984e+00 -2.495563268661499023e+00 7.436672225594520569e-03
-1.163236331939697266e+01 -4.167780876159667969e+00 2.502009868621826172e-01
-9.549194335937500000e+00 -3.815962076187133789e+00 1.094866320490837097e-01
-5.765582084655761719e+00 -2.549200296401977539e+00 7.701787631958723068e-03
-1.171997261047363281e+01 -4.118203163146972656e+00 2.515371143817901611e-01
-9.678541183471679688e+00 -3.798947811126708984e+00 1.107003092765808105e-01
-5.622465133666992188e+00 -2.444790363311767578e+00 7.490428164601325989e-03
-1.173651409149169922e+01 -4.043282508850097656e+00 2.513549327850341797e-01
-9.916265487670898438e+00 -3.822206020355224609e+00 1.131489574909210205e-01
-5.732066631317138672e+00 -2.450737237930297852e+00 7.616266142576932907e-03
-4.768475532531738281e+00 -1.610098481178283691e+00 1.019105017185211182e-01
-9.215670585632324219e+00 -3.487367391586303711e+00 1.049087122082710266e-01
-5.716574192047119141e+00 -2.402733087539672852e+00 7.575949188321828842e-03
-4.812436103820800781e+00 -1.592114329338073730e+00 1.026392951607704163e-01
-9.946488380432128906e+00 -3.694311380386352539e+00 1.129679679870605469e-01
-5.644330978393554688e+00 -2.331721305847167969e+00 7.461106404662132263e-03
-4.844941139221191406e+00 -1.569952487945556641e+00 1.031251624226570129e-01
-1.070083427429199219e+01 -3.899941444396972656e+00 1.212614402174949646e-01
-5.630734920501708984e+00 -2.285760402679443359e+00 7.424454204738140106e-03
-1.194275188446044922e+01 -3.789109230041503906e+00 2.537032961845397949e-01
-9.594670295715332031e+00 -3.430253744125366211e+00 1.084858775138854980e-01
-5.956749439239501953e+00 -2.375635862350463867e+00 7.834956049919128418e-03
-1.219779777526855469e+01 -3.787808418273925781e+00 2.586226761341094971e-01
-1.024965286254882812e+01 -3.593645572662353516e+00 1.156401932239532471e-01
-5.767300605773925781e+00 -2.259164571762084961e+00 7.567396853119134903e-03
-1.224663829803466797e+01 -3.720740318298339844e+00 2.591692805290222168e-01
-4.775467395782470703e+00 -1.641499876976013184e+00 5.376385524868965149e-02
-6.001320362091064453e+00 -2.308461904525756836e+00 7.855725474655628204e-03
-4.811782836914062500e+00 -1.623844504356384277e+00 2.386028617620468140e-01
-1.228936386108398438e+01 -3.651506185531616211e+00 2.595944106578826904e-01
-4.783554553985595703e+00 -1.611528754234313965e+00 5.374256148934364319e-02
-6.020985126495361328e+00 -2.273714780807495117e+00 7.863055914640426636e-03
-4.827346324920654297e+00 -1.596170902252197266e+00 2.388844490051269531e-01
-1.255636692047119141e+01 -3.647144794464111328e+00 2.647567689418792725e-01
-4.809494972229003906e+00 -1.587475180625915527e+00 5.392354726791381836e-02
-6.052638530731201172e+00 -2.243330955505371094e+00 7.886269129812717438e-03
-4.814242362976074219e+00 -1.559134602546691895e+00 2.377581000328063965e-01
-1.268334484100341797e+01 -3.599786520004272461e+00 2.669633924961090088e-01
-4.813436031341552734e+00 -1.556089162826538086e+00 5.385966971516609192e-02
-6.074747562408447266e+00 -2.209226369857788086e+00 7.897264324128627777e-03
-1.269941425323486328e+01 -3.520292758941650391e+00 2.668419182300567627e-01
-4.777133941650390625e+00 -1.512041568756103516e+00 5.334864929318428040e-02
-6.071235179901123047e+00 -2.165862798690795898e+00 7.875273004174232483e-03
-1.269664859771728516e+01 -3.435775518417358398e+00 2.663358151912689209e-01
-1.107606983184814453e+01 -3.431132078170776367e+00 1.234545856714248657e-01
-6.085354328155517578e+00 -2.128899812698364258e+00 7.876494899392127991e-03
-1.273585700988769531e+01 -3.362654924392700195e+00 2.667204439640045166e-01
-1.107394695281982422e+01 -3.356145381927490234e+00 1.231990754604339600e-01
-4.797671318054199219e+00 -1.645446419715881348e+00 6.196615286171436310e-03
-4.839722633361816406e+00 -1.628629207611083984e+00 1.917055994272232056e-01
-1.277755069732666016e+01 -3.289930343627929688e+00 2.671658396720886230e-01
-1.074343872070312500e+01 -3.184136390686035156e+00 1.193025261163711548e-01
-4.780189037322998047e+00 -1.606737852096557617e+00 6.161185447126626968e-03
-4.842032432556152344e+00 -1.596399307250976562e+00 1.914054900407791138e-01
-1.279264831542968750e+01 -3.210250139236450195e+00 2.670646011829376221e-01
-1.072531700134277344e+01 -3.107304096221923828e+00 1.188873201608657837e-01
-4.772861003875732422e+00 -1.571746826171875000e+00 6.139194127172231674e-03
-4.839374542236328125e+00 -1.562667250633239746e+00 1.909177750349044800e-01
-1.284901046752929688e+01 -3.140716314315795898e+00 2.678338885307312012e-01
-1.036702346801757812e+01 -2.934671401977539062e+00 1.147139668464660645e-01
-4.764332294464111328e+00 -1.536599397659301758e+00 6.115981377661228180e-03
-1.302949905395507812e+01 -3.100234746932983398e+00 2.711944878101348877e-01
-1.038001632690429688e+01 -2.869673013687133789e+00 1.146607324481010437e-01
-4.857587337493896484e+00 -1.533834457397460938e+00 6.223493721336126328e-03
-1.296158599853515625e+01 -3.000162839889526367e+00 2.693927288055419922e-01
-1.093805694580078125e+01 -2.951826333999633789e+00 1.206226721405982971e-01
-6.318189144134521484e+00 -1.952483654022216797e+00 8.079302497208118439e-03
-1.353573322296142578e+01 -3.045677423477172852e+00 2.809320688247680664e-01
-1.052565288543701172e+01 -2.771357536315917969e+00 1.158850565552711487e-01
-6.362595558166503906e+00 -1.923518180847167969e+00 8.120840415358543396e-03
-1.361374759674072266e+01 -2.975589275360107422e+00 2.821669578552246094e-01
-1.051049804687500000e+01 -2.698515176773071289e+00 1.155337318778038025e-01
-6.384827136993408203e+00 -1.887560367584228516e+00 8.134280331432819366e-03
-1.401611328125000000e+01 -2.973544359207153320e+00 2.901230156421661377e-01
-1.098762702941894531e+01 -2.749264240264892578e+00 1.205907315015792847e-01
-6.384760379791259766e+00 -1.845016956329345703e+00 8.119619451463222504e-03
-1.389209938049316406e+01 -2.858271837234497070e+00 2.871875762939453125e-01
-1.077695560455322266e+01 -2.626391410827636719e+00 1.180994883179664612e-01
-6.392111301422119141e+00 -1.804719209671020508e+00 8.114731870591640472e-03
-1.406233406066894531e+01 -2.803471565246582031e+00 2.903457283973693848e-01
-1.178235244750976562e+01 -2.794934988021850586e+00 1.289267838001251221e-01
-6.366431713104248047e+00 -1.755363345146179199e+00 8.068306371569633484e-03
-1.384366703033447266e+01 -2.671665191650390625e+00 2.854870557785034180e-01
-1.124975109100341797e+01 -2.595788002014160156e+00 1.229222714900970459e-01
-6.433089733123779297e+00 -1.731339931488037109e+00 8.139166980981826782e-03
-1.395415115356445312e+01 -2.604280710220336914e+00 2.874305248260498047e-01
-1.050344276428222656e+01 -2.355798721313476562e+00 1.146075055003166199e-01
-6.442624568939208984e+00 -1.691580653190612793e+00 8.137945085763931274e-03
-1.420010852813720703e+01 -2.560120344161987305e+00 2.921677231788635254e-01
-1.021286678314208984e+01 -2.224898099899291992e+00 1.112858504056930542e-01
-6.448039054870605469e+00 -1.650777459144592285e+00 8.131836540997028351e-03
-1.416137409210205078e+01 -2.463517427444458008e+00 2.910542786121368408e-01
-1.036133480072021484e+01 -2.190736293792724609e+00 1.127550452947616577e-01
-6.487154483795166016e+00 -1.618443965911865234e+00 8.168488740921020508e-03
-1.407170391082763672e+01 -2.359056472778320312e+00 2.889083623886108398e-01
-1.038045883178710938e+01 -2.128324270248413086e+00 1.128189191222190857e-01
-6.305532932281494141e+00 -1.532096028327941895e+00 7.927807047963142395e-03
-1.431786537170410156e+01 -2.310093402862548828e+00 2.936657965183258057e-01
-1.092294311523437500e+01 -2.169797897338867188e+00 1.185679286718368530e-01
-6.514311790466308594e+00 -1.540555834770202637e+00 8.178262040019035339e-03
-1.442859458923339844e+01 -2.237210035324096680e+00 2.956497669219970703e-01
-1.086829662322998047e+01 -2.089707612991333008e+00 1.178333386778831482e-01
-6.588936805725097656e+00 -1.515574812889099121e+00 8.260117843747138977e-03
-1.452313995361328125e+01 -2.160700082778930664e+00 2.973098158836364746e-01
-1.120533657073974609e+01 -2.083298206329345703e+00 1.213466152548789978e-01
-6.611774921417236328e+00 -1.478171825408935547e+00 8.277221582829952240e-03
-1.494293022155761719e+01 -2.129521131515502930e+00 3.056302666664123535e-01
-1.123365497589111328e+01 -2.017332077026367188e+00 1.215169578790664673e-01
-6.624629497528076172e+00 -1.438423633575439453e+00 8.282109163701534271e-03
-1.104975414276123047e+01 -1.914396405220031738e+00 1.193983405828475952e-01
-6.630395412445068359e+00 -1.397130131721496582e+00 8.278444409370422363e-03
-1.480236434936523438e+01 -1.924461841583251953e+00 3.022494316101074219e-01
-1.037088680267333984e+01 -1.731304764747619629e+00 1.119459271430969238e-01
-6.604551315307617188e+00 -1.349414110183715820e+00 8.235683664679527283e-03
-1.484663772583007812e+01 -1.837652802467346191e+00 3.029175102710723877e-01
-1.079399967193603516e+01 -1.733930826187133789e+00 1.163960844278335571e-01
-6.626440048217773438e+00 -1.311582207679748535e+00 8.252787403762340546e-03
-1.052871704101562500e+01 -1.625110030174255371e+00 1.134257614612579346e-01
-6.491952896118164062e+00 -1.243617892265319824e+00 8.075636811554431915e-03
-1.053453350067138672e+01 -1.559890627861022949e+00 1.133831813931465149e-01
-6.585006713867187500e+00 -1.219604492187500000e+00 8.181927725672721863e-03
-1.107456684112548828e+01 -1.570475101470947266e+00 1.190896034240722656e-01
-6.761678695678710938e+00 -1.209461569786071777e+00 8.392064832150936127e-03
-1.239294910430908203e+01 -1.679928779602050781e+00 1.331533789634704590e-01
-6.556118011474609375e+00 -1.131222963333129883e+00 8.128170855343341827e-03
-1.329454994201660156e+01 -1.719140291213989258e+00 1.427244096994400024e-01
-6.832239627838134766e+00 -1.135741233825683594e+00 8.461703546345233917e-03
-1.229552173614501953e+01 -1.513308167457580566e+00 1.318971067667007446e-01
-6.539882183074951172e+00 -1.045946359634399414e+00 8.091518655419349670e-03
-1.162225627899169922e+01 -1.358104228973388672e+00 1.245830953121185303e-01
-6.828859806060791016e+00 -1.049232006072998047e+00 8.440934121608734131e-03
-1.116523551940917969e+01 -1.235303997993469238e+00 1.196006163954734802e-01
-6.855944633483886719e+00 -1.010372877120971680e+00 8.466590195894241333e-03
-1.102640914916992188e+01 -1.151504635810852051e+00 1.180356144905090332e-01
-6.932318687438964844e+00 -9.782069921493530273e-01 8.553333580493927002e-03
-1.153780937194824219e+01 -1.133388757705688477e+00 1.234332993626594543e-01
-7.017472743988037109e+00 -9.463442564010620117e-01 8.651072159409523010e-03
-1.246460533142089844e+01 -1.147256016731262207e+00 1.332704871892929077e-01
-7.003310680389404297e+00 -9.007168412208557129e-01 8.626637049019336700e-03
-1.279420471191406250e+01 -1.098466992378234863e+00 1.367198824882507324e-01
-7.070246219635009766e+00 -8.652597069740295410e-01 8.702384307980537415e-03
-1.173713493347167969e+01 -9.351988434791564941e-01 1.253602802753448486e-01
-7.074429035186767578e+00 -8.217458724975585938e-01 8.701162412762641907e-03
-1.232803916931152344e+01 -9.061934351921081543e-01 1.316096633672714233e-01
-6.977949142456054688e+00 -7.671755552291870117e-01 8.576546795666217804e-03
-1.193728637695312500e+01 -8.038607239723205566e-01 1.273830682039260864e-01
-7.145649433135986328e+00 -7.412672042846679688e-01 8.776910603046417236e-03
-1.303189468383789062e+01 -7.972788214683532715e-01 1.390088349580764771e-01
-7.156034946441650391e+00 -6.979908943176269531e-01 8.784241043031215668e-03
-1.317132949829101562e+01 -7.247180342674255371e-01 1.404460966587066650e-01
-7.169145584106445312e+00 -6.548878550529479980e-01 8.795236237347126007e-03
-1.371285724639892578e+01 -6.701458096504211426e-01 1.461738049983978271e-01
-7.053462028503417969e+00 -6.007035970687866211e-01 8.648628368973731995e-03
-1.228310012817382812e+01 -5.247473120689392090e-01 1.308963596820831299e-01
-6.964303970336914062e+00 -5.500900745391845703e-01 8.535007946193218231e-03
-1.253990459442138672e+01 -4.586531519889831543e-01 1.336005181074142456e-01
-7.249800682067871094e+00 -5.278999805450439453e-01 8.880757726728916168e-03
-1.232459545135498047e+01 -3.750702440738677979e-01 1.312796175479888916e-01
-7.236938476562500000e+00 -4.823420643806457520e-01 8.861209265887737274e-03
-1.233066463470458984e+01 -2.995380163192749023e-01 1.313222050666809082e-01
-7.230778694152832031e+00 -4.373845756053924561e-01 8.850214071571826935e-03
-1.275617599487304688e+01 -2.315681874752044678e-01 1.358362436294555664e-01
-7.284251213073730469e+00 -3.957760334014892578e-01 8.912522345781326294e-03
-1.316330432891845703e+01 -1.581713110208511353e-01 1.401586383581161499e-01
-7.211628913879394531e+00 -3.474638462066650391e-01 8.820892311632633209e-03
-1.285104942321777344e+01 -7.555961608886718750e-02 1.368263512849807739e-01
-7.258585929870605469e+00 -3.050973713397979736e-01 8.875870145857334137e-03
-1.298526477813720703e+01 3.328710794448852539e-03 1.382529586553573608e-01
-7.194363594055175781e+00 -2.581867575645446777e-01 8.795236237347126007e-03
-1.298999881744384766e+01 8.303669095039367676e-02 1.383061856031417847e-01
-7.475688457489013672e+00 -2.223629802465438843e-01 9.137320332229137421e-03
-7.478911399841308594e+00 -1.765360236167907715e-01 9.139764122664928436e-03
-1.311197376251220703e+01 2.447517961263656616e-01 1.396263241767883301e-01
-7.414864063262939453e+00 -1.295078396797180176e-01 9.060351178050041199e-03
-1.348508834838867188e+01 3.344992697238922119e-01 1.436186879873275757e-01
-7.443517208099365234e+00 -8.432583510875701904e-02 9.094559587538242340e-03
-7.557893276214599609e+00 -3.924361243844032288e-02 9.233837015926837921e-03
-7.459991455078125000e+00 7.039016112685203552e-03 9.114108048379421234e-03
-1.394817924499511719e+01 6.030455827713012695e-01 1.486437469720840454e-01
-7.486807346343994141e+00 5.300367623567581177e-02 9.147094562649726868e-03
-1.382237243652343750e+01 6.826015114784240723e-01 1.473449021577835083e-01
-7.561334133148193359e+00 9.993198513984680176e-02 9.238723665475845337e-03
-7.460597515106201172e+00 1.443905681371688843e-01 9.116550907492637634e-03
-7.460570812225341797e+00 1.901907026767730713e-01 9.117772802710533142e-03
-7.670157909393310547e+00 2.426356971263885498e-01 9.375557303428649902e-03
-7.704499244689941406e+00 2.910533547401428223e-01 9.419539943337440491e-03
-7.706563949584960938e+00 3.384973108768463135e-01 9.424426592886447906e-03
-1.279363918304443359e+01 1.105026364326477051e+00 1.367198824882507324e-01
-7.609461307525634766e+00 3.810265660285949707e-01 9.308362379670143127e-03
-7.951569080352783203e+00 1.320384263992309570e+00 2.392285913228988647e-01
-7.382335186004638672e+00 4.150792956352233887e-01 9.033473208546638489e-03
-7.950212955474853516e+00 1.370337843894958496e+00 2.394362539052963257e-01
-7.701024055480957031e+00 4.804171323776245117e-01 9.426870383322238922e-03
-7.946575164794921875e+00 1.419972777366638184e+00 2.395845949649810791e-01
-7.614128112792968750e+00 5.219163298606872559e-01 9.324245154857635498e-03
-8.026623725891113281e+00 5.996947288513183594e-01 9.833707474172115326e-03
-8.025782585144042969e+00 6.491757035255432129e-01 9.837371297180652618e-03
-7.990764617919921875e+00 6.957198381423950195e-01 9.799497202038764954e-03
-7.948586463928222656e+00 1.325502634048461914e+00 1.631701588630676270e-01
-8.064008712768554688e+00 7.519793510437011719e-01 9.894792921841144562e-03
-7.940303802490234375e+00 1.374249339103698730e+00 1.631701588630676270e-01
-8.143825531005859375e+00 8.098562955856323242e-01 9.998640045523643494e-03
-7.910071849822998047e+00 1.419060230255126953e+00 1.627247780561447144e-01
-8.144670486450195312e+00 8.604410290718078613e-01 1.000597048550844193e-02
-8.088552474975585938e+00 9.047303795814514160e-01 9.943662211298942566e-03
-8.179180145263671875e+00 9.657175540924072266e-01 1.006217021495103836e-02
-8.175085067749023438e+00 1.016132593154907227e+00 1.006461307406425476e-02
-7.915320873260498047e+00 1.325546741485595703e+00 8.544725924730300903e-02
-8.170680046081542969e+00 1.066533803939819336e+00 1.006705779582262039e-02
-7.895215988159179688e+00 1.372034907341003418e+00 8.531950414180755615e-02
-8.192713737487792969e+00 1.120577931404113770e+00 1.010248716920614243e-02
-7.880744457244873047e+00 1.419389724731445312e+00 8.525563031435012817e-02
-7.800604343414306641e+00 1.115747094154357910e+00 9.627234190702438354e-03
-8.345494270324707031e+00 1.245985984802246094e+00 1.030896045267581940e-02
-8.343619346618652344e+00 1.298091888427734375e+00 1.031628996133804321e-02
-7.980123996734619141e+00 1.291738748550415039e+00 9.876467287540435791e-03
-7.907947540283203125e+00 1.329899668693542480e+00 9.797054342925548553e-03
-7.979229450225830078e+00 1.389414668083190918e+00 3.040653467178344727e-01
-7.902594089508056641e+00 1.378912568092346191e+00 9.800720028579235077e-03
-7.873319625854492188e+00 1.423639416694641113e+00 9.775063954293727875e-03
-8.323465347290039062e+00 1.557835102081298828e+00 1.034561172127723694e-02
-8.637738227844238281e+00 1.671576023101806641e+00 1.074878219515085220e-02
-8.625358581542968750e+00 1.724152684211730957e+00 1.074633933603763580e-02
-8.933894157409667969e+00 1.842905759811401367e+00 1.114462316036224365e-02
-9.187489509582519531e+00 1.954065680503845215e+00 1.147571206092834473e-02
-8.810970306396484375e+00 1.930568337440490723e+00 1.102000661194324493e-02
-8.755061149597167969e+00 1.974694132804870605e+00 1.096502877771854401e-02
-8.959035873413085938e+00 2.078549623489379883e+00 1.123625319451093674e-02
-8.987940788269042969e+00 2.143457174301147461e+00 1.128878723829984665e-02
-9.087287902832031250e+00 2.226166963577270508e+00 1.143050845712423325e-02
-9.127765655517578125e+00 2.295541524887084961e+00 1.149892527610063553e-02
-8.722321510314941406e+00 2.250569343566894531e+00 1.100534573197364807e-02
-9.629646301269531250e+00 2.547802448272705078e+00 1.216965448111295700e-02
-9.076244354248046875e+00 2.461071252822875977e+00 1.148915104568004608e-02
-9.533099174499511719e+00 2.647850275039672852e+00 1.208779867738485336e-02
-9.468580245971679688e+00 2.692618370056152344e+00 1.202671322971582413e-02
-9.268488883972167969e+00 2.697295427322387695e+00 1.179336197674274445e-02
-9.102248191833496094e+00 2.709606409072875977e+00 1.160277239978313446e-02
-9.533169746398925781e+00 2.901681184768676758e+00 1.217454113066196442e-02
-9.530464172363281250e+00 2.964874029159545898e+00 1.219408959150314331e-02
-9.284320831298828125e+00 2.950901746749877930e+00 1.190209574997425079e-02
-9.410613059997558594e+00 3.054743051528930664e+00 1.208779867738485336e-02
-9.582488059997558594e+00 3.175657987594604492e+00 1.233336608856916428e-02
-9.647130012512207031e+00 3.262910366058349609e+00 1.244209986180067062e-02
-9.916190147399902344e+00 3.421860694885253906e+00 1.281595043838024139e-02
-9.688428878784179688e+00 3.409933805465698242e+00 1.254839170724153519e-02
-9.325658798217773438e+00 3.346703290939331055e+00 1.210490334779024124e-02
-9.750098228454589844e+00 3.566702604293823242e+00 1.268400344997644424e-02
-9.880761146545410156e+00 3.683397054672241211e+00 1.288314443081617355e-02
-1.038429450988769531e+01 3.943845748901367188e+00 1.357097923755645752e-02
-1.037762069702148438e+01 4.014343261718750000e+00 1.359419245272874832e-02
-1.021974277496337891e+01 4.025535106658935547e+00 1.341948471963405609e-02
-1.063108348846435547e+01 4.263097286224365234e+00 1.399369817227125168e-02
-1.035752201080322266e+01 4.227353572845458984e+00 1.366749592125415802e-02
-1.032215404510498047e+01 4.286991596221923828e+00 1.365527976304292679e-02
-1.092848205566406250e+01 4.617636203765869141e+00 1.449460722506046295e-02
-1.495710372924804688e+01 6.428301811218261719e+00 1.988976821303367615e-02
-1.305912113189697266e+01 5.707765102386474609e+00 1.741209998726844788e-02
-9.710198402404785156e+00 5.184831142425537109e+00 2.228912413120269775e-01
-1.156538581848144531e+01 5.139645099639892578e+00 1.546221692115068436e-02
-9.670290946960449219e+00 5.240027427673339844e+00 2.227090448141098022e-01
-1.272465419769287109e+01 5.842851638793945312e+00 1.710666716098785400e-02
-1.342620754241943359e+01 6.265023231506347656e+00 1.810115575790405273e-02
-1.286433696746826172e+01 6.099238395690917969e+00 1.739377342164516449e-02
-1.196447181701660156e+01 5.762773990631103516e+00 1.622457802295684814e-02
-9.715126991271972656e+00 5.196045875549316406e+00 1.173010170459747314e-01
-9.666363716125488281e+00 5.246495723724365234e+00 1.170987412333488464e-01
-1.353080749511718750e+01 6.723007202148437500e+00 1.845912262797355652e-02
-1.331467437744140625e+01 6.820611953735351562e+00 1.827708445489406586e-02
-9.759757041931152344e+00 5.151724338531494141e+00 1.348301488906145096e-02
-9.709451675415039062e+00 5.201595306396484375e+00 1.345735788345336914e-02
-9.653632164001464844e+00 5.248177528381347656e+00 1.342437230050563812e-02
-3.036591053009033203e+00 3.067219018936157227e+00 1.280988454818725586e-01
-3.019111394882202148e+00 3.087222576141357422e+00 1.281581819057464600e-01
-2.997333765029907227e+00 3.102813720703125000e+00 1.280395090579986572e-01
-3.008485555648803711e+00 3.043009996414184570e+00 8.664619177579879761e-02
-2.968102455139160156e+00 3.039238452911376953e+00 8.601861447095870972e-02
-2.994193792343139648e+00 3.032719850540161133e+00 4.537456110119819641e-02
-2.970641851425170898e+00 3.046023845672607422e+00 4.530004039406776428e-02
-5.117280960083007812e+00 5.782190799713134766e+00 1.563477963209152222e-01
-5.029065608978271484e+00 5.753260612487792969e+00 1.547282338142395020e-01
-3.037686586380004883e+00 3.043424606323242188e+00 5.253439769148826599e-03
-3.030533552169799805e+00 3.071604013442993164e+00 1.619931161403656006e-01
-3.013338804244995117e+00 3.056309461593627930e+00 5.243666470050811768e-03
-3.009536981582641602e+00 3.087994098663330078e+00 1.618805676698684692e-01
-3.000808000564575195e+00 3.081188917160034180e+00 5.254661664366722107e-03
-2.959345102310180664e+00 3.074006319046020508e+00 1.601923555135726929e-01
-2.977685928344726562e+00 3.095219612121582031e+00 5.247331224381923676e-03
-5.084928035736083984e+00 5.753596305847167969e+00 8.175300061702728271e-02
-2.945549726486206055e+00 3.099658966064453125e+00 5.224118474870920181e-03
-5.054789543151855469e+00 5.790714740753173828e+00 8.183816820383071899e-02
-5.085227012634277344e+00 5.761909961700439453e+00 9.388997219502925873e-03
-8.333997428417205811e-02 7.089722156524658203e-01 1.445452868938446045e-02
-8.648172765970230103e-02 7.026578783988952637e-01 7.537585683166980743e-03
-4.797695204615592957e-02 7.052250504493713379e-01 1.431281678378582001e-02
-3.563127666711807251e-02 7.189701199531555176e-01 1.457599457353353500e-02
-2.723407931625843048e-02 7.173891067504882812e-01 6.672449409961700439e-02
-1.858131960034370422e-02 7.335970997810363770e-01 4.141304641962051392e-02
-3.965514898300170898e-02 7.094231843948364258e-01 5.929028242826461792e-02
-9.619535878300666809e-03 7.463439106941223145e-01 6.228389590978622437e-02
