-1.099642634391784668e+00 2.241708993911743164e+00 3.478051424026489258e-01
-1.111571907997131348e+00 2.268029689788818359e+00 2.587862014770507812e-01
-1.114617824554443359e+00 2.276254892349243164e+00 1.670086830854415894e-01
-1.124494433403015137e+00 2.297439813613891602e+00 7.591591775417327881e-02
-1.110455036163330078e+00 2.299326419830322266e+00 7.524843811988830566e-01
-1.247736096382141113e+00 2.352776288986206055e+00 7.546014189720153809e-01
-1.311365962028503418e+00 2.265128374099731445e+00 7.140605449676513672e-01
-1.085349202156066895e+00 2.246340751647949219e+00 6.335986256599426270e-01
-1.085453033447265625e+00 2.245555162429809570e+00 5.356076359748840332e-01
-1.074877738952636719e+00 2.224667787551879883e+00 4.365457594394683838e-01
-1.092327952384948730e+00 2.261792182922363281e+00 3.498745560646057129e-01
-1.096337676048278809e+00 2.272119760513305664e+00 2.584804296493530273e-01
-1.101496577262878418e+00 2.284848690032958984e+00 1.671401709318161011e-01
-1.102132201194763184e+00 2.287187814712524414e+00 7.535226643085479736e-02
-1.094266414642333984e+00 2.301765203475952148e+00 7.510709762573242188e-01
-1.197632431983947754e+00 2.292168617248535156e+00 7.327921390533447266e-01
-1.297920942306518555e+00 2.273970127105712891e+00 7.143237590789794922e-01
-1.074875831604003906e+00 2.259960174560546875e+00 6.355677843093872070e-01
-1.181282162666320801e+00 2.262799739837646484e+00 6.208373904228210449e-01
-1.287813663482666016e+00 2.259008646011352539e+00 6.060667037963867188e-01
-1.074174761772155762e+00 2.257470130920410156e+00 5.368673801422119141e-01
-1.064167857170104980e+00 2.237446308135986328e+00 4.377636909484863281e-01
-1.075027346611022949e+00 2.261296033859252930e+00 3.487708866596221924e-01
-1.073412656784057617e+00 2.259933710098266602e+00 2.563400268554687500e-01
-1.089167356491088867e+00 2.295170307159423828e+00 1.674031764268875122e-01
-1.082080125808715820e+00 2.281263589859008789e+00 7.493693381547927856e-02
-1.075244307518005371e+00 2.298010587692260742e+00 7.476788759231567383e-01
-1.168574929237365723e+00 2.270388364791870117e+00 7.235231399536132812e-01
-1.286309123039245605e+00 2.286094903945922852e+00 7.156397104263305664e-01
-1.066330671310424805e+00 2.277924537658691406e+00 6.387677788734436035e-01
-1.150933742523193359e+00 2.238033533096313477e+00 6.120932102203369141e-01
-1.272019863128662109e+00 2.263471841812133789e+00 6.051587462425231934e-01
-1.058644294738769531e+00 2.260477066040039062e+00 5.360275506973266602e-01
-1.153851389884948730e+00 2.245634078979492188e+00 5.164153575897216797e-01
-1.051254153251647949e+00 2.245717525482177734e+00 4.381116926670074463e-01
-1.164088964462280273e+00 2.267505168914794922e+00 4.247036874294281006e-01
-1.050218462944030762e+00 2.244525194168090820e+00 3.451838195323944092e-01
-1.058683156967163086e+00 2.264675140380859375e+00 2.561361491680145264e-01
-1.075063943862915039e+00 2.301810026168823242e+00 1.674031764268875122e-01
-1.070599198341369629e+00 2.293294429779052734e+00 7.511493563652038574e-02
-1.062327265739440918e+00 2.307178735733032227e+00 7.485269308090209961e-01
-1.148966431617736816e+00 2.266360044479370117e+00 7.199791669845581055e-01
-1.271321892738342285e+00 2.292257308959960938e+00 7.151133418083190918e-01
-1.060443997383117676e+00 2.302030801773071289e+00 6.436908841133117676e-01
-1.133667230606079102e+00 2.238118648529052734e+00 6.102025508880615234e-01
-1.261410951614379883e+00 2.277197599411010742e+00 6.067476868629455566e-01
-1.050483465194702148e+00 2.279361486434936523e+00 5.389670133590698242e-01
-1.131202816963195801e+00 2.235188722610473633e+00 5.124074816703796387e-01
-1.037042856216430664e+00 2.251231431961059570e+00 4.379377365112304688e-01
-1.145257830619812012e+00 2.264922380447387695e+00 4.228957593441009521e-01
-1.050924897193908691e+00 2.282414913177490234e+00 3.500125408172607422e-01
-1.151528716087341309e+00 2.279299497604370117e+00 3.307572901248931885e-01
-1.052250862121582031e+00 2.287395954132080078e+00 2.579708099365234375e-01
-1.154019594192504883e+00 2.286212444305419922e+00 2.380241304636001587e-01
-1.061753511428833008e+00 2.310176610946655273e+00 1.675346791744232178e-01
-1.144212961196899414e+00 2.268752813339233398e+00 1.433961987495422363e-01
-1.055673241615295410e+00 2.298003911972045898e+00 7.505560666322708130e-02
-1.054088115692138672e+00 2.326759576797485352e+00 7.527670264244079590e-01
-1.134179115295410156e+00 2.271645784378051758e+00 7.194339632987976074e-01
-1.249829292297363281e+00 2.286470413208007812e+00 7.109021544456481934e-01
-1.049900054931640625e+00 2.316439390182495117e+00 6.459062695503234863e-01
-1.114274382591247559e+00 2.233729362487792969e+00 6.071302890777587891e-01
-1.233414411544799805e+00 2.259250640869140625e+00 5.999379754066467285e-01
-1.040515542030334473e+00 2.294668674468994141e+00 5.410665869712829590e-01
-1.111348390579223633e+00 2.229811906814575195e+00 5.096020102500915527e-01
-1.024836182594299316e+00 2.261139869689941406e+00 4.386336803436279297e-01
-1.105396866798400879e+00 2.219811201095581055e+00 4.131985902786254883e-01
-1.040987610816955566e+00 2.297842025756835938e+00 3.513921797275543213e-01
-1.135312795639038086e+00 2.281883001327514648e+00 3.301150500774383545e-01
-1.042708039283752441e+00 2.303778648376464844e+00 2.590919733047485352e-01
-1.133321642875671387e+00 2.279876232147216797e+00 2.366359829902648926e-01
-1.047969698905944824e+00 2.317557096481323242e+00 1.676004379987716675e-01
-1.133823513984680176e+00 2.282884597778320312e+00 1.438469588756561279e-01
-1.050198316574096680e+00 2.323565721511840820e+00 7.567859441041946411e-02
-1.145707249641418457e+00 2.308834314346313477e+00 5.219015851616859436e-02
-1.037839293479919434e+00 2.328802824020385742e+00 7.513536810874938965e-01
-1.117672324180603027e+00 2.273381710052490234e+00 7.177982330322265625e-01
-1.252247095108032227e+00 2.324672937393188477e+00 7.203773856163024902e-01
-1.325028300285339355e+00 2.255721092224121094e+00 6.877851486206054688e-01
-1.055796146392822266e+00 2.367984533309936523e+00 6.584600806236267090e-01
-1.099262475967407227e+00 2.237908124923706055e+00 6.064213514328002930e-01
-1.208454608917236328e+00 2.246192455291748047e+00 5.944901704788208008e-01
-1.041153192520141602e+00 2.334047317504882812e+00 5.488350987434387207e-01
-1.098508834838867188e+00 2.238347768783569336e+00 5.100027322769165039e-01
-1.018561959266662598e+00 2.284474134445190430e+00 4.419395327568054199e-01
-1.092623949050903320e+00 2.228323221206665039e+00 4.135272800922393799e-01
-1.024046540260314941e+00 2.297853469848632812e+00 3.504264354705810547e-01
-1.115181922912597656e+00 2.276338100433349609e+00 3.283167779445648193e-01
-1.026529550552368164e+00 2.305589437484741211e+00 2.585823535919189453e-01
-1.115371584892272949e+00 2.278738260269165039e+00 2.358030676841735840e-01
-1.030079841613769531e+00 2.315738439559936523e+00 1.670086830854415894e-01
-1.118040204048156738e+00 2.286210775375366211e+00 1.436215639114379883e-01
-1.034297108650207520e+00 2.326312541961669922e+00 7.555992901325225830e-02
-1.130641102790832520e+00 2.314024209976196289e+00 5.214967206120491028e-02
-1.023145318031311035e+00 2.334248304367065430e+00 7.510709762573242188e-01
-1.108312964439392090e+00 2.289722681045532227e+00 7.207970023155212402e-01
-1.264193296432495117e+00 2.381736755371093750e+00 7.356429100036621094e-01
-1.315040230751037598e+00 2.270503997802734375e+00 6.898192763328552246e-01
-1.053702592849731445e+00 2.402822256088256836e+00 6.663369536399841309e-01
-1.085933208465576172e+00 2.245485544204711914e+00 6.066576242446899414e-01
-1.039382100105285645e+00 2.369042396545410156e+00 5.555537939071655273e-01
-1.084753870964050293e+00 2.245045900344848633e+00 5.100027322769165039e-01
-1.046842098236083984e+00 2.387177944183349609e+00 4.605566561222076416e-01
-1.077215433120727539e+00 2.231432199478149414e+00 4.128698408603668213e-01
-1.093869447708129883e+00 2.267952442169189453e+00 3.261331021785736084e-01
-1.100503921508789062e+00 2.283745050430297852e+00 2.356179803609848022e-01
-1.023850202560424805e+00 2.340298891067504883e+00 1.683237105607986450e-01
-1.106156706809997559e+00 2.297526121139526367e+00 1.439033001661300659e-01
-1.202619194984436035e+00 2.750232934951782227e+00 8.908773958683013916e-02
-1.115987777709960938e+00 2.320017099380493164e+00 5.212942510843276978e-02
-1.002728462219238281e+00 2.326388359069824219e+00 7.465481162071228027e-01
-1.098795175552368164e+00 2.306034564971923828e+00 7.237958312034606934e-01
-1.195013165473937988e+00 2.285151004791259766e+00 7.035325765609741211e-01
-1.309716343879699707e+00 2.293647527694702148e+00 6.943960189819335938e-01
-1.025506377220153809e+00 2.378092527389526367e+00 6.577216386795043945e-01
-1.073387742042541504e+00 2.254738330841064453e+00 6.073666214942932129e-01
-1.193423390388488770e+00 2.285023927688598633e+00 6.008459329605102539e-01
-1.016305565834045410e+00 2.355625391006469727e+00 5.509346723556518555e-01
-1.070537328720092773e+00 2.250775098800659180e+00 5.098023414611816406e-01
-1.019696712493896484e+00 2.364620208740234375e+00 4.549888968467712402e-01
-1.065196752548217773e+00 2.241563558578491211e+00 4.135272800922393799e-01
-1.032230615615844727e+00 2.394834756851196289e+00 3.632570207118988037e-01
-1.082910299301147461e+00 2.280892610549926758e+00 3.270322382450103760e-01
-1.063470244407653809e+00 2.469684123992919922e+00 2.755018174648284912e-01
-1.087323904037475586e+00 2.292253971099853516e+00 2.358030676841735840e-01
-1.108052253723144531e+00 2.575690984725952148e+00 1.847615689039230347e-01
-1.092466115951538086e+00 2.305172204971313477e+00 1.439596414566040039e-01
-1.180983185768127441e+00 2.746541023254394531e+00 8.873174339532852173e-02
-1.101731419563293457e+00 2.326820850372314453e+00 5.212942510843276978e-02
-9.884352087974548340e-01 2.332497119903564453e+00 7.465481162071228027e-01
-1.086667537689208984e+00 2.317088365554809570e+00 7.251588702201843262e-01
-1.166389346122741699e+00 2.264138698577880859e+00 6.948469877243041992e-01
-1.292771577835083008e+00 2.296583890914916992e+00 6.928704380989074707e-01
-1.005977153778076172e+00 2.372739553451538086e+00 6.545216441154479980e-01
-1.061594009399414062e+00 2.265681505203247070e+00 6.085482239723205566e-01
-1.158439278602600098e+00 2.251601696014404297e+00 5.901773571968078613e-01
-1.000687122344970703e+00 2.359116554260253906e+00 5.503048300743103027e-01
-1.055875897407531738e+00 2.255526542663574219e+00 5.094015598297119141e-01
-1.168661355972290039e+00 2.275373220443725586e+00 4.981411993503570557e-01
-9.920994639396667480e-01 2.340007066726684570e+00 4.490731954574584961e-01
-1.053930163383483887e+00 2.253418445587158203e+00 4.145134389400482178e-01
-1.009014844894409180e+00 2.381060838699340820e+00 3.602218031883239746e-01
-1.067635178565979004e+00 2.284799098968505859e+00 3.266469240188598633e-01
-1.043254733085632324e+00 2.464253902435302734e+00 2.741768062114715576e-01
-1.070711255073547363e+00 2.293468952178955078e+00 2.352478057146072388e-01
-1.080566525459289551e+00 2.554870843887329102e+00 1.827890276908874512e-01
-1.074925065040588379e+00 2.304593563079833984e+00 1.435088962316513062e-01
-1.134918212890625000e+00 2.684684991836547852e+00 8.650676906108856201e-02
-1.087855935096740723e+00 2.334443569183349609e+00 5.214967206120491028e-02
-9.792684316635131836e-01 2.350914955139160156e+00 7.505056262016296387e-01
-1.070010662078857422e+00 2.318470954895019531e+00 7.235231399536132812e-01
-1.146363258361816406e+00 2.259208440780639648e+00 6.911621689796447754e-01
-1.266924858093261719e+00 2.283330917358398438e+00 6.865137815475463867e-01
-9.846880435943603516e-01 2.362763643264770508e+00 6.500908732414245605e-01
-1.052147626876831055e+00 2.281859159469604492e+00 6.111478805541992188e-01
-1.135357141494750977e+00 2.240424156188964844e+00 5.854105353355407715e-01
-9.816778898239135742e-01 2.354383468627929688e+00 5.477853417396545410e-01
-1.047345280647277832e+00 2.273530721664428711e+00 5.120067000389099121e-01
-1.132966756820678711e+00 2.239583730697631836e+00 4.887747764587402344e-01
-9.678735733032226562e-01 2.322417259216308594e+00 4.445493817329406738e-01
-1.046682119369506836e+00 2.274179697036743164e+00 4.171431958675384521e-01
-1.165307760238647461e+00 2.304511785507202148e+00 4.053144156932830811e-01
-9.821989536285400391e-01 2.357950210571289062e+00 3.558070063591003418e-01
-1.054010033607482910e+00 2.292207956314086914e+00 3.267753720283508301e-01
-1.147663712501525879e+00 2.274546146392822266e+00 3.060480058193206787e-01
-1.024292826652526855e+00 2.461424350738525391e+00 2.731575369834899902e-01
-1.055371642112731934e+00 2.297281265258789062e+00 2.349701672792434692e-01
-1.156946301460266113e+00 2.294934511184692383e+00 2.144595235586166382e-01
-1.060656189918518066e+00 2.551317691802978516e+00 1.820657551288604736e-01
-1.073674798011779785e+00 2.339275121688842773e+00 1.452555507421493530e-01
-1.109985947608947754e+00 2.671291112899780273e+00 8.585411310195922852e-02
-1.077262163162231445e+00 2.349253654479980469e+00 5.233186855912208557e-02
-9.644616246223449707e-01 2.355991363525390625e+00 7.502229213714599609e-01
-1.059344887733459473e+00 2.332877159118652344e+00 7.259767055511474609e-01
-1.129460692405700684e+00 2.260159015655517578e+00 6.893197894096374512e-01
-1.247786402702331543e+00 2.281727790832519531e+00 6.837169528007507324e-01
-9.642943143844604492e-01 2.354410648345947266e+00 6.461524367332458496e-01
-1.061008691787719727e+00 2.338709354400634766e+00 6.246186494827270508e-01
-1.119414210319519043e+00 2.242991447448730469e+00 5.842755436897277832e-01
-9.631351828575134277e-01 2.350410938262939453e+00 5.454757213592529297e-01
-1.033779978752136230e+00 2.280806779861450195e+00 5.122070908546447754e-01
-1.116139769554138184e+00 2.240343332290649414e+00 4.874367117881774902e-01
-9.513658285140991211e-01 2.322844505310058594e+00 4.435054361820220947e-01
-1.039625525474548340e+00 2.295834779739379883e+00 4.199372828006744385e-01
-1.132649660110473633e+00 2.274477005004882812e+00 3.988020718097686768e-01
-9.680875539779663086e-01 2.364848852157592773e+00 3.559449613094329834e-01
-1.042786955833435059e+00 2.304956912994384766e+00 3.276745080947875977e-01
-1.133685827255249023e+00 2.281545162200927734e+00 3.060480058193206787e-01
-1.006158113479614258e+00 2.460296869277954102e+00 2.723421752452850342e-01
-1.051918625831604004e+00 2.327304124832153320e+00 2.373763173818588257e-01
-1.141513705253601074e+00 2.299312353134155273e+00 2.142100483179092407e-01
-1.048755526542663574e+00 2.567014932632446289e+00 1.827232688665390015e-01
-1.054781198501586914e+00 2.335809707641601562e+00 1.446357816457748413e-01
-1.137643814086914062e+00 2.293527364730834961e+00 1.202870085835456848e-01
-1.092818617820739746e+00 2.676201105117797852e+00 8.579478412866592407e-02
-1.050081491470336914e+00 2.327567815780639648e+00 5.170429125428199768e-02
-1.160712957382202148e+00 2.343116521835327148e+00 2.784009464085102081e-02
-9.471238255500793457e-01 2.354745626449584961e+00 7.479615211486816406e-01
-1.040301561355590820e+00 2.328791618347167969e+00 7.227053046226501465e-01
-1.115145325660705566e+00 2.266180992126464844e+00 6.890565752983093262e-01
-1.310844063758850098e+00 2.432371616363525391e+00 7.264333367347717285e-01
-9.487442374229431152e-01 2.357585668563842773e+00 6.454139947891235352e-01
-1.056538820266723633e+00 2.367358684539794922e+00 6.305269002914428711e-01
-1.100046396255493164e+00 2.238455057144165039e+00 5.813246965408325195e-01
-9.439480900764465332e-01 2.344485759735107422e+00 5.427462458610534668e-01
-1.034527659416198730e+00 2.320214509963989258e+00 5.196216702461242676e-01
-1.098913788795471191e+00 2.240099668502807617e+00 4.859074652194976807e-01
-9.381981492042541504e-01 2.331378936767578125e+00 4.440274238586425781e-01
-1.021103858947753906e+00 2.292258977890014648e+00 4.181293547153472900e-01
-1.104319334030151367e+00 2.252112865447998047e+00 3.936852514743804932e-01
-9.502325057983398438e-01 2.362474441528320312e+00 3.547032773494720459e-01
-1.022979259490966797e+00 2.298627376556396484e+00 3.258762359619140625e-01
-1.120974063873291016e+00 2.291133642196655273e+00 3.064057826995849609e-01
-9.888176321983337402e-01 2.460885763168334961e+00 2.717306017875671387e-01
-1.044091224670410156e+00 2.348272085189819336e+00 2.388570308685302734e-01
-1.126946091651916504e+00 2.305377960205078125e+00 2.141268849372863770e-01
-1.024807214736938477e+00 2.553029298782348633e+00 1.812767386436462402e-01
-1.036781311035156250e+00 2.334025621414184570e+00 1.441286653280258179e-01
-1.126179814338684082e+00 2.305849790573120117e+00 1.205685958266258240e-01
-1.078610301017761230e+00 2.688422203063964844e+00 8.597278594970703125e-02
-1.042268872261047363e+00 2.348588943481445312e+00 5.202820524573326111e-02
-1.139738678932189941e+00 2.336713552474975586e+00 2.768040075898170471e-02
-9.379447102546691895e-01 2.373894214630126953e+00 7.522016763687133789e-01
-1.025992751121520996e+00 2.335130929946899414e+00 7.227053046226501465e-01
-1.102060675621032715e+00 2.274717092514038086e+00 6.895830035209655762e-01
-1.288183689117431641e+00 2.425848245620727539e+00 7.221108675003051758e-01
-9.303410053253173828e-01 2.353447675704956055e+00 6.427062749862670898e-01
-1.053318977355957031e+00 2.399598836898803711e+00 6.373804211616516113e-01
-1.085442423820495605e+00 2.243409156799316406e+00 5.808706879615783691e-01
-9.281064867973327637e-01 2.346596956253051758e+00 5.419064164161682129e-01
-1.038764715194702148e+00 2.368688344955444336e+00 5.290401577949523926e-01
-1.085148096084594727e+00 2.246800422668457031e+00 4.859074652194976807e-01
-9.238753914833068848e-01 2.337091922760009766e+00 4.440274238586425781e-01
-1.033936858177185059e+00 2.359918832778930664e+00 4.293057620525360107e-01
-1.087044000625610352e+00 2.251729249954223633e+00 3.924448192119598389e-01
-9.368106126785278320e-01 2.371023893356323242e+00 3.551171720027923584e-01
-1.103878855705261230e+00 2.291707277297973633e+00 3.055709004402160645e-01
-9.642033576965332031e-01 2.442848443984985352e+00 2.690805792808532715e-01
-1.109322309494018555e+00 2.305065631866455078e+00 2.134616374969482422e-01
-1.012050986289978027e+00 2.566695451736450195e+00 1.818027496337890625e-01
-1.062011003494262695e+00 2.430919647216796875e+00 1.497067511081695557e-01
-1.112010121345520020e+00 2.312716484069824219e+00 1.205685958266258240e-01
-1.063926577568054199e+00 2.699639558792114258e+00 8.612111210823059082e-02
-1.121483802795410156e+00 2.335550069808959961e+00 2.758458256721496582e-02
-9.303011298179626465e-01 2.397489786148071289e+00 7.578552365303039551e-01
-1.012027025222778320e+00 2.342265844345092773e+00 7.229779958724975586e-01
-1.090159058570861816e+00 2.285790443420410156e+00 6.908990144729614258e-01
-1.221716046333312988e+00 2.335158824920654297e+00 6.928704380989074707e-01
-9.123752117156982422e-01 2.350076436996459961e+00 6.402447223663330078e-01
-1.021246790885925293e+00 2.365871906280517578e+00 6.267456412315368652e-01
-1.071656703948974609e+00 2.250027179718017578e+00 5.808706879615783691e-01
-9.133365750312805176e-01 2.351336240768432617e+00 5.416964888572692871e-01
-1.011796474456787109e+00 2.346229553222656250e+00 5.226275324821472168e-01
-1.069234371185302734e+00 2.248984098434448242e+00 4.849517345428466797e-01
-9.073795080184936523e-01 2.337208509445190430e+00 4.429834485054016113e-01
-1.024120569229125977e+00 2.377089023590087891e+00 4.312780499458312988e-01
-1.077023386955261230e+00 2.266387224197387695e+00 3.938403427600860596e-01
-9.190199971199035645e-01 2.368417024612426758e+00 3.538755178451538086e-01
-1.013122081756591797e+00 2.353821039199829102e+00 3.319133520126342773e-01
-1.091923236846923828e+00 2.302923202514648438e+00 3.061672747135162354e-01
-9.542297720909118652e-01 2.461704254150390625e+00 2.705075144767761230e-01
-1.077342510223388672e+00 2.505434751510620117e+00 2.534790337085723877e-01
-1.092597961425781250e+00 2.306425333023071289e+00 2.129627019166946411e-01
-1.008533835411071777e+00 2.604494333267211914e+00 1.840382963418960571e-01
-1.134955406188964844e+00 2.641958475112915039e+00 1.622715294361114502e-01
-1.105490565299987793e+00 2.335748195648193359e+00 1.214133799076080322e-01
-1.062133789062500000e+00 2.744336128234863281e+00 8.733742684125900269e-02
-1.175429821014404297e+00 2.738810777664184570e+00 6.034866720438003540e-02
-1.109695911407470703e+00 2.347811698913574219e+00 2.764846198260784149e-02
-9.145483970642089844e-01 2.400463819503784180e+00 7.570071816444396973e-01
-9.957551956176757812e-01 2.344003677368164062e+00 7.216148376464843750e-01
-1.082672238349914551e+00 2.306409358978271484e+00 6.951101422309875488e-01
-1.163943886756896973e+00 2.258363008499145508e+00 6.679525375366210938e-01
-9.003548622131347656e-01 2.361970186233520508e+00 6.419677734375000000e-01
-1.004433155059814453e+00 2.366726875305175781e+00 6.253276467323303223e-01
-1.062791228294372559e+00 2.267142295837402344e+00 5.835946202278137207e-01
-1.156009554862976074e+00 2.247782945632934570e+00 5.649910569190979004e-01
-9.002854824066162109e-01 2.360550165176391602e+00 5.425363183021545410e-01
-9.924095869064331055e-01 2.340667724609375000e+00 5.200224518775939941e-01
-1.057494640350341797e+00 2.259947538375854492e+00 4.859074652194976807e-01
-1.166391849517822266e+00 2.272845029830932617e+00 4.725561738014221191e-01
-8.933724164962768555e-01 2.343652486801147461e+00 4.431574642658233643e-01
-9.945114850997924805e-01 2.347905397415161133e+00 4.248680472373962402e-01
-1.062259674072265625e+00 2.271163225173950195e+00 3.935302197933197021e-01
-9.044703841209411621e-01 2.374011516571044922e+00 3.538755178451538086e-01
-1.015278697013854980e+00 2.399265527725219727e+00 3.374366760253906250e-01
-1.081131100654602051e+00 2.316777229309082031e+00 3.071214258670806885e-01
-9.380455017089843750e-01 2.464723587036132812e+00 2.702017426490783691e-01
-1.058847427368164062e+00 2.504661083221435547e+00 2.527386844158172607e-01
-1.080109834671020508e+00 2.316698789596557617e+00 2.132953256368637085e-01
-9.787045717239379883e-01 2.574258327484130859e+00 1.814740002155303955e-01
-1.091532230377197266e+00 2.584490537643432617e+00 1.583274304866790771e-01
-1.087763667106628418e+00 2.335243463516235352e+00 1.210379227995872498e-01
-1.149663448333740234e+00 2.724784851074218750e+00 5.988304689526557922e-02
-1.092316865921020508e+00 2.348230123519897461e+00 2.757393755018711090e-02
-9.088740944862365723e-01 2.430288076400756836e+00 7.646394371986389160e-01
-9.791294336318969727e-01 2.344742298126220703e+00 7.199791669845581055e-01
-1.073354959487915039e+00 2.323518753051757812e+00 6.982685923576354980e-01
-1.141746997833251953e+00 2.249077081680297852e+00 6.631214618682861328e-01
-9.011300206184387207e-01 2.408299684524536133e+00 6.530447006225585938e-01
-9.801654219627380371e-01 2.349529504776000977e+00 6.191830635070800781e-01
-1.061099052429199219e+00 2.300150632858276367e+00 5.904043316841125488e-01
-1.138226509094238281e+00 2.246998310089111328e+00 5.630277395248413086e-01
-8.809853196144104004e-01 2.353210687637329102e+00 5.395968556404113770e-01
-9.761444330215454102e-01 2.342191457748413086e+00 5.190204977989196777e-01
-1.051408410072326660e+00 2.283333778381347656e+00 4.895393550395965576e-01
-1.145326614379882812e+00 2.265917778015136719e+00 4.696459174156188965e-01
-8.769045472145080566e-01 2.343556165695190430e+00 4.421135187149047852e-01
-9.706077575683593750e-01 2.331197738647460938e+00 4.207590818405151367e-01
-1.058630228042602539e+00 2.300073862075805664e+00 3.974066078662872314e-01
-1.162732243537902832e+00 2.304347753524780273e+00 3.806801736354827881e-01
-8.926622271537780762e-01 2.386938095092773438e+00 3.549792170524597168e-01
-1.002061486244201660e+00 2.409112691879272461e+00 3.379504680633544922e-01
-1.063995003700256348e+00 2.317051410675048828e+00 3.062865138053894043e-01
-1.148191809654235840e+00 2.278496503829956055e+00 2.821333110332489014e-01
-9.298673868179321289e-01 2.489070892333984375e+00 2.722402513027191162e-01
-1.038492202758789062e+00 2.499157667160034180e+00 2.515356242656707764e-01
-1.068783283233642578e+00 2.329622983932495117e+00 2.138774096965789795e-01
-1.153536200523376465e+00 2.292087554931640625e+00 1.897854655981063843e-01
-1.074122309684753418e+00 2.587450981140136719e+00 1.581020653247833252e-01
-1.077992677688598633e+00 2.351862430572509766e+00 1.215541735291481018e-01
-1.117219686508178711e+00 2.693923234939575195e+00 5.905302241444587708e-02
-1.077055454254150391e+00 2.353069543838500977e+00 2.755264379084110260e-02
-8.913011550903320312e-01 2.428615093231201172e+00 7.623779773712158203e-01
-9.643586874008178711e-01 2.349816083908081055e+00 7.197065353393554688e-01
-1.068259596824645996e+00 2.350261449813842773e+00 7.043221592903137207e-01
-1.124465584754943848e+00 2.249120235443115234e+00 6.610873937606811523e-01
-8.906791806221008301e-01 2.425611257553100586e+00 6.562446951866149902e-01
-9.616760015487670898e-01 2.345609903335571289e+00 6.165834665298461914e-01
-1.066286802291870117e+00 2.349185466766357422e+00 6.012999415397644043e-01
-1.122675180435180664e+00 2.250447034835815430e+00 5.621551871299743652e-01
-8.712500929832458496e-01 2.371420383453369141e+00 5.425363183021545410e-01
-9.591553211212158203e-01 2.341790437698364258e+00 5.176177620887756348e-01
-1.048720240592956543e+00 2.314776420593261719e+00 4.948916435241699219e-01
-1.127019762992858887e+00 2.264099836349487305e+00 4.678269922733306885e-01
-8.618293404579162598e-01 2.347043752670288086e+00 4.417655169963836670e-01
-9.577797055244445801e-01 2.340761184692382812e+00 4.214165210723876953e-01
-1.051425337791442871e+00 2.321825027465820312e+00 4.000425338745117188e-01
-1.130521535873413086e+00 2.275114774703979492e+00 3.746978342533111572e-01
-8.790231347084045410e-01 2.395159959793090820e+00 3.553931117057800293e-01
-9.763786196708679199e-01 2.388594388961791992e+00 3.342254459857940674e-01
-1.065700411796569824e+00 2.358823776245117188e+00 3.109380602836608887e-01
-1.132864117622375488e+00 2.282827615737915039e+00 2.818035781383514404e-01
-1.015609502792358398e+00 2.487046480178833008e+00 2.496847361326217651e-01
-1.056108832359313965e+00 2.339770317077636719e+00 2.142100483179092407e-01
-1.143879055976867676e+00 2.308058023452758789e+00 1.905230730772018433e-01
-1.054831624031066895e+00 2.585672855377197266e+00 1.575949639081954956e-01
-1.062309741973876953e+00 2.355700731277465820e+00 1.214133799076080322e-01
-1.150747537612915039e+00 2.324975728988647461e+00 9.739095717668533325e-02
-1.104442358016967773e+00 2.709986209869384766e+00 5.925546586513519287e-02
-1.067524075508117676e+00 2.370575189590454102e+00 2.768040075898170471e-02
-1.183990836143493652e+00 2.394242525100708008e+00 3.263241611421108246e-03
-8.783323764801025391e-01 2.439453363418579102e+00 7.640740871429443359e-01
-9.553196430206298828e-01 2.369073629379272461e+00 7.237958312034606934e-01
-1.056575179100036621e+00 2.362936735153198242e+00 7.061645388603210449e-01
-1.111498475074768066e+00 2.257712841033935547e+00 6.615959405899047852e-01
-8.659241795539855957e-01 2.403674840927124023e+00 6.488600969314575195e-01
-9.454500675201416016e-01 2.346960067749023438e+00 6.154018044471740723e-01
-1.055028915405273438e+00 2.362797975540161133e+00 6.031158566474914551e-01
-1.107985019683837891e+00 2.255541324615478516e+00 5.617188811302185059e-01
-9.407448768615722656e-01 2.337633848190307617e+00 5.154133439064025879e-01
-1.028903245925903320e+00 2.308615922927856445e+00 4.922154843807220459e-01
-1.102286934852600098e+00 2.248898744583129883e+00 4.632796943187713623e-01
-9.426631331443786621e-01 2.344763517379760742e+00 4.210877716541290283e-01
-1.033943057060241699e+00 2.321013450622558594e+00 3.988020718097686768e-01
-1.104801058769226074e+00 2.258015632629394531e+00 3.707582652568817139e-01
-9.635520577430725098e-01 2.399141550064086914e+00 3.348676860332489014e-01
-1.058868169784545898e+00 2.382557153701782227e+00 3.132042288780212402e-01
-1.116653800010681152e+00 2.285270690917968750e+00 2.812540233135223389e-01
-1.004408597946166992e+00 2.503396272659301758e+00 2.507027089595794678e-01
-1.045371890068054199e+00 2.354403495788574219e+00 2.149584442377090454e-01
-1.127508640289306641e+00 2.310551881790161133e+00 1.901542693376541138e-01
-1.052318572998046875e+00 2.625459194183349609e+00 1.596233546733856201e-01
-1.043785095214843750e+00 2.353043794631958008e+00 1.209440529346466064e-01
-1.130331158638000488e+00 2.319416522979736328e+00 9.686572849750518799e-02
-1.087793350219726562e+00 2.716711997985839844e+00 5.925546586513519287e-02
-1.050528526306152344e+00 2.371595144271850586e+00 2.761652134358882904e-02
-1.143011689186096191e+00 2.347516775131225586e+00 3.189937444403767586e-03
-8.668611049652099609e-01 2.454746007919311523e+00 7.671835422515869141e-01
-9.418283104896545410e-01 2.377574205398559570e+00 7.246136665344238281e-01
-1.038560986518859863e+00 2.361427307128906250e+00 7.037957310676574707e-01
-1.092984199523925781e+00 2.254917144775390625e+00 6.587989926338195801e-01
-9.288863539695739746e-01 2.347295999526977539e+00 6.139838099479675293e-01
-1.052651166915893555e+00 2.396869659423828125e+00 6.101526021957397461e-01
-1.093274593353271484e+00 2.260540246963500977e+00 5.612825751304626465e-01
-9.271041154861450195e-01 2.345184564590454102e+00 5.158141851425170898e-01
-1.041514992713928223e+00 2.376016616821289062e+00 5.052137970924377441e-01
-1.082911610603332520e+00 2.244107007980346680e+00 4.609150886535644531e-01
-9.224610924720764160e-01 2.335824251174926758e+00 4.184580445289611816e-01
-1.025628924369812012e+00 2.340886831283569336e+00 4.011279344558715820e-01
-1.090066671371459961e+00 2.262969493865966797e+00 3.704664111137390137e-01
-9.462654590606689453e-01 2.398551225662231445e+00 3.339685499668121338e-01
-1.100887060165405273e+00 2.288496494293212891e+00 2.808144092559814453e-01
-9.882988929748535156e-01 2.507659435272216797e+00 2.505176067352294922e-01
-1.112446546554565430e+00 2.315629005432128906e+00 1.900067478418350220e-01
-1.043870091438293457e+00 2.651375770568847656e+00 1.608065813779830933e-01
-1.113606810569763184e+00 2.552587509155273438e+00 1.308467239141464233e-01
-1.104839801788330078e+00 2.302883386611938477e+00 9.589032828807830811e-02
-1.066712260246276855e+00 2.712170362472534180e+00 5.901253595948219299e-02
-1.124263644218444824e+00 2.345468521118164062e+00 3.177720354869961739e-03
-8.624535799026489258e-01 2.490837097167968750e+00 7.767944931983947754e-01
-9.258266091346740723e-01 2.379721641540527344e+00 7.235231399536132812e-01
-1.019456386566162109e+00 2.357129812240600586e+00 7.006374001502990723e-01
-1.084125638008117676e+00 2.272055387496948242e+00 6.618502140045166016e-01
-9.112982749938964844e-01 2.344800472259521484e+00 6.118568778038024902e-01
-1.034449219703674316e+00 2.395236730575561523e+00 6.081096529960632324e-01
-1.077286124229431152e+00 2.262799978256225586e+00 5.601918697357177734e-01
-9.095056056976318359e-01 2.342609167098999023e+00 5.140106081962585449e-01
-1.019922614097595215e+00 2.366137742996215820e+00 5.017731189727783203e-01
-1.072918891906738281e+00 2.258703231811523438e+00 4.625521302223205566e-01
-9.073980450630187988e-01 2.339601039886474609e+00 4.181293547153472900e-01
-1.026100277900695801e+00 2.381612777709960938e+00 4.070200324058532715e-01
-1.077432394027709961e+00 2.272297143936157227e+00 3.709041476249694824e-01
-9.257978796958923340e-01 2.389516353607177734e+00 3.319133520126342773e-01
-1.055426716804504395e+00 2.455575227737426758e+00 3.210760653018951416e-01
-1.085973739624023438e+00 2.293411731719970703e+00 2.805946171283721924e-01
-9.682214856147766113e-01 2.501604795455932617e+00 2.493145614862442017e-01
-1.091893911361694336e+00 2.542866706848144531e+00 2.309244275093078613e-01
-1.097364425659179688e+00 2.320607900619506836e+00 1.898592263460159302e-01
-1.022541284561157227e+00 2.644693613052368164e+00 1.600177586078643799e-01
-1.142029404640197754e+00 2.662188053131103516e+00 1.361031234264373779e-01
-1.088555097579956055e+00 2.305100917816162109e+00 9.570274502038955688e-02
-1.045727849006652832e+00 2.707472801208496094e+00 5.876960232853889465e-02
-1.101743578910827637e+00 2.335139274597167969e+00 3.154507372528314590e-03
-8.477704524993896484e-01 2.497898817062377930e+00 7.773599028587341309e-01
-9.108641743659973145e-01 2.384459018707275391e+00 7.232505679130554199e-01
-1.001576423645019531e+00 2.355350255966186523e+00 6.982685923576354980e-01
-1.084964632987976074e+00 2.310179233551025391e+00 6.710036993026733398e-01
-8.972401022911071777e-01 2.351255655288696289e+00 6.120932102203369141e-01
-1.006410479545593262e+00 2.370163679122924805e+00 6.001649498939514160e-01
-1.066694259643554688e+00 2.276437282562255859e+00 5.619370341300964355e-01
-8.940675854682922363e-01 2.345399379730224609e+00 5.134094357490539551e-01
-9.950439333915710449e-01 2.347949743270874023e+00 4.966119527816772461e-01
-1.065286278724670410e+00 2.278605699539184570e+00 4.652805030345916748e-01
-8.916213512420654297e-01 2.341437578201293945e+00 4.174719154834747314e-01
-1.002605319023132324e+00 2.366941690444946289e+00 4.034537672996520996e-01
-1.061377763748168945e+00 2.274382829666137695e+00 3.701746165752410889e-01
-9.164077043533325195e-01 2.409055709838867188e+00 3.338401019573211670e-01
-1.035702228546142578e+00 2.451030015945434570e+00 3.196448087692260742e-01
-1.071461319923400879e+00 2.299130916595458984e+00 2.804846763610839844e-01
-9.620496630668640137e-01 2.531698465347290039e+00 2.517206966876983643e-01
-1.069682121276855469e+00 2.533911228179931641e+00 2.295107692480087280e-01
-1.082684040069580078e+00 2.326393365859985352e+00 1.897854655981063843e-01
-1.032160520553588867e+00 2.719057798385620117e+00 1.641308963298797607e-01
-1.122179627418518066e+00 2.660861730575561523e+00 1.356807351112365723e-01
-1.089973807334899902e+00 2.345266342163085938e+00 9.709082543849945068e-02
-1.142915725708007812e+00 2.713998317718505859e+00 3.135337680578231812e-02
-1.084446668624877930e+00 2.335506439208984375e+00 3.145955270156264305e-03
-8.197141885757446289e-01 2.464825153350830078e+00 7.654874920845031738e-01
-8.968919515609741211e-01 2.391804933547973633e+00 7.237958312034606934e-01
-9.826405048370361328e-01 2.350770235061645508e+00 6.951101422309875488e-01
-1.076043963432312012e+00 2.328205585479736328e+00 6.743091344833374023e-01
-8.855229020118713379e-01 2.363996028900146484e+00 6.139838099479675293e-01
-9.839707612991333008e-01 2.357420682907104492e+00 5.953981280326843262e-01
-1.065374612808227539e+00 2.310412883758544922e+00 5.686994791030883789e-01
-8.789730072021484375e-01 2.349006175994873047e+00 5.130086541175842285e-01
-9.745792150497436523e-01 2.339513778686523438e+00 4.935535192489624023e-01
-1.057860612869262695e+00 2.299392223358154297e+00 4.681907892227172852e-01
-8.844904899597167969e-01 2.366267442703247070e+00 4.209234416484832764e-01
-9.766710996627807617e-01 2.345688581466674805e+00 3.988020718097686768e-01
-1.062265157699584961e+00 2.313217878341674805e+00 3.754273951053619385e-01
-9.109752178192138672e-01 2.439718008041381836e+00 3.373082280158996582e-01
-1.012645959854125977e+00 2.438083648681640625e+00 3.171401321887969971e-01
-1.066448926925659180e+00 2.325538635253906250e+00 2.829026579856872559e-01
-9.454535245895385742e-01 2.534755229949951172e+00 2.514430880546569824e-01
-1.051822543144226074e+00 2.534904241561889648e+00 2.290118336677551270e-01
-1.072541475296020508e+00 2.342060089111328125e+00 1.905230730772018433e-01
-1.099329113960266113e+00 2.652010202407836914e+00 1.348828971385955811e-01
-1.067251086235046387e+00 2.333734750747680664e+00 9.634050726890563965e-02
-1.118975281715393066e+00 2.703405380249023438e+00 3.115109726786613464e-02
-1.071758270263671875e+00 2.345755100250244141e+00 3.150842385366559029e-03
-8.060603737831115723e-01 2.474368333816528320e+00 7.669008374214172363e-01
-8.828637003898620605e-01 2.399068832397460938e+00 7.243410348892211914e-01
-9.685646295547485352e-01 2.357647895812988281e+00 6.953734159469604492e-01
-1.070545911788940430e+00 2.354132413864135742e+00 6.799029111862182617e-01
-8.807235360145568848e-01 2.395833253860473633e+00 6.208373904228210449e-01
-9.613559246063232422e-01 2.343590974807739258e+00 5.904043316841125488e-01
-1.057629585266113281e+00 2.331125974655151367e+00 5.721897482872009277e-01
-8.709597587585449219e-01 2.371828794479370117e+00 5.168161988258361816e-01
-9.572308659553527832e-01 2.338182687759399414e+00 4.920243322849273682e-01
-1.059545993804931641e+00 2.340776920318603516e+00 4.752846062183380127e-01
-8.753898143768310547e-01 2.386466979980468750e+00 4.235531985759735107e-01
-9.656270146369934082e-01 2.359866142272949219e+00 4.001975953578948975e-01
-1.047644138336181641e+00 2.318790674209594727e+00 3.752814531326293945e-01
-8.918938040733337402e-01 2.434087514877319336e+00 3.357668220996856689e-01
-9.954158663749694824e-01 2.438735723495483398e+00 3.164245188236236572e-01
-1.052977085113525391e+00 2.333850383758544922e+00 2.831224799156188965e-01
-1.034743785858154297e+00 2.537619352340698242e+00 2.286792099475860596e-01
-1.057331323623657227e+00 2.346778392791748047e+00 1.903755515813827515e-01
-1.082659125328063965e+00 2.657780647277832031e+00 1.348359584808349609e-01
-1.054961562156677246e+00 2.344795942306518555e+00 9.652809053659439087e-02
-1.099352598190307617e+00 2.702810525894165039e+00 3.106592781841754913e-02
-1.065134406089782715e+00 2.369616746902465820e+00 3.174055134877562523e-03
-8.746613264083862305e-01 2.422539710998535156e+00 7.297933101654052734e-01
-9.558857083320617676e-01 2.368019342422485352e+00 6.966893672943115234e-01
-1.058055758476257324e+00 2.365071058273315430e+00 6.811742782592773438e-01
-8.722699284553527832e-01 2.418558835983276367e+00 6.253276467323303223e-01
-9.429530501365661621e-01 2.339509725570678711e+00 5.879074335098266602e-01
-1.046488165855407715e+00 2.344701051712036133e+00 5.739348530769348145e-01
-9.435986280441284180e-01 2.345833301544189453e+00 4.924066662788391113e-01
-1.030763864517211914e+00 2.314895629882812500e+00 4.687364697456359863e-01
-9.489178657531738281e-01 2.360246896743774414e+00 3.992672562599182129e-01
-1.030182242393493652e+00 2.317943096160888672e+00 3.741141855716705322e-01
-9.782159328460693359e-01 2.439268589019775391e+00 3.157088756561279297e-01
-1.035008311271667480e+00 2.332091093063354492e+00 2.821333110332489014e-01
-1.018783092498779297e+00 2.542995452880859375e+00 2.285960465669631958e-01
-1.038063049316406250e+00 2.342280864715576172e+00 1.894904226064682007e-01
-1.069300174713134766e+00 2.671792745590209961e+00 1.352114081382751465e-01
-1.045002818107604980e+00 2.361276865005493164e+00 9.694076329469680786e-02
-1.087942481040954590e+00 2.722504615783691406e+00 3.121497482061386108e-02
-1.053809642791748047e+00 2.383424520492553711e+00 3.183829132467508316e-03
-8.623498678207397461e-01 2.435116529464721680e+00 7.319743037223815918e-01
-9.381371736526489258e-01 2.365768671035766602e+00 6.943205595016479492e-01
-1.063000082969665527e+00 2.415779829025268555e+00 6.938874721527099609e-01
-9.314484596252441406e-01 2.352495431900024414e+00 5.897233486175537109e-01
-1.048949599266052246e+00 2.389503002166748047e+00 5.833150148391723633e-01
-9.284656643867492676e-01 2.349753141403198242e+00 4.920243322849273682e-01
-1.050070166587829590e+00 2.397738695144653320e+00 4.841973185539245605e-01
-9.318776726722717285e-01 2.359593152999877930e+00 3.981818556785583496e-01
-1.032978296279907227e+00 2.363199234008789062e+00 3.803883492946624756e-01
-9.632304906845092773e-01 2.445224761962890625e+00 3.157088756561279297e-01
-9.991464018821716309e-01 2.538998365402221680e+00 2.276813238859176636e-01
-1.053251743316650391e+00 2.679233312606811523e+00 1.352583467960357666e-01
-1.197591185569763184e+00 2.751562118530273438e+00 1.126598790287971497e-01
-1.075601339340209961e+00 2.740298748016357422e+00 3.134272992610931396e-02
-8.537040948867797852e-01 2.458539724349975586e+00 7.374266386032104492e-01
-9.257041215896606445e-01 2.376874446868896484e+00 6.958997249603271484e-01
-1.029721260070800781e+00 2.379652261734008789e+00 6.816828250885009766e-01
-9.148785471916198730e-01 2.352720260620117188e+00 5.883613824844360352e-01
-1.032334208488464355e+00 2.391414403915405273e+00 5.822243690490722656e-01
-9.111896157264709473e-01 2.348085403442382812e+00 4.904951453208923340e-01
-1.024059057235717773e+00 2.377945661544799805e+00 4.789224267005920410e-01
-9.155957698822021484e-01 2.360661506652832031e+00 3.974066078662872314e-01
-1.027053117752075195e+00 2.389488697052001953e+00 3.835983872413635254e-01
-9.446265101432800293e-01 2.441829204559326172e+00 3.145161867141723633e-01
-1.073347210884094238e+00 2.500802516937255859e+00 3.009275496006011963e-01
-9.857038855552673340e-01 2.550658464431762695e+00 2.281802743673324585e-01
-1.102347850799560547e+00 2.572086572647094727e+00 2.069716453552246094e-01
-1.035713195800781250e+00 2.682849884033203125e+00 1.351175606250762939e-01
-1.168103933334350586e+00 2.729460000991821289e+00 1.114593669772148132e-01
-1.058766961097717285e+00 2.746846914291381836e+00 3.134272992610931396e-02
-8.537936806678771973e-01 2.508361101150512695e+00 7.507848143577575684e-01
-9.317780733108520508e-01 2.436575889587402344e+00 7.116917967796325684e-01
-1.009042501449584961e+00 2.371686697006225586e+00 6.776145696640014648e-01
-8.983410000801086426e-01 2.352830648422241211e+00 5.869994759559631348e-01
-1.007727980613708496e+00 2.374346494674682617e+00 5.765526294708251953e-01
-8.964153528213500977e-01 2.352714776992797852e+00 4.903039634227752686e-01
-1.003698229789733887e+00 2.370601892471313477e+00 4.761940240859985352e-01
-8.982811570167541504e-01 2.358849048614501953e+00 3.961661458015441895e-01
-1.006595969200134277e+00 2.382076263427734375e+00 3.814097046852111816e-01
-9.278633594512939453e-01 2.442938566207885742e+00 3.139198422431945801e-01
-1.042139649391174316e+00 2.469795227050781250e+00 2.964213192462921143e-01
-9.732163548469543457e-01 2.565043926239013672e+00 2.289286553859710693e-01
-1.082285642623901367e+00 2.568692445755004883e+00 2.061602622270584106e-01
-1.139320969581604004e+00 2.708021879196166992e+00 1.102963760495185852e-01
-8.161635398864746094e-01 2.446926355361938477e+00 7.308838367462158203e-01
-9.127413034439086914e-01 2.431408882141113281e+00 7.085333466529846191e-01
-9.907395839691162109e-01 2.368911027908325195e+00 6.750719547271728516e-01
-8.896979689598083496e-01 2.373801469802856445e+00 5.908583402633666992e-01
-9.893826842308044434e-01 2.371478319168090820e+00 5.743711590766906738e-01
-8.864324688911437988e-01 2.370122432708740234e+00 4.927889406681060791e-01
-9.811993837356567383e-01 2.357651233673095703e+00 4.723743200302124023e-01
-8.855201601982116699e-01 2.368943214416503906e+00 3.969414532184600830e-01
-9.874071478843688965e-01 2.377244472503662109e+00 3.796588182449340820e-01
-9.277699589729309082e-01 2.488589286804199219e+00 3.190484642982482910e-01
-1.021634697914123535e+00 2.463289737701416016e+00 2.948825955390930176e-01
-1.058490991592407227e+00 2.555935859680175781e+00 2.046113014221191406e-01
-1.101299047470092773e+00 2.663248062133789062e+00 1.081954911351203918e-01
-1.126725077629089355e+00 2.727431058883666992e+00 3.605325939133763313e-03
-8.918020725250244141e-01 2.420668601989746094e+00 7.037957310676574707e-01
-9.706703424453735352e-01 2.361527442932128906e+00 6.712579727172851562e-01
-8.771330118179321289e-01 2.384700059890747070e+00 5.922203063964843750e-01
-9.692595005035400391e-01 2.363959789276123047e+00 5.710989832878112793e-01
-8.762695789337158203e-01 2.387495994567871094e+00 4.952739179134368896e-01
-9.577808380126953125e-01 2.341784238815307617e+00 4.680089056491851807e-01
-8.815147876739501953e-01 2.403083801269531250e+00 4.017481505870819092e-01
-9.701848626136779785e-01 2.376846790313720703e+00 3.786374032497406006e-01
-9.077071547508239746e-01 2.481181144714355469e+00 3.173786699771881104e-01
-1.006125926971435547e+00 2.468591690063476562e+00 2.947727143764495850e-01
-1.047675013542175293e+00 2.574390888214111328e+00 2.055701911449432373e-01
-1.084184527397155762e+00 2.668103933334350586e+00 1.081204637885093689e-01
-1.111096978187561035e+00 2.737072944641113281e+00 3.608991159126162529e-03
-8.769323229789733887e-01 2.426095008850097656e+00 7.037957310676574707e-01
-9.565241336822509766e-01 2.368335723876953125e+00 6.715121865272521973e-01
-8.608313202857971191e-01 2.385456800460815430e+00 5.910853147506713867e-01
-9.518188238143920898e-01 2.362620830535888672e+00 5.693538784980773926e-01
-9.433938860893249512e-01 2.347616910934448242e+00 4.680089056491851807e-01
-9.537414312362670898e-01 2.378164052963256836e+00 3.779078722000122070e-01
-9.824618101119995117e-01 2.453496217727661133e+00 2.922448217868804932e-01
-1.027416229248046875e+00 2.569658517837524414e+00 2.046850621700286865e-01
-1.077055454254150391e+00 2.697907924652099609e+00 1.090583577752113342e-01
-1.096504330635070801e+00 2.749411821365356445e+00 3.616321366280317307e-03
-8.662204742431640625e-01 2.443250894546508789e+00 7.072173357009887695e-01
-9.359108805656433105e-01 2.358877897262573242e+00 6.671897172927856445e-01
-9.351494312286376953e-01 2.362972021102905273e+00 5.680450201034545898e-01
-9.239167571067810059e-01 2.340556383132934570e+00 4.654623866081237793e-01
-9.369556903839111328e-01 2.378448486328125000e+00 3.770323991775512695e-01
-9.637507796287536621e-01 2.450228691101074219e+00 2.911457419395446777e-01
-1.009077906608581543e+00 2.569416522979736328e+00 2.041687369346618652e-01
-1.062305212020874023e+00 2.709117650985717773e+00 1.092459410429000854e-01
-1.082896232604980469e+00 2.764468193054199219e+00 3.627317026257514954e-03
-8.556477427482604980e-01 2.461277484893798828e+00 7.109021544456481934e-01
-9.210683703422546387e-01 2.363675117492675781e+00 6.669355034828186035e-01
-9.188652038574218750e-01 2.364117622375488281e+00 5.669543147087097168e-01
-9.113151431083679199e-01 2.350765466690063477e+00 4.663718640804290771e-01
-9.169899821281433105e-01 2.370312690734863281e+00 3.748437166213989258e-01
-9.486982822418212891e-01 2.456095933914184570e+00 2.911457419395446777e-01
-1.002982139587402344e+00 2.600682735443115234e+00 2.061602622270584106e-01
-1.049253225326538086e+00 2.724910259246826172e+00 1.096210926771163940e-01
-1.050834774971008301e+00 2.731860637664794922e+00 3.576004179194569588e-03
-8.414630889892578125e-01 2.469220876693725586e+00 7.116917967796325684e-01
-9.120776057243347168e-01 2.383734464645385742e+00 6.710036993026733398e-01
-9.050378203392028809e-01 2.371534585952758789e+00 5.673905611038208008e-01
-9.021208882331848145e-01 2.370098114013671875e+00 4.691002666950225830e-01
-9.076979160308837891e-01 2.389767169952392578e+00 3.770323991775512695e-01
-9.406588673591613770e-01 2.480458021163940430e+00 2.933439016342163086e-01
-9.774712324142456055e-01 2.581606149673461914e+00 2.041687369346618652e-01
-1.050303578376770020e+00 2.781290769577026367e+00 3.632203908637166023e-03
-8.262963891029357910e-01 2.474337577819824219e+00 7.116917967796325684e-01
-9.049155116081237793e-01 2.409204244613647461e+00 6.765974760055541992e-01
-8.925234675407409668e-01 2.382526397705078125e+00 5.686994791030883789e-01
-8.906585574150085449e-01 2.383878707885742188e+00 4.707372784614562988e-01
-8.982014656066894531e-01 2.409196376800537109e+00 3.792210817337036133e-01
-9.302755594253540039e-01 2.499224185943603516e+00 2.948825955390930176e-01
-9.031615853309631348e-01 2.450101613998413086e+00 6.865137815475463867e-01
-8.852961063385009766e-01 2.408109664916992188e+00 5.734986066818237305e-01
-8.814304471015930176e-01 2.404070377349853516e+00 4.736475348472595215e-01
-8.817024827003479004e-01 2.410017013549804688e+00 3.784914910793304443e-01
-8.897557258605957031e-01 2.460144758224487305e+00 6.877851486206054688e-01
-8.721591234207153320e-01 2.418086528778076172e+00 5.745893120765686035e-01
-8.778772354125976562e-01 2.474672794342041016e+00 6.903278231620788574e-01
