-7.023591041564941406e+00 -5.638350963592529297e+00 1.166577816009521484e+00
-6.932665824890136719e+00 -5.159278392791748047e+00 8.854177594184875488e-01
-6.996367931365966797e+00 -5.612481594085693359e+00 8.336397409439086914e-01
-5.316650867462158203e+00 -3.953759908676147461e+00 4.365895986557006836e-01
-4.977875232696533203e+00 -3.990392923355102539e+00 3.600399792194366455e-01
-4.727557182312011719e+00 -4.383372783660888672e+00 7.876494899392127991e-03
-7.107542514801025391e+00 -5.225785255432128906e+00 2.599774122238159180e+00
-7.196448802947998047e+00 -5.293088436126708984e+00 2.268795013427734375e+00
-7.283673763275146484e+00 -5.359202861785888672e+00 1.941918849945068359e+00
-7.051656246185302734e+00 -5.598096847534179688e+00 1.841620922088623047e+00
-7.256918907165527344e+00 -5.337564945220947266e+00 1.591678261756896973e+00
-7.064647674560546875e+00 -5.604391574859619141e+00 1.502570033073425293e+00
-7.272658348083496094e+00 -5.347186088562011719e+00 1.257396221160888672e+00
-7.040180206298828125e+00 -5.580978393554687500e+00 1.163623332977294922e+00
-6.863180637359619141e+00 -5.042429447174072266e+00 8.725753426551818848e-01
-6.792623519897460938e+00 -5.380872249603271484e+00 8.054136633872985840e-01
-5.279680728912353516e+00 -3.876183271408081055e+00 4.315924942493438721e-01
-5.004614353179931641e+00 -3.961633205413818359e+00 3.602089881896972656e-01
-4.644763946533203125e+00 -3.959298372268676758e+00 2.867552042007446289e-01
-8.218508720397949219e+00 -6.998209476470947266e+00 1.149268895387649536e-01
-5.167337894439697266e+00 -4.732504844665527344e+00 8.560664020478725433e-03
-7.119290351867675781e+00 -5.167426109313964844e+00 2.592424631118774414e+00
-7.236634254455566406e+00 -5.254527091979980469e+00 2.271256446838378906e+00
-7.106054306030273438e+00 -5.574550151824951172e+00 2.196681976318359375e+00
-7.417675018310546875e+00 -5.387958526611328125e+00 1.968793749809265137e+00
-7.088956356048583984e+00 -5.557140827178955078e+00 1.842422485351562500e+00
-7.448104858398437500e+00 -5.408075809478759766e+00 1.626302599906921387e+00
-7.063959121704101562e+00 -5.533565044403076172e+00 1.495173931121826172e+00
-7.500909805297851562e+00 -5.444418907165527344e+00 1.291059374809265137e+00
-7.091472625732421875e+00 -5.551124572753906250e+00 1.166449308395385742e+00
-6.879495620727539062e+00 -4.989709377288818359e+00 8.707406520843505859e-01
-6.515725135803222656e+00 -5.096768856048583984e+00 7.688587307929992676e-01
-6.131268024444580078e+00 -5.165465354919433594e+00 6.689906120300292969e-01
-5.267815589904785156e+00 -3.817949771881103516e+00 4.286994338035583496e-01
-5.030401706695556641e+00 -3.932080745697021484e+00 3.603217005729675293e-01
-4.730866909027099609e+00 -3.982833623886108398e+00 2.905567288398742676e-01
-4.448674201965332031e+00 -4.027228832244873047e+00 2.252822220325469971e-01
-8.262059211730957031e+00 -6.948294162750244141e+00 1.149375364184379578e-01
-5.086524009704589844e+00 -4.601422309875488281e+00 8.379847742617130280e-03
-7.129030704498291016e+00 -5.108002662658691406e+00 2.584509611129760742e+00
-7.170692443847656250e+00 -5.558526515960693359e+00 2.570770025253295898e+00
-7.223835945129394531e+00 -5.177839756011962891e+00 2.257225751876831055e+00
-7.156256675720214844e+00 -5.543338775634765625e+00 2.201644897460937500e+00
-7.503830432891845703e+00 -5.380514144897460938e+00 1.982860922813415527e+00
-7.103552818298339844e+00 -5.498547077178955078e+00 1.837412714958190918e+00
-7.536374092102050781e+00 -5.401858329772949219e+00 1.638308048248291016e+00
-7.033020973205566406e+00 -5.440026760101318359e+00 1.481532216072082520e+00
-7.570405006408691406e+00 -5.424250602722167969e+00 1.297267675399780273e+00
-7.036734580993652344e+00 -5.438974380493164062e+00 1.151934504508972168e+00
-6.919688701629638672e+00 -4.954353332519531250e+00 8.719637393951416016e-01
-6.523235321044921875e+00 -5.038434028625488281e+00 7.660824060440063477e-01
-6.145994663238525391e+00 -5.113725185394287109e+00 6.671612262725830078e-01
-5.746945381164550781e+00 -5.144117832183837891e+00 5.704627633094787598e-01
-5.287085533142089844e+00 -3.782652139663696289e+00 4.283706843852996826e-01
-4.990413188934326172e+00 -3.851728200912475586e+00 3.557578027248382568e-01
-4.735245704650878906e+00 -3.937126398086547852e+00 2.893364727497100830e-01
-4.502353668212890625e+00 -4.025833606719970703e+00 2.267453372478485107e-01
-5.282441616058349609e+00 -4.720041751861572266e+00 8.654736913740634918e-03
-7.019273281097412109e+00 -4.964464187622070312e+00 2.533627748489379883e+00
-7.571166992187500000e+00 -5.356780052185058594e+00 2.355440855026245117e+00
-7.089029312133789062e+00 -5.421994209289550781e+00 2.170685768127441406e+00
-7.606931209564208984e+00 -5.384076595306396484e+00 2.001337528228759766e+00
-7.082669258117675781e+00 -5.413212299346923828e+00 1.823385000228881836e+00
-7.644139289855957031e+00 -5.408409595489501953e+00 1.654489398002624512e+00
-7.072538852691650391e+00 -5.401559829711914062e+00 1.482846975326538086e+00
-7.680364131927490234e+00 -5.432028293609619141e+00 1.310374140739440918e+00
-7.023462295532226562e+00 -5.360197544097900391e+00 1.144356012344360352e+00
-6.969455242156982422e+00 -4.925580978393554688e+00 8.744099736213684082e-01
-6.499397754669189453e+00 -4.956650257110595703e+00 7.596967816352844238e-01
-6.108731269836425781e+00 -5.019609928131103516e+00 6.597602963447570801e-01
-5.776906490325927734e+00 -5.107437610626220703e+00 5.703153014183044434e-01
-5.322421550750732422e+00 -3.758774042129516602e+00 4.293569326400756836e-01
-5.013953208923339844e+00 -3.821034908294677734e+00 3.557578027248382568e-01
-4.737698078155517578e+00 -3.890247821807861328e+00 2.880223691463470459e-01
-4.461807727813720703e+00 -3.940581321716308594e+00 2.234814763069152832e-01
-5.638949394226074219e+00 -4.976706981658935547e+00 9.188633412122726440e-03
-7.061400890350341797e+00 -4.929537773132324219e+00 2.537868022918701172e+00
-7.103268623352050781e+00 -5.368019580841064453e+00 2.522789716720581055e+00
-7.541911125183105469e+00 -5.266938209533691406e+00 2.336241006851196289e+00
-7.113635063171386719e+00 -5.371953487396240234e+00 2.168086290359497070e+00
-7.715164184570312500e+00 -5.389934062957763672e+00 2.021073818206787109e+00
-7.125917434692382812e+00 -5.377323627471923828e+00 1.825990200042724609e+00
-7.755494594573974609e+00 -5.416095256805419922e+00 1.671366691589355469e+00
-7.119725227355957031e+00 -5.368751525878906250e+00 1.485805392265319824e+00
-7.778519630432128906e+00 -5.430155754089355469e+00 1.321411132812500000e+00
-7.072060585021972656e+00 -5.328938007354736328e+00 1.146925091743469238e+00
-7.124378681182861328e+00 -4.969804286956787109e+00 8.900043964385986328e-01
-6.557528495788574219e+00 -4.937640190124511719e+00 7.629358768463134766e-01
-6.116201400756835938e+00 -4.963194847106933594e+00 6.572656035423278809e-01
-5.799122333526611328e+00 -5.064023494720458984e+00 5.694301724433898926e-01
-5.365031242370605469e+00 -3.739740133285522461e+00 4.309349954128265381e-01
-5.029326438903808594e+00 -3.784195423126220703e+00 3.551943600177764893e-01
-4.731220722198486328e+00 -3.836568117141723633e+00 2.861920297145843506e-01
-4.424152851104736328e+00 -3.859264612197875977e+00 2.204051911830902100e-01
-8.624764442443847656e+00 -6.986377716064453125e+00 1.181740164756774902e-01
-5.564600467681884766e+00 -4.850677490234375000e+00 9.018812328577041626e-03
-7.110472202301025391e+00 -4.899178504943847656e+00 2.544652223587036133e+00
-7.125276565551757812e+00 -5.316278934478759766e+00 2.518973112106323242e+00
-7.741672515869140625e+00 -5.336074352264404297e+00 2.387933254241943359e+00
-7.128545761108398438e+00 -5.314845561981201172e+00 2.162650346755981445e+00
-7.824557781219482422e+00 -5.395218849182128906e+00 2.041019916534423828e+00
-7.154849529266357422e+00 -5.330572128295898438e+00 1.824988245964050293e+00
-7.851012706756591797e+00 -5.411438465118408203e+00 1.684763908386230469e+00
-7.143830299377441406e+00 -5.318485260009765625e+00 1.483997583389282227e+00
-7.872045516967773438e+00 -5.423909664154052734e+00 1.331620454788208008e+00
-7.147591590881347656e+00 -5.317409038543701172e+00 1.153861284255981445e+00
-7.027626991271972656e+00 -5.635668277740478516e+00 1.082140803337097168e+00
-7.798763275146484375e+00 -5.369403839111328125e+00 9.701170325279235840e-01
-6.603683471679687500e+00 -4.909191608428955078e+00 7.647867202758789062e-01
-6.153538703918457031e+00 -4.931181907653808594e+00 6.580139994621276855e-01
-5.750035285949707031e+00 -4.959303379058837891e+00 5.616115331649780273e-01
-5.411716938018798828e+00 -3.723151922225952148e+00 4.328417778015136719e-01
-5.062870025634765625e+00 -3.761004686355590820e+00 3.559268414974212646e-01
-4.725043296813964844e+00 -3.783739089965820312e+00 2.844085991382598877e-01
-4.454563140869140625e+00 -3.837916135787963867e+00 2.207428216934204102e-01
-8.565178871154785156e+00 -6.851500511169433594e+00 1.167793571949005127e-01
-5.429053306579589844e+00 -4.674206256866455078e+00 8.752475492656230927e-03
-7.141985416412353516e+00 -4.856535911560058594e+00 2.545217514038085938e+00
-7.078748226165771484e+00 -5.214256286621093750e+00 2.491166114807128906e+00
-7.862421512603759766e+00 -5.348438262939453125e+00 2.415010213851928711e+00
-7.183716773986816406e+00 -5.287709712982177734e+00 2.169504165649414062e+00
-6.993838787078857422e+00 -5.558294296264648438e+00 2.082190990447998047e+00
-7.949660778045654297e+00 -5.409812927246093750e+00 2.064955234527587891e+00
-7.237143516540527344e+00 -5.323141574859619141e+00 1.837612986564636230e+00
-7.045094490051269531e+00 -5.591009140014648438e+00 1.751522421836853027e+00
-7.959790706634521484e+00 -5.414673805236816406e+00 1.700945138931274414e+00
-7.272501468658447266e+00 -5.345237255096435547e+00 1.503885030746459961e+00
-7.052148818969726562e+00 -5.594601631164550781e+00 1.412863373756408691e+00
-8.020659446716308594e+00 -5.454032897949218750e+00 1.351073265075683594e+00
-7.279996395111083984e+00 -5.346833229064941406e+00 1.169917464256286621e+00
-7.059740066528320312e+00 -5.590592861175537109e+00 1.081783056259155273e+00
-7.925364017486572266e+00 -5.385187149047851562e+00 9.817364811897277832e-01
-6.916239261627197266e+00 -5.075953960418701172e+00 7.973623275756835938e-01
-6.222753047943115234e+00 -4.924251079559326172e+00 6.621717810630798340e-01
-5.814519405364990234e+00 -4.953029632568359375e+00 5.649307966232299805e-01
-7.035986900329589844e+00 -4.777277469635009766e+00 5.603995919227600098e-01
-5.089072227478027344e+00 -3.732230424880981445e+00 3.561522066593170166e-01
-4.787347316741943359e+00 -3.785654544830322266e+00 2.867552042007446289e-01
-4.466612339019775391e+00 -3.800797224044799805e+00 2.201800942420959473e-01
-5.728075504302978516e+00 -4.870773792266845703e+00 9.186189621686935425e-03
-7.192358970642089844e+00 -4.826519012451171875e+00 2.552567243576049805e+00
-7.159631252288818359e+00 -5.206372261047363281e+00 2.508340835571289062e+00
-7.991656780242919922e+00 -5.364921092987060547e+00 2.444548606872558594e+00
-7.370093822479248047e+00 -5.355484962463378906e+00 2.215824604034423828e+00
-7.099063396453857422e+00 -5.571192741394042969e+00 2.103301286697387695e+00
-8.012737274169921875e+00 -5.381101608276367188e+00 2.072723865509033203e+00
-7.429808616638183594e+00 -5.394915103912353516e+00 1.878092646598815918e+00
-7.059180259704589844e+00 -5.531934261322021484e+00 1.746552467346191406e+00
-8.073806762695312500e+00 -5.420069694519042969e+00 1.718170285224914551e+00
-7.440886497497558594e+00 -5.398993015289306641e+00 1.531826019287109375e+00
-7.072345733642578125e+00 -5.540259361267089844e+00 1.410072445869445801e+00
-8.104141235351562500e+00 -5.438381671905517578e+00 1.359488964080810547e+00
-7.491709709167480469e+00 -5.431878566741943359e+00 1.198561668395996094e+00
-7.093910694122314453e+00 -5.547169685363769531e+00 1.081783056259155273e+00
-7.937601566314697266e+00 -5.322605609893798828e+00 9.791882634162902832e-01
-7.456042766571044922e+00 -5.402048587799072266e+00 8.557578921318054199e-01
-6.380058765411376953e+00 -4.985376834869384766e+00 6.756430864334106445e-01
-5.892115116119384766e+00 -4.957064628601074219e+00 5.695039033889770508e-01
-7.102470397949218750e+00 -4.759010314941406250e+00 5.633584260940551758e-01
-5.184660911560058594e+00 -3.753628969192504883e+00 3.612231910228729248e-01
-4.838041782379150391e+00 -3.777725696563720703e+00 2.883978486061096191e-01
-4.475314617156982422e+00 -3.761103391647338867e+00 2.194672822952270508e-01
-8.960053443908691406e+00 -6.988799095153808594e+00 1.209846362471580505e-01
-5.673618793487548828e+00 -4.764793395996093750e+00 9.051799774169921875e-03
-7.228236198425292969e+00 -4.786533355712890625e+00 2.554828405380249023e+00
-7.227396011352539062e+00 -5.188152790069580078e+00 2.520881414413452148e+00
-7.183628082275390625e+00 -5.572695255279541016e+00 2.480393171310424805e+00
-8.102803230285644531e+00 -5.367705345153808594e+00 2.468425512313842773e+00
-7.493613719940185547e+00 -5.375293254852294922e+00 2.243002414703369141e+00
-7.138502597808837891e+00 -5.531704902648925781e+00 2.104890346527099609e+00
-8.149107933044433594e+00 -5.400426864624023438e+00 2.099388837814331055e+00
-7.507363319396972656e+00 -5.381187915802001953e+00 1.889314770698547363e+00
-7.084451675415039062e+00 -5.481908321380615234e+00 1.744449853897094727e+00
-8.173409461975097656e+00 -5.414478778839111328e+00 1.732263684272766113e+00
-7.546046733856201172e+00 -5.404929637908935547e+00 1.546618342399597168e+00
-6.973366260528564453e+00 -5.394005298614501953e+00 1.383713126182556152e+00
-8.225718498229980469e+00 -5.447065353393554688e+00 1.374251008033752441e+00
-7.582962036132812500e+00 -5.427366256713867188e+00 1.207810044288635254e+00
-7.004432201385498047e+00 -5.408272266387939453e+00 1.063057541847229004e+00
-7.931118965148925781e+00 -5.248000144958496094e+00 9.743978381156921387e-01
-7.536022186279296875e+00 -5.389792919158935547e+00 8.611254096031188965e-01
-6.979389190673828125e+00 -5.385048389434814453e+00 7.355986237525939941e-01
-5.906311988830566406e+00 -4.907433986663818359e+00 5.679549574851989746e-01
-7.178148746490478516e+00 -4.746160030364990234e+00 5.670405030250549316e-01
-5.222216606140136719e+00 -3.732195377349853516e+00 3.622373938560485840e-01
-4.933117389678955078e+00 -3.803471565246582031e+00 2.926686406135559082e-01
-4.510611057281494141e+00 -3.743783950805664062e+00 2.200675308704376221e-01
-8.889479637145996094e+00 -6.846439361572265625e+00 1.194622218608856201e-01
-5.734305858612060547e+00 -4.756065368652343750e+00 9.101890027523040771e-03
-7.605166912078857422e+00 -4.969279766082763672e+00 2.677227497100830078e+00
-7.540916442871093750e+00 -5.343404769897460938e+00 2.618750572204589844e+00
-7.260575294494628906e+00 -5.561364173889160156e+00 2.495132207870483398e+00
-8.195620536804199219e+00 -5.357128620147705078e+00 2.486640691757202148e+00
-7.558175086975097656e+00 -5.351672172546386719e+00 2.252455711364746094e+00
-7.084909439086914062e+00 -5.420925617218017578e+00 2.079240322113037109e+00
-8.223823547363281250e+00 -5.377612590789794922e+00 2.110096693038940430e+00
-7.652208328247070312e+00 -5.414244174957275391e+00 1.917369961738586426e+00
-7.092216014862060547e+00 -5.418670654296875000e+00 1.738141894340515137e+00
-8.248517036437988281e+00 -5.391704559326171875e+00 1.741137385368347168e+00
-7.656389713287353516e+00 -5.413193225860595703e+00 1.562396764755249023e+00
-7.029099464416503906e+00 -5.368505001068115234e+00 1.388209581375122070e+00
-8.320342063903808594e+00 -5.436581134796142578e+00 1.384460330009460449e+00
-7.693067550659179688e+00 -5.435098171234130859e+00 1.220012664794921875e+00
-7.033536911010742188e+00 -5.362182140350341797e+00 1.062461137771606445e+00
-8.063960075378417969e+00 -5.265043258666992188e+00 9.867307543754577637e-01
-7.582779884338378906e+00 -5.353213787078857422e+00 8.626986742019653320e-01
-7.113766193389892578e+00 -5.419421672821044922e+00 7.462425827980041504e-01
-5.937083244323730469e+00 -4.871733665466308594e+00 5.680286884307861328e-01
-7.196270942687988281e+00 -4.694938182830810547e+00 5.661857128143310547e-01
-7.024360179901123047e+00 -4.955313205718994141e+00 4.851242899894714355e-01
-4.972258567810058594e+00 -3.785232305526733398e+00 2.936073243618011475e-01
-4.563638210296630859e+00 -3.740742921829223633e+00 2.215306460857391357e-01
-8.229289054870605469e+00 -5.366845130920410156e+00 2.915895283222198486e-01
-9.160554885864257812e+00 -6.966084003448486328e+00 1.225283592939376831e-01
-5.766475200653076172e+00 -4.723325252532958984e+00 9.106777608394622803e-03
-7.712102890014648438e+00 -4.971897602081298828e+00 2.704081535339355469e+00
-7.631903648376464844e+00 -5.337839603424072266e+00 2.638924121856689453e+00
-7.101425647735595703e+00 -5.370644092559814453e+00 2.429069042205810547e+00
-8.323637008666992188e+00 -5.368202686309814453e+00 2.515440702438354492e+00
-7.663346767425537109e+00 -5.355848312377929688e+00 2.273961782455444336e+00
-7.126585483551025391e+00 -5.383808612823486328e+00 2.081737041473388672e+00
-8.361824989318847656e+00 -5.394897937774658203e+00 2.136971473693847656e+00
-7.751952648162841797e+00 -5.413747787475585938e+00 1.934002518653869629e+00
-7.135518074035644531e+00 -5.382736206054687500e+00 1.740626931190490723e+00
-8.398131370544433594e+00 -5.416246414184570312e+00 1.765670180320739746e+00
-7.754172801971435547e+00 -5.411272048950195312e+00 1.575545549392700195e+00
-7.100558280944824219e+00 -5.354419708251953125e+00 1.395807385444641113e+00
-8.445944786071777344e+00 -5.444995880126953125e+00 1.399774312973022461e+00
-7.786468029022216797e+00 -5.429769039154052734e+00 1.229518055915832520e+00
-7.081377983093261719e+00 -5.330269336700439453e+00 1.064727306365966797e+00
-8.105313301086425781e+00 -5.221390724182128906e+00 9.878518581390380859e-01
-7.749460697174072266e+00 -5.399943351745605469e+00 8.778759241104125977e-01
-7.114233016967773438e+00 -5.351110458374023438e+00 7.428331971168518066e-01
-7.124258518218994141e+00 -4.585883617401123047e+00 5.582955479621887207e-01
-6.901413917541503906e+00 -4.805433273315429688e+00 4.745878875255584717e-01
-5.023337841033935547e+00 -3.775657653808593750e+00 2.952499389648437500e-01
-4.607476234436035156e+00 -3.729646205902099609e+00 2.225435674190521240e-01
-8.300730705261230469e+00 -5.341129779815673828e+00 2.929541468620300293e-01
-8.973626136779785156e+00 -6.737436294555664062e+00 1.194728612899780273e-01
-5.666286468505859375e+00 -4.583456039428710938e+00 8.903970010578632355e-03
-7.091728687286376953e+00 -4.510591983795166016e+00 2.476809740066528320e+00
-7.727855682373046875e+00 -5.334637165069580078e+00 2.660733222961425781e+00
-7.131927013397216797e+00 -5.325238227844238281e+00 2.428279638290405273e+00
-8.452911376953125000e+00 -5.378425121307373047e+00 2.544486761093139648e+00
-7.759252548217773438e+00 -5.352312564849853516e+00 2.292631626129150391e+00
-7.143092155456542969e+00 -5.327752113342285156e+00 2.076970338821411133e+00
-8.446732521057128906e+00 -5.376564502716064453e+00 2.150198936462402344e+00
-7.837458133697509766e+00 -5.402221679687500000e+00 1.947028160095214844e+00
-7.152667045593261719e+00 -5.327126026153564453e+00 1.736803889274597168e+00
-8.510133743286132812e+00 -5.414834499359130859e+00 1.782199382781982422e+00
-7.900959491729736328e+00 -5.441925048828125000e+00 1.598555803298950195e+00
-7.151504039764404297e+00 -5.324319839477539062e+00 1.399373650550842285e+00
-8.547724723815917969e+00 -5.436656951904296875e+00 1.411087274551391602e+00
-7.896429061889648438e+00 -5.434741973876953125e+00 1.241592288017272949e+00
-7.143436431884765625e+00 -5.308630943298339844e+00 1.069140434265136719e+00
-7.007910251617431641e+00 -5.613955497741699219e+00 9.929069876670837402e-01
-8.071711540222167969e+00 -5.129939079284667969e+00 9.799017310142517090e-01
-7.884180068969726562e+00 -5.422256469726562500e+00 8.893514871597290039e-01
-7.154133319854736328e+00 -5.312704563140869141e+00 7.435815930366516113e-01
-7.042931556701660156e+00 -5.635959148406982422e+00 6.671626567840576172e-01
-7.106777191162109375e+00 -4.513197422027587891e+00 5.547449588775634766e-01
-6.961214542388916016e+00 -4.783918857574462891e+00 4.766726195812225342e-01
-6.837641239166259766e+00 -5.073973178863525391e+00 4.000493288040161133e-01
-4.697402477264404297e+00 -3.754965305328369141e+00 2.257699221372604370e-01
-8.369634628295898438e+00 -5.313132286071777344e+00 2.942298054695129395e-01
-9.380306243896484375e+00 -6.953182697296142578e+00 1.243169382214546204e-01
-5.987300872802734375e+00 -4.782647609710693359e+00 9.362119249999523163e-03
-7.756285190582275391e+00 -4.866687774658203125e+00 2.698428153991699219e+00
-7.783501625061035156e+00 -5.302829265594482422e+00 2.668639183044433594e+00
-7.166020870208740234e+00 -5.282522201538085938e+00 2.428806066513061523e+00
-8.539113044738769531e+00 -5.359951019287109375e+00 2.560486555099487305e+00
-7.776686191558837891e+00 -5.294212341308593750e+00 2.288141489028930664e+00
-7.228190422058105469e+00 -5.322512626647949219e+00 2.092178583145141602e+00
-7.030651092529296875e+00 -5.585673809051513672e+00 2.007136106491088867e+00
-8.576439857482910156e+00 -5.385467529296875000e+00 2.174764394760131836e+00
-7.947412967681884766e+00 -5.406380653381347656e+00 1.966065645217895508e+00
-7.257972717285156250e+00 -5.336632251739501953e+00 1.754389762878417969e+00
-7.048819541931152344e+00 -5.590081214904785156e+00 1.664132595062255859e+00
-8.619097709655761719e+00 -5.410156726837158203e+00 1.798032760620117188e+00
-7.968463897705078125e+00 -5.416633605957031250e+00 1.605458855628967285e+00
-7.260456085205078125e+00 -5.336505889892578125e+00 1.414258837699890137e+00
-7.072340011596679688e+00 -5.600696086883544922e+00 1.330556631088256836e+00
-8.661462783813476562e+00 -5.434641838073730469e+00 1.424331665039062500e+00
-7.994436740875244141e+00 -5.430209159851074219e+00 1.251739859580993652e+00
-7.263932228088378906e+00 -5.329304218292236328e+00 1.082260131835937500e+00
-7.066390037536621094e+00 -5.589966297149658203e+00 9.963141679763793945e-01
-8.135064125061035156e+00 -5.100395679473876953e+00 9.837749004364013672e-01
-7.984858512878417969e+00 -5.419631481170654297e+00 8.969401121139526367e-01
-7.239640712738037109e+00 -5.307595729827880859e+00 7.490699291229248047e-01
-6.995222568511962891e+00 -5.527715682983398438e+00 6.594178080558776855e-01
-7.109812736511230469e+00 -4.454143524169921875e+00 5.528381466865539551e-01
-6.949948787689208984e+00 -4.713655471801757812e+00 4.739117622375488281e-01
-6.859782218933105469e+00 -5.025429248809814453e+00 3.995330929756164551e-01
-8.455449104309082031e+00 -5.295100212097167969e+00 2.960987985134124756e-01
-9.394549369812011719e+00 -6.874826908111572266e+00 1.239443123340606689e-01
-5.980417251586914062e+00 -4.717331886291503906e+00 9.305919520556926727e-03
-7.772950649261474609e+00 -4.810927391052246094e+00 2.693905353546142578e+00
-7.821481704711914062e+00 -5.258728504180908203e+00 2.670547485351562500e+00
-7.220919609069824219e+00 -5.254915237426757812e+00 2.436438560485839844e+00
-7.064097881317138672e+00 -5.551850318908691406e+00 2.362116336822509766e+00
-8.656717300415039062e+00 -5.360008716583251953e+00 2.585840463638305664e+00
-7.959849834442138672e+00 -5.347725868225097656e+00 2.332334995269775391e+00
-7.393843650817871094e+00 -5.374838352203369141e+00 2.130540370941162109e+00
-7.075541496276855469e+00 -5.550862789154052734e+00 2.010190010070800781e+00
-8.688283920288085938e+00 -5.381651878356933594e+00 2.194710493087768555e+00
-8.074791908264160156e+00 -5.420858383178710938e+00 1.989311218261718750e+00
-7.433564662933349609e+00 -5.395784854888916016e+00 1.788797140121459961e+00
-7.071374893188476562e+00 -5.537631511688232422e+00 1.661404371261596680e+00
-8.759300231933593750e+00 -5.423524856567382812e+00 1.820303678512573242e+00
-8.106402397155761719e+00 -5.437975406646728516e+00 1.626496911048889160e+00
-7.476969718933105469e+00 -5.425298690795898438e+00 1.449921727180480957e+00
-7.092544555664062500e+00 -5.546226501464843750e+00 1.327930331230163574e+00
-8.785600662231445312e+00 -5.437688827514648438e+00 1.439231634140014648e+00
-8.084444046020507812e+00 -5.419154644012451172e+00 1.260602712631225586e+00
-7.472595691680908203e+00 -5.412177085876464844e+00 1.108380317687988281e+00
-7.107605934143066406e+00 -5.552009105682373047e+00 9.973033070564270020e-01
-8.095136642456054688e+00 -5.006431579589843750e+00 9.752132892608642578e-01
-8.089935302734375000e+00 -5.418743610382080078e+00 9.049914479255676270e-01
-7.493268489837646484e+00 -5.423162937164306641e+00 7.718546986579895020e-01
-6.997558593750000000e+00 -5.460149765014648438e+00 6.564674377441406250e-01
-7.109847068786621094e+00 -4.393649101257324219e+00 5.507341027259826660e-01
-6.938914299011230469e+00 -4.644266605377197266e+00 4.712072610855102539e-01
-6.854064941406250000e+00 -4.956902503967285156e+00 3.974211215972900391e-01
-8.536252021789550781e+00 -5.273061275482177734e+00 2.977897524833679199e-01
-5.984004020690917969e+00 -4.660884380340576172e+00 9.266823530197143555e-03
-7.804779529571533203e+00 -4.764641761779785156e+00 2.694753170013427734e+00
-7.832756996154785156e+00 -5.196807861328125000e+00 2.663459539413452148e+00
-7.444990158081054688e+00 -5.348413467407226562e+00 2.500922679901123047e+00
-7.164502620697021484e+00 -5.559987068176269531e+00 2.384237289428710938e+00
-8.796976089477539062e+00 -5.372463226318359375e+00 2.617840290069580078e+00
-8.135858535766601562e+00 -5.393817901611328125e+00 2.374165296554565430e+00
-7.496313095092773438e+00 -5.379335403442382812e+00 2.150515317916870117e+00
-7.073206901550292969e+00 -5.479253768920898438e+00 1.999937295913696289e+00
-8.829603195190429688e+00 -5.394505500793457031e+00 2.222005128860473633e+00
-8.184677124023437500e+00 -5.422071456909179688e+00 2.008148431777954102e+00
-7.552703380584716797e+00 -5.411816596984863281e+00 1.809441447257995605e+00
-7.074104309082031250e+00 -5.470077991485595703e+00 1.654128670692443848e+00
-8.871412277221679688e+00 -5.417922496795654297e+00 1.836658954620361328e+00
-8.191434860229492188e+00 -5.422435283660888672e+00 1.636851429939270020e+00
-7.579186916351318359e+00 -5.428791522979736328e+00 1.463256359100341797e+00
-7.097469329833984375e+00 -5.480231761932373047e+00 1.322531580924987793e+00
-8.938841819763183594e+00 -5.456961631774902344e+00 1.458822488784790039e+00
-8.218455314636230469e+00 -5.436196327209472656e+00 1.276273608207702637e+00
-7.583200454711914062e+00 -5.421659469604492188e+00 1.119830369949340820e+00
-7.080150127410888672e+00 -5.460944175720214844e+00 9.887304902076721191e-01
-6.548630714416503906e+00 -3.994654417037963867e+00 7.859395146369934082e-01
-8.204437255859375000e+00 -5.422808170318603516e+00 9.140608310699462891e-01
-7.557216167449951172e+00 -5.399096965789794922e+00 7.750146389007568359e-01
-7.046729087829589844e+00 -5.429284095764160156e+00 6.579425930976867676e-01
-7.120483398437500000e+00 -4.340073585510253906e+00 5.494848489761352539e-01
-6.922292232513427734e+00 -4.571889877319335938e+00 4.681646227836608887e-01
-6.820124626159667969e+00 -4.868902206420898438e+00 3.937134742736816406e-01
-8.824525833129882812e+00 -5.376609325408935547e+00 3.066896498203277588e-01
-6.131392002105712891e+00 -4.715524196624755859e+00 9.450082667171955109e-03
-7.826471805572509766e+00 -4.712210178375244141e+00 2.692209243774414062e+00
-7.854836940765380859e+00 -5.142325401306152344e+00 2.660188198089599609e+00
-7.502062320709228516e+00 -5.319930553436279297e+00 2.509081840515136719e+00
-7.223816394805908203e+00 -5.535333633422851562e+00 2.392627954483032227e+00
-8.920272827148437500e+00 -5.372894287109375000e+00 2.644671201705932617e+00
-8.214336395263671875e+00 -5.373583793640136719e+00 2.387399673461914062e+00
-7.564147472381591797e+00 -5.358006954193115234e+00 2.160503149032592773e+00
-7.090415477752685547e+00 -5.423299312591552734e+00 1.995356321334838867e+00
-8.979778289794921875e+00 -5.410871505737304688e+00 2.251399755477905273e+00
-8.252234458923339844e+00 -5.394263267517089844e+00 2.016564846038818359e+00
-7.622630119323730469e+00 -5.391445159912109375e+00 1.818234324455261230e+00
-7.093466281890869141e+00 -5.415828227996826172e+00 1.650854468345642090e+00
-9.014992713928222656e+00 -5.429946422576904297e+00 1.859451770782470703e+00
-8.282361030578613281e+00 -5.409830570220947266e+00 1.648356556892395020e+00
-7.688986778259277344e+00 -5.436365604400634766e+00 1.477986574172973633e+00
-7.038914203643798828e+00 -5.366403102874755859e+00 1.305460095405578613e+00
-9.057856559753417969e+00 -5.453609466552734375e+00 1.472756743431091309e+00
-8.325569152832031250e+00 -5.433907508850097656e+00 1.287705659866333008e+00
-7.678785800933837891e+00 -5.419108867645263672e+00 1.129014134407043457e+00
-7.020216941833496094e+00 -5.346338272094726562e+00 9.757613539695739746e-01
-6.582395076751708984e+00 -3.960038661956787109e+00 7.870607376098632812e-01
-8.296771049499511719e+00 -5.410983562469482422e+00 9.206315279006958008e-01
-7.620334625244140625e+00 -5.373874664306640625e+00 7.780913710594177246e-01
-7.055305480957031250e+00 -5.367226123809814453e+00 6.556560993194580078e-01
-7.124743938446044922e+00 -4.282935142517089844e+00 5.477753281593322754e-01
-6.937667846679687500e+00 -4.521152973175048828e+00 4.673194885253906250e-01
-6.848238468170166016e+00 -4.825812339782714844e+00 3.936196267604827881e-01
-8.931889533996582031e+00 -5.367152214050292969e+00 3.092705905437469482e-01
-5.844833374023437500e+00 -4.438329219818115234e+00 8.966278284788131714e-03
-7.856887817382812500e+00 -4.665078639984130859e+00 2.692774534225463867e+00
-7.952512264251708984e+00 -5.136838912963867188e+00 2.682542562484741211e+00
-7.603325843811035156e+00 -5.321928977966308594e+00 2.531980276107788086e+00
-7.121901035308837891e+00 -5.388205528259277344e+00 2.347877264022827148e+00
-9.035570144653320312e+00 -5.367062091827392578e+00 2.669040203094482422e+00
-8.333690643310546875e+00 -5.378935337066650391e+00 2.412450790405273438e+00
-7.678293228149414062e+00 -5.368414402008056641e+00 2.183656215667724609e+00
-7.135240554809570312e+00 -5.388513565063476562e+00 1.998628497123718262e+00
-9.106945991516113281e+00 -5.411609649658203125e+00 2.274915218353271484e+00
-8.356807708740234375e+00 -5.389724254608154297e+00 2.033999204635620117e+00
-7.740880012512207031e+00 -5.404130935668945312e+00 1.838496446609497070e+00
-7.133630752563476562e+00 -5.377528667449951172e+00 1.652491450309753418e+00
-9.170058250427246094e+00 -5.446947097778320312e+00 1.884506702423095703e+00
-8.408262252807617188e+00 -5.418755531311035156e+00 1.666764855384826660e+00
-7.764326095581054688e+00 -5.418483734130859375e+00 1.486049532890319824e+00
-7.035350322723388672e+00 -5.295743465423583984e+00 1.298748135566711426e+00
-9.181421279907226562e+00 -5.451529026031494141e+00 1.487380862236022949e+00
-8.471316337585449219e+00 -5.455206394195556641e+00 1.305046319961547852e+00
-7.790102958679199219e+00 -5.426369667053222656e+00 1.140464067459106445e+00
-7.066394329071044922e+00 -5.313317298889160156e+00 9.776298403739929199e-01
-6.576624870300292969e+00 -3.901809692382812500e+00 7.834933400154113770e-01
-6.212193965911865234e+00 -3.997350215911865234e+00 6.865867376327514648e-01
-7.764400005340576172e+00 -5.404441356658935547e+00 7.894005775451660156e-01
-7.069764614105224609e+00 -5.310059070587158203e+00 6.539595127105712891e-01
-7.113980293273925781e+00 -4.217257499694824219e+00 5.449479818344116211e-01
-6.893055438995361328e+00 -4.432061672210693359e+00 4.624738693237304688e-01
-6.858039855957031250e+00 -4.770012855529785156e+00 3.924932777881622314e-01
-8.933697700500488281e+00 -5.293902397155761719e+00 3.082026243209838867e-01
-8.295418739318847656e+00 -5.329654216766357422e+00 1.996506452560424805e-01
-9.943117141723632812e+00 -6.908073425292968750e+00 1.289054900407791138e-01
-5.901560306549072266e+00 -4.424577713012695312e+00 9.011481888592243195e-03
-7.907714366912841797e+00 -4.629867553710937500e+00 2.700406789779663086e+00
-8.000109672546386719e+00 -5.098288059234619141e+00 2.687994956970214844e+00
-7.731880187988281250e+00 -5.341526031494140625e+00 2.563827276229858398e+00
-7.154053688049316406e+00 -5.343826770782470703e+00 2.347623109817504883e+00
-9.146946907043457031e+00 -5.357566356658935547e+00 2.692178726196289062e+00
-8.420632362365722656e+00 -5.362145900726318359e+00 2.428048372268676758e+00
-7.805674076080322266e+00 -5.386470317840576172e+00 2.210441350936889648e+00
-7.153304576873779297e+00 -5.333547592163085938e+00 1.994483828544616699e+00
-9.235302925109863281e+00 -5.411483764648437500e+00 2.298640727996826172e+00
-8.474857330322265625e+00 -5.392518520355224609e+00 2.054639816284179688e+00
-7.869268894195556641e+00 -5.422249317169189453e+00 1.861052393913269043e+00
-7.148349285125732422e+00 -5.320153236389160156e+00 1.648308038711547852e+00
-9.306123733520507812e+00 -5.450799942016601562e+00 1.905559778213500977e+00
-8.537078857421875000e+00 -5.427924156188964844e+00 1.685666084289550781e+00
-7.886921405792236328e+00 -5.432383060455322266e+00 1.503105521202087402e+00
-7.116942405700683594e+00 -5.289062023162841797e+00 1.307794690132141113e+00
-9.358290672302246094e+00 -5.479161739349365234e+00 1.510558605194091797e+00
-8.565734863281250000e+00 -5.441946506500244141e+00 1.314423084259033203e+00
-7.882159709930419922e+00 -5.418967723846435547e+00 1.149051547050476074e+00
-7.153132438659667969e+00 -5.310145378112792969e+00 9.851035475730895996e-01
-6.547205924987792969e+00 -3.830238580703735352e+00 7.771739959716796875e-01
-6.214747905731201172e+00 -3.945282936096191406e+00 6.841805577278137207e-01
-7.856554985046386719e+00 -5.397326469421386719e+00 7.953878641128540039e-01
-7.113428115844726562e+00 -5.274896144866943359e+00 6.549921631813049316e-01
-7.135415554046630859e+00 -4.171010017395019531e+00 5.446192026138305664e-01
-6.931080818176269531e+00 -4.396636009216308594e+00 4.632063508033752441e-01
-6.873178958892822266e+00 -4.718232154846191406e+00 3.916954398155212402e-01
-8.648417472839355469e+00 -5.053410530090332031e+00 2.972854673862457275e-01
-8.409876823425292969e+00 -5.330574035644531250e+00 2.016143500804901123e-01
-9.812957763671875000e+00 -6.728745937347412109e+00 1.266804188489913940e-01
-6.024246215820312500e+00 -4.459080696105957031e+00 9.156867861747741699e-03
-7.958404064178466797e+00 -4.594207763671875000e+00 2.708039283752441406e+00
-8.095588684082031250e+00 -5.089558601379394531e+00 2.709531545639038086e+00
-7.827480792999267578e+00 -5.336918354034423828e+00 2.584620237350463867e+00
-7.179702281951904297e+00 -5.294662952423095703e+00 2.345334529876708984e+00
-9.187201499938964844e+00 -5.305703163146972656e+00 2.694393873214721680e+00
-8.548819541931152344e+00 -5.370334625244140625e+00 2.455462694168090820e+00
-7.898143291473388672e+00 -5.379041671752929688e+00 2.227238416671752930e+00
-7.233838558197021484e+00 -5.324845790863037109e+00 2.007790565490722656e+00
-9.295423507690429688e+00 -5.370366096496582031e+00 2.305359363555908203e+00
-8.579148292541503906e+00 -5.385210990905761719e+00 2.071873664855957031e+00
-7.969759464263916016e+00 -5.419674873352050781e+00 1.876917958259582520e+00
-7.275948047637939453e+00 -5.346059799194335938e+00 1.670135021209716797e+00
-9.480098724365234375e+00 -5.474854469299316406e+00 1.934268355369567871e+00
-8.612839698791503906e+00 -5.402169704437255859e+00 1.694048285484313965e+00
-7.977296829223632812e+00 -5.422764778137207031e+00 1.513959527015686035e+00
-7.276884078979492188e+00 -5.338928222656250000e+00 1.331140279769897461e+00
-9.523831367492675781e+00 -5.497893810272216797e+00 1.531805038452148438e+00
-8.697281837463378906e+00 -5.450904369354248047e+00 1.329451680183410645e+00
-8.012209892272949219e+00 -5.436280727386474609e+00 1.163125514984130859e+00
-7.288197040557861328e+00 -5.341360569000244141e+00 9.991717934608459473e-01
-6.595573902130126953e+00 -3.804408073425292969e+00 7.801297903060913086e-01
-6.228712558746337891e+00 -3.900733947753906250e+00 6.830700635910034180e-01
-5.900028228759765625e+00 -4.000159740447998047e+00 5.948153734207153320e-01
-7.092550754547119141e+00 -5.192269325256347656e+00 6.501240134239196777e-01
-7.147041797637939453e+00 -4.119177341461181641e+00 5.435671806335449219e-01
-6.841976165771484375e+00 -4.281466484069824219e+00 4.554871916770935059e-01
-6.871400833129882812e+00 -4.655240058898925781e+00 3.899589180946350098e-01
-8.698315620422363281e+00 -5.011227130889892578e+00 2.979381084442138672e-01
-8.444969177246093750e+00 -5.280461788177490234e+00 2.016750872135162354e-01
-1.023914527893066406e+01 -6.929002285003662109e+00 1.316309422254562378e-01
-6.367187976837158203e+00 -4.652721881866455078e+00 9.634564630687236786e-03
-8.007285118103027344e+00 -4.557150840759277344e+00 2.715106010437011719e+00
-8.137294769287109375e+00 -5.046381473541259766e+00 2.713075637817382812e+00
-7.935318946838378906e+00 -5.339415073394775391e+00 2.609360933303833008e+00
-7.212054729461669922e+00 -5.250509262084960938e+00 2.345334529876708984e+00
-9.265067100524902344e+00 -5.275128364562988281e+00 2.707686424255371094e+00
-8.659249305725097656e+00 -5.365889549255371094e+00 2.477677583694458008e+00
-7.980305671691894531e+00 -5.363616943359375000e+00 2.241084814071655273e+00
-7.413218021392822266e+00 -5.387068271636962891e+00 2.048365116119384766e+00
-6.197561264038085938e+00 -3.530055522918701172e+00 1.531657338142395020e+00
-8.698657989501953125e+00 -5.386108398437500000e+00 2.092714786529541016e+00
-8.063177108764648438e+00 -5.411147117614746094e+00 1.891063213348388672e+00
-7.430397510528564453e+00 -5.389650344848632812e+00 1.697964549064636230e+00
-9.585397720336914062e+00 -5.457509994506835938e+00 1.948883652687072754e+00
-8.791782379150390625e+00 -5.439525127410888672e+00 1.722646951675415039e+00
-8.090819358825683594e+00 -5.427649974822998047e+00 1.529154896736145020e+00
-7.495388984680175781e+00 -5.428810119628906250e+00 1.364991545677185059e+00
-9.620223999023437500e+00 -5.475115776062011719e+00 1.541876316070556641e+00
-8.812386512756347656e+00 -5.448020935058593750e+00 1.341911315917968750e+00
-8.103165626525878906e+00 -5.425684452056884766e+00 1.171474456787109375e+00
-7.483500957489013672e+00 -5.414227962493896484e+00 1.021373152732849121e+00
-6.621387958526611328e+00 -3.765341997146606445e+00 7.804356217384338379e-01
-6.214409351348876953e+00 -3.838893651962280273e+00 6.789055466651916504e-01
-5.921148300170898438e+00 -3.961665630340576172e+00 5.944827795028686523e-01
-7.091944694519042969e+00 -5.125287055969238281e+00 6.471735835075378418e-01
-7.113187789916992188e+00 -4.041725635528564453e+00 5.390961170196533203e-01
-6.930987834930419922e+00 -4.278211116790771484e+00 4.596566259860992432e-01
-8.691651344299316406e+00 -5.360806941986083984e+00 2.067766934633255005e-01
-1.030059528350830078e+01 -6.878818988800048828e+00 1.318758130073547363e-01
-6.384263038635253906e+00 -4.605375289916992188e+00 9.617459960281848907e-03
-6.234833240509033203e+00 -3.497931003570556641e+00 2.106786727905273438e+00
-8.177133560180664062e+00 -5.001879215240478516e+00 2.716074466705322266e+00
-8.048302650451660156e+00 -5.343989849090576172e+00 2.635680913925170898e+00
-7.431836128234863281e+00 -5.341053485870361328e+00 2.406103849411010742e+00
-6.250294685363769531e+00 -3.508039712905883789e+00 1.820303678512573242e+00
-8.805594444274902344e+00 -5.382079601287841797e+00 2.510054826736450195e+00
-8.124257087707519531e+00 -5.388295650482177734e+00 2.272182703018188477e+00
-7.484989166259765625e+00 -5.369353771209716797e+00 2.059054136276245117e+00
-6.214841842651367188e+00 -3.489567995071411133e+00 1.530607461929321289e+00
-8.877026557922363281e+00 -5.421484470367431641e+00 2.127583265304565430e+00
-8.193614006042480469e+00 -5.426063060760498047e+00 1.913810253143310547e+00
-7.554471492767333984e+00 -5.409218311309814453e+00 1.718700289726257324e+00
-6.225837230682373047e+00 -3.494312763214111328e+00 1.261441588401794434e+00
-8.908350944519042969e+00 -5.436347007751464844e+00 1.738918423652648926e+00
-8.200580596923828125e+00 -5.428617954254150391e+00 1.543575048446655273e+00
-7.578454017639160156e+00 -5.418391227722167969e+00 1.374037981033325195e+00
-6.176047801971435547e+00 -3.464950561523437500e+00 9.864366650581359863e-01
-8.929474830627441406e+00 -5.444960594177246094e+00 1.354627728462219238e+00
-8.236537933349609375e+00 -5.442089080810546875e+00 1.185906171798706055e+00
-7.508492469787597656e+00 -5.362431526184082031e+00 1.020274043083190918e+00
-6.163632869720458984e+00 -3.455157279968261719e+00 7.239693999290466309e-01
-6.219991207122802734e+00 -3.789810657501220703e+00 6.769621372222900391e-01
-5.892120838165283203e+00 -3.890119791030883789e+00 5.891607999801635742e-01
-5.562052726745605469e+00 -3.967922925949096680e+00 5.053324103355407715e-01
-7.123924255371093750e+00 -3.990201711654663086e+00 5.380440950393676758e-01
-6.870975494384765625e+00 -4.183164119720458984e+00 4.539658725261688232e-01
-6.660362243652343750e+00 -4.393993377685546875e+00 3.748937249183654785e-01
-8.803817749023437500e+00 -5.355699062347412109e+00 2.086594104766845703e-01
-9.089338302612304688e+00 -5.989616394042968750e+00 1.158957108855247498e-01
-6.329313278198242188e+00 -4.506951332092285156e+00 9.492844343185424805e-03
-6.264572620391845703e+00 -3.464250802993774414e+00 2.109613418579101562e+00
-8.203552246093750000e+00 -4.949126243591308594e+00 2.714711189270019531e+00
-8.149533271789550781e+00 -5.339446067810058594e+00 2.658052921295166016e+00
-7.527572631835937500e+00 -5.340118885040283203e+00 2.426445007324218750e+00
-6.235233306884765625e+00 -3.449447631835937500e+00 1.809719085693359375e+00
-8.910018920898437500e+00 -5.371089935302734375e+00 2.530379295349121094e+00
-8.216653823852539062e+00 -5.377275943756103516e+00 2.288753032684326172e+00
-7.590272426605224609e+00 -5.374647140502929688e+00 2.078905344009399414e+00
-6.202774524688720703e+00 -3.432904720306396484e+00 1.522419095039367676e+00
-8.987334251403808594e+00 -5.413420200347900391e+00 2.146019458770751953e+00
-8.268660545349121094e+00 -5.403069496154785156e+00 1.923559069633483887e+00
-7.628471851348876953e+00 -5.391707897186279297e+00 1.727976799011230469e+00
-6.215278625488281250e+00 -3.438408136367797852e+00 1.255003809928894043e+00
-9.054787635803222656e+00 -5.449743747711181641e+00 1.760942578315734863e+00
-8.302384376525878906e+00 -5.423038482666015625e+00 1.556444525718688965e+00
-7.688343524932861328e+00 -5.425979614257812500e+00 1.387899398803710938e+00
-6.191991806030273438e+00 -3.424113988876342773e+00 9.856088757514953613e-01
-9.082547187805175781e+00 -5.462132930755615234e+00 1.372739076614379883e+00
-8.312191963195800781e+00 -5.419102191925048828e+00 1.191988945007324219e+00
-7.386903762817382812e+00 -5.207448959350585938e+00 9.993915557861328125e-01
-6.163820266723632812e+00 -3.405726432800292969e+00 7.215232849121093750e-01
-6.279827117919921875e+00 -3.773627042770385742e+00 6.809415221214294434e-01
-5.922559261322021484e+00 -3.858244657516479492e+00 5.898260474205017090e-01
-5.596895217895507812e+00 -3.941184520721435547e+00 5.062912702560424805e-01
-7.140411853790283203e+00 -3.942074775695800781e+00 5.374523401260375977e-01
-6.962423324584960938e+00 -4.180500507354736328e+00 4.583044052124023438e-01
-6.827839851379394531e+00 -4.444594860076904297e+00 3.827783167362213135e-01
-6.822430610656738281e+00 -4.798832416534423828e+00 3.131441771984100342e-01
-8.895669937133789062e+00 -5.337070465087890625e+00 2.100562751293182373e-01
-1.029369449615478516e+01 -6.693027496337890625e+00 1.307260096073150635e-01
-6.360120773315429688e+00 -4.470330238342285156e+00 9.497730992734432220e-03
-6.338772773742675781e+00 -3.454665899276733398e+00 2.127422094345092773e+00
-8.225496292114257812e+00 -4.893777847290039062e+00 2.711985349655151367e+00
-8.212928771972656250e+00 -5.309243202209472656e+00 2.668054342269897461e+00
-7.607730865478515625e+00 -5.327114105224609375e+00 2.441700935363769531e+00
-6.341377735137939453e+00 -3.457521200180053711e+00 1.834334373474121094e+00
-9.022989273071289062e+00 -5.363984584808349609e+00 2.553066730499267578e+00
-8.265038490295410156e+00 -5.336795806884765625e+00 2.293066024780273438e+00
-7.682300090789794922e+00 -5.369344234466552734e+00 2.095047712326049805e+00
-6.321570873260498047e+00 -3.448153257369995117e+00 1.546354413032531738e+00
-9.120616912841796875e+00 -5.417713642120361328e+00 2.169866323471069336e+00
-8.395703315734863281e+00 -5.412865161895751953e+00 1.945350170135498047e+00
-7.755767822265625000e+00 -5.410624504089355469e+00 1.749258279800415039e+00
-6.227613449096679688e+00 -3.395493268966674805e+00 1.253263950347900391e+00
-9.209354400634765625e+00 -5.466076850891113281e+00 1.784445762634277344e+00
-8.435980796813964844e+00 -5.436748981475830078e+00 1.575206279754638672e+00
-7.771821498870849609e+00 -5.413761615753173828e+00 1.396945953369140625e+00
-6.159835338592529297e+00 -3.357143878936767578e+00 9.771930575370788574e-01
-9.260899543762207031e+00 -5.492300033569335938e+00 1.394575476646423340e+00
-8.443819999694824219e+00 -5.431377887725830078e+00 1.206062793731689453e+00
-7.382002830505371094e+00 -5.136479377746582031e+00 9.944456815719604492e-01
-6.196832180023193359e+00 -3.374502420425415039e+00 7.229502201080322266e-01
-6.353402614593505859e+00 -3.764972925186157227e+00 6.864016652107238770e-01
-5.883248329162597656e+00 -3.781420469284057617e+00 5.835893154144287109e-01
-5.602956295013427734e+00 -3.894246816635131836e+00 5.046685338020324707e-01
-7.153947353363037109e+00 -3.892464876174926758e+00 5.366633534431457520e-01
-6.886569499969482422e+00 -4.077675819396972656e+00 4.516557753086090088e-01
-6.794468402862548828e+00 -4.363750934600830078e+00 3.793992102146148682e-01
-6.846822261810302734e+00 -4.753461360931396484e+00 3.129190802574157715e-01
-8.614244461059570312e+00 -5.526134014129638672e+00 1.089649647474288940e-01
-6.451518535614013672e+00 -4.475681781768798828e+00 9.593025781214237213e-03
-6.569423198699951172e+00 -3.528262615203857422e+00 2.197525739669799805e+00
-8.249560356140136719e+00 -4.839807033538818359e+00 2.710077047348022461e+00
-8.234777450561523438e+00 -5.252005577087402344e+00 2.664632797241210938e+00
-7.718244075775146484e+00 -5.334220409393310547e+00 2.466618776321411133e+00
-6.499080657958984375e+00 -3.491945028305053711e+00 1.873718976974487305e+00
-9.154646873474121094e+00 -5.366503715515136719e+00 2.580953598022460938e+00
-8.438907623291015625e+00 -5.375982761383056641e+00 2.332108497619628906e+00
-7.812303543090820312e+00 -5.389158248901367188e+00 2.121443033218383789e+00
-6.439922809600830078e+00 -3.461608171463012695e+00 1.570079922676086426e+00
-9.196802139282226562e+00 -5.386902332305908203e+00 2.180086374282836914e+00
-8.490046501159667969e+00 -5.400231838226318359e+00 1.959495544433593750e+00
-7.876290321350097656e+00 -5.423160552978515625e+00 1.768902659416198730e+00
-6.380185127258300781e+00 -3.428062438964843750e+00 1.279710769653320312e+00
-9.355945587158203125e+00 -5.475733280181884766e+00 1.806305646896362305e+00
-8.539208412170410156e+00 -5.429409503936767578e+00 1.588230848312377930e+00
-7.891306400299072266e+00 -5.425382614135742188e+00 1.412412405014038086e+00
-6.307712078094482422e+00 -3.387704372406005859e+00 9.973357319831848145e-01
-9.364623069763183594e+00 -5.476424217224121094e+00 1.405108332633972168e+00
-8.598543167114257812e+00 -5.456604003906250000e+00 1.223357081413269043e+00
-7.357666015625000000e+00 -5.052825927734375000e+00 9.869719743728637695e-01
-6.256866455078125000e+00 -3.357583045959472656e+00 7.275367975234985352e-01
-6.519954204559326172e+00 -3.809810638427734375e+00 7.018565535545349121e-01
-5.960202217102050781e+00 -3.779404878616333008e+00 5.889112949371337891e-01
-5.597961902618408203e+00 -3.840049743652343750e+00 5.020869374275207520e-01
-7.098549842834472656e+00 -3.806059598922729492e+00 5.307456851005554199e-01
-6.914045810699462891e+00 -4.036853313446044922e+00 4.518247842788696289e-01
-6.945995330810546875e+00 -4.401103973388671875e+00 3.863451480865478516e-01
