-3.360898494720458984e-01 -6.980313301086425781e+00 1.030710816383361816e+00
-5.901145339012145996e-01 -6.930913925170898438e+00 8.356088399887084961e-01
-6.247925162315368652e-01 -6.907889366149902344e+00 1.088642954826354980e+00
-6.319986581802368164e-01 -6.920241355895996094e+00 8.347739577293395996e-01
-6.675468683242797852e-01 -6.907858848571777344e+00 1.089263081550598145e+00
-4.227386415004730225e-01 -6.992451190948486328e+00 1.033191323280334473e+00
-6.752194166183471680e-01 -6.924138545989990234e+00 8.357281088829040527e-01
-4.239849448204040527e-01 -6.952628612518310547e+00 7.702338099479675293e-01
-7.046652436256408691e-01 -6.852531433105468750e+00 1.081200242042541504e+00
-4.633997976779937744e-01 -6.956163883209228516e+00 1.028230428695678711e+00
-7.170779109001159668e-01 -6.913939476013183594e+00 8.350124359130859375e-01
-4.651725888252258301e-01 -6.928078651428222656e+00 7.678158879280090332e-01
-4.967756271362304688e-01 -6.891898155212402344e+00 1.278157234191894531e+00
-7.526950240135192871e-01 -6.903075218200683594e+00 1.089883327484130859e+00
-5.060014724731445312e-01 -6.952203273773193359e+00 1.028084516525268555e+00
-5.094177722930908203e-01 -6.948884487152099609e+00 7.704536318778991699e-01
-8.163786679506301880e-02 -7.344347238540649414e-01 7.867621257901191711e-03
-8.029549121856689453e-01 -6.967025756835937500e+00 1.100737214088439941e+00
-5.481048226356506348e-01 -6.942063808441162109e+00 1.027063131332397461e+00
-5.555108189582824707e-01 -6.989224433898925781e+00 7.752895951271057129e-01
-5.655000358819961548e-02 -7.068046331405639648e-01 5.244363099336624146e-02
-5.765970349311828613e-01 -6.829432487487792969e+00 1.267789363861083984e+00
-5.886761546134948730e-01 -6.914912223815917969e+00 1.023561239242553711e+00
-5.931259989738464355e-01 -6.924284458160400391e+00 7.684752941131591797e-01
-6.226614117622375488e-01 -6.871793270111083984e+00 1.276338219642639160e+00
-6.311841607093811035e-01 -6.912155151367187500e+00 1.023707151412963867e+00
-6.372377276420593262e-01 -6.938330650329589844e+00 7.704536318778991699e-01
-9.565756469964981079e-02 -7.367741465568542480e-01 7.910206913948059082e-03
-6.647194623947143555e-01 -6.866864681243896484e+00 1.276156425476074219e+00
-6.732964515686035156e-01 -6.905198574066162109e+00 1.023269414901733398e+00
-6.712647080421447754e-01 -6.847240447998046875e+00 7.607817649841308594e-01
-7.146328091621398926e-01 -6.891097068786621094e+00 1.021810293197631836e+00
-7.148115634918212891e-01 -6.857821464538574219e+00 7.624303698539733887e-01
-1.241103932261466980e-01 -6.918114423751831055e-01 1.423183921724557877e-02
-7.533355951309204102e-01 -6.854130744934082031e+00 1.016995310783386230e+00
-1.169401258230209351e-01 -7.255954742431640625e-01 7.825035601854324341e-03
-1.036021783947944641e-01 -7.261297106742858887e-01 2.753657847642898560e-02
-1.101166829466819763e-01 -7.393178343772888184e-01 2.806179970502853394e-02
-5.287377238273620605e-01 -1.873980045318603516e+00 5.778984725475311279e-02
-5.599962472915649414e-01 -1.940430521965026855e+00 1.330809295177459717e-01
-5.441088080406188965e-01 -1.884145021438598633e+00 5.820517614483833313e-02
-5.690664052963256836e-01 -1.927387952804565430e+00 1.324234157800674438e-01
-5.590580105781555176e-01 -1.892274022102355957e+00 5.856116861104965210e-02
-5.779976844787597656e-01 -1.914307475090026855e+00 1.317659020423889160e-01
-5.593838095664978027e-01 -1.851491212844848633e+00 5.740418285131454468e-02
-5.914983749389648438e-01 -1.916445493698120117e+00 1.321603953838348389e-01
-5.772228240966796875e-01 -1.869035243988037109e+00 5.805684253573417664e-02
-6.020458340644836426e-01 -1.908973574638366699e+00 1.318974047899246216e-01
-5.907858014106750488e-01 -1.872130870819091797e+00 5.826450511813163757e-02
-5.445066094398498535e-01 -1.927374839782714844e+00 1.130266264081001282e-01
-6.065549254417419434e-01 -1.881789565086364746e+00 5.867983028292655945e-02
-5.451184511184692383e-01 -1.926969289779663086e+00 4.054960608482360840e-02
-1.320459485054016113e+00 -6.401220321655273438e+00 7.985228672623634338e-03
-5.546585321426391602e-01 -1.918242692947387695e+00 1.126885563135147095e-01
-5.477562546730041504e-01 -1.891896724700927734e+00 3.988154232501983643e-02
-5.672678351402282715e-01 -1.917675495147705078e+00 1.128575950860977173e-01
-5.565150380134582520e-01 -1.878913760185241699e+00 3.967909514904022217e-02
-5.798910260200500488e-01 -1.917025685310363770e+00 1.130266264081001282e-01
-5.691925883293151855e-01 -1.879291176795959473e+00 3.976007550954818726e-02
-1.576675057411193848e+00 -6.990392208099365234e+00 8.754919283092021942e-03
-5.925275683403015137e-01 -1.916293025016784668e+00 1.131956577301025391e-01
-5.866265892982482910e-01 -1.894864797592163086e+00 4.016496241092681885e-02
-1.572980999946594238e+00 -6.779916286468505859e+00 8.503242395818233490e-03
-5.991612672805786133e-01 -1.896436929702758789e+00 1.122378110885620117e-01
-5.349847674369812012e-01 -1.935198307037353516e+00 9.433354437351226807e-02
-5.940207242965698242e-01 -1.877884268760681152e+00 3.988154232501983643e-02
-5.250802040100097656e-01 -1.895505666732788086e+00 2.094128727912902832e-02
-5.457605719566345215e-01 -1.928034782409667969e+00 9.414581954479217529e-02
-6.089131832122802734e-01 -1.884669065475463867e+00 4.010422900319099426e-02
-5.407937169075012207e-01 -1.906678080558776855e+00 2.110098302364349365e-02
-1.711978316307067871e+00 -6.988353252410888672e+00 8.790348656475543976e-03
-5.580847263336181641e-01 -1.928909182548522949e+00 1.675594896078109741e-01
-5.534111857414245605e-01 -1.910258054733276367e+00 9.344183653593063354e-02
-5.496951937675476074e-01 -1.893720865249633789e+00 2.099451981484889984e-02
-1.734582662582397461e+00 -6.897223949432373047e+00 8.688945323228836060e-03
-5.752836465835571289e-01 -1.943604230880737305e+00 1.691394597291946411e-01
-5.651218891143798828e-01 -1.906826496124267578e+00 9.344183653593063354e-02
-5.698435902595520020e-01 -1.919069647789001465e+00 2.131390757858753204e-02
-1.774621963500976562e+00 -6.877736091613769531e+00 8.677949197590351105e-03
-5.846003293991088867e-01 -1.931453466415405273e+00 1.683910489082336426e-01
-5.776804089546203613e-01 -1.906190991401672363e+00 9.358263015747070312e-02
-5.702780485153198242e-01 -1.878221392631530762e+00 2.089870162308216095e-02
-1.812697052955627441e+00 -6.851250171661376953e+00 8.658402599394321442e-03
-6.067493557929992676e-01 -1.961150646209716797e+00 1.713015139102935791e-01
-5.887746214866638184e-01 -1.900702118873596191e+00 9.348876774311065674e-02
-5.874230861663818359e-01 -1.892832040786743164e+00 2.110098302364349365e-02
-5.194839239120483398e-01 -1.915817379951477051e+00 2.425134647637605667e-03
-5.928905606269836426e-01 -1.873245358467102051e+00 9.231546521186828613e-02
-5.277847051620483398e-01 -1.902767539024353027e+00 7.413116842508316040e-02
-6.002351045608520508e-01 -1.893004775047302246e+00 2.114356681704521179e-02
-5.282855033874511719e-01 -1.901994943618774414e+00 2.411695430055260658e-03
-5.512361526489257812e-01 -1.944868803024291992e+00 1.495123058557510376e-01
-5.410879850387573242e-01 -1.905261039733886719e+00 7.435626536607742310e-02
-6.112229228019714355e-01 -1.887383580207824707e+00 2.112227492034435272e-02
-5.385783314704895020e-01 -1.893908381462097168e+00 2.405586885288357735e-03
-5.623257756233215332e-01 -1.938576459884643555e+00 1.492910236120223999e-01
-5.519315600395202637e-01 -1.899026274681091309e+00 7.424371689558029175e-02
-5.543804168701171875e-01 -1.904970526695251465e+00 2.423912752419710159e-03
-5.827210545539855957e-01 -1.963771700859069824e+00 1.515038311481475830e-01
-5.644276738166809082e-01 -1.898477554321289062e+00 7.435626536607742310e-02
-5.666292309761047363e-01 -1.903449892997741699e+00 2.426356310024857521e-03
-5.912848114967346191e-01 -1.948707342147827148e+00 1.506187021732330322e-01
-5.757752656936645508e-01 -1.894022345542907715e+00 7.431875169277191162e-02
-5.750948786735534668e-01 -1.889414072036743164e+00 2.412917325273156166e-03
-5.940729975700378418e-01 -1.915514707565307617e+00 1.483321338891983032e-01
-5.918335318565368652e-01 -1.904768228530883789e+00 7.488148659467697144e-02
-5.878654718399047852e-01 -1.889669179916381836e+00 2.417804207652807236e-03
-5.968579649925231934e-01 -1.880146980285644531e+00 7.405614107847213745e-02
-6.030840873718261719e-01 -1.897462725639343262e+00 2.432464854791760445e-03
-6.076141595840454102e-01 -1.871850252151489258e+00 2.404364990070462227e-03
-2.211163997650146484e+00 -6.672145366668701172e+00 8.587541989982128143e-03
-2.246615171432495117e+00 -6.642348766326904297e+00 8.566772565245628357e-03
-2.312120914459228516e+00 -6.700281143188476562e+00 8.659623563289642334e-03
-2.426892757415771484e+00 -6.895376682281494141e+00 8.930847980082035065e-03
-2.441458463668823242e+00 -6.803174972534179688e+00 8.830665610730648041e-03
-2.452580451965332031e+00 -6.704483509063720703e+00 8.721931837499141693e-03
-2.457694053649902344e+00 -6.592796325683593750e+00 8.596093393862247467e-03
-2.552067279815673828e+00 -6.719689369201660156e+00 8.781796321272850037e-03
-2.616700887680053711e+00 -6.764525890350341797e+00 8.861209265887737274e-03
-2.713131666183471680e+00 -6.887906074523925781e+00 9.044469334185123444e-03
-2.752366304397583008e+00 -6.863703727722167969e+00 9.034695103764533997e-03
-2.655747175216674805e+00 -6.506897926330566406e+00 8.586320094764232635e-03
-2.871674299240112305e+00 -6.914374828338623047e+00 9.147094562649726868e-03
-2.922219514846801758e+00 -6.915968418121337891e+00 9.172750636935234070e-03
-2.966574430465698242e+00 -6.902501583099365234e+00 9.178859181702136993e-03
-2.969623565673828125e+00 -6.794371604919433594e+00 9.059130214154720306e-03
-3.002729177474975586e+00 -6.756832122802734375e+00 9.033473208546638489e-03
-3.099711418151855469e+00 -6.861308097839355469e+00 9.198406711220741272e-03
-3.146760940551757812e+00 -6.853065013885498047e+00 9.213067591190338135e-03
-3.199322700500488281e+00 -6.856282711029052734e+00 9.243611246347427368e-03
-3.222053527832031250e+00 -6.795861721038818359e+00 9.188633412122726440e-03
-2.992476463317871094e+00 -6.212876319885253906e+00 8.425051346421241760e-03
-3.186551332473754883e+00 -6.513280391693115234e+00 8.858766406774520874e-03
-3.224676132202148438e+00 -6.490023136138916016e+00 8.853878825902938843e-03
-3.246419191360473633e+00 -6.434402465820312500e+00 8.805009536445140839e-03
-3.184168100357055664e+00 -6.215887546539306641e+00 8.532564155757427216e-03
-3.259158134460449219e+00 -6.267209053039550781e+00 8.630301803350448608e-03
-3.342365503311157227e+00 -6.331991672515869141e+00 8.747588843107223511e-03
-3.497323036193847656e+00 -6.528207302093505859e+00 9.048134088516235352e-03
-3.396891117095947266e+00 -6.248328208923339844e+00 8.688945323228836060e-03
-3.396042108535766602e+00 -6.156442642211914062e+00 8.589984849095344543e-03
-3.549497842788696289e+00 -6.342303276062011719e+00 8.879534900188446045e-03
-3.612045526504516602e+00 -6.362146854400634766e+00 8.938178420066833496e-03
-3.649517536163330078e+00 -6.337264060974121094e+00 8.934512734413146973e-03
-3.741290569305419922e+00 -6.405418872833251953e+00 9.062794968485832214e-03
-3.517548084259033203e+00 -5.938383102416992188e+00 8.432381786406040192e-03
-3.550829648971557617e+00 -5.911544799804687500e+00 8.425051346421241760e-03
-3.660377979278564453e+00 -6.010068893432617188e+00 8.597315289080142975e-03
-3.611021757125854492e+00 -5.847955226898193359e+00 8.396951481699943542e-03
-3.731202363967895508e+00 -5.960460186004638672e+00 8.591207675635814667e-03
-3.946124076843261719e+00 -6.218621253967285156e+00 8.998042903840541840e-03
-4.016664505004882812e+00 -6.244753837585449219e+00 9.071346372365951538e-03
-4.175597667694091797e+00 -6.405124664306640625e+00 9.341349825263023376e-03
-4.178988933563232422e+00 -6.325150489807128906e+00 9.261936880648136139e-03
-4.023553371429443359e+00 -6.009390354156494141e+00 8.835553191602230072e-03
-4.242257595062255859e+00 -6.252703666687011719e+00 9.231393225491046906e-03
-4.093595504760742188e+00 -5.954617977142333984e+00 8.828222751617431641e-03
-5.236463069915771484e+00 -6.967030048370361328e+00 9.279321879148483276e-02
-4.019174098968505859e+00 -5.770199298858642578e+00 8.591207675635814667e-03
-5.280930519104003906e+00 -6.937155723571777344e+00 9.282515943050384521e-02
-4.025097846984863281e+00 -5.703760147094726562e+00 8.528898470103740692e-03
-5.344155311584472656e+00 -6.931546211242675781e+00 9.318713098764419556e-02
-4.233912467956542969e+00 -5.922187805175781250e+00 8.894195780158042908e-03
-5.429048538208007812e+00 -6.953006744384765625e+00 9.392172843217849731e-02
-4.466669082641601562e+00 -6.167415142059326172e+00 9.303475730121135712e-03
-5.515645027160644531e+00 -6.975253105163574219e+00 9.467761963605880737e-02
-4.512116909027099609e+00 -6.150373935699462891e+00 9.319358505308628082e-03
-5.602717399597167969e+00 -6.996696472167968750e+00 9.543350338935852051e-02
-4.632677555084228516e+00 -6.234139919281005859e+00 9.489178657531738281e-03
-4.583643436431884766e+00 -6.089746475219726562e+00 9.312028065323829651e-03
-4.764000892639160156e+00 -6.249189376831054688e+00 9.600356221199035645e-03
-4.225960731506347656e+00 -5.473428249359130859e+00 8.448264561593532562e-03
-4.773804187774658203e+00 -6.105178833007812500e+00 9.468409232795238495e-03
-4.369788646697998047e+00 -5.518369197845458984e+00 8.599759079515933990e-03
-4.720743179321289062e+00 -5.886987209320068359e+00 9.219176135957241058e-03
-6.105233669281005859e+00 -6.986859798431396484e+00 9.878709167242050171e-02
-4.745429515838623047e+00 -5.843937397003173828e+00 9.197184816002845764e-03
-6.149977207183837891e+00 -6.951514244079589844e+00 9.881903231143951416e-02
-4.824386119842529297e+00 -5.867233753204345703e+00 9.280262514948844910e-03
-7.244451999664306641e+00 -6.998177051544189453e+00 2.989467680454254150e-01
-6.245887279510498047e+00 -6.973235130310058594e+00 9.967073053121566772e-02
-4.980587959289550781e+00 -5.981999397277832031e+00 9.509948082268238068e-03
-7.333538055419921875e+00 -6.997757434844970703e+00 3.008454144001007080e-01
-6.317440509796142578e+00 -6.966631889343261719e+00 1.001285240054130554e-01
-5.022999763488769531e+00 -5.958207130432128906e+00 9.520943276584148407e-03
-7.395976066589355469e+00 -6.971138477325439453e+00 3.016463816165924072e-01
-6.351276397705078125e+00 -6.918161392211914062e+00 9.999012202024459839e-02
-4.977661132812500000e+00 -5.831440448760986328e+00 9.367005899548530579e-03
-7.494942188262939453e+00 -6.978073120117187500e+00 3.039306998252868652e-01
-6.480061054229736328e+00 -6.972079753875732422e+00 1.013422012329101562e-01
-4.899572372436523438e+00 -5.669141292572021484e+00 9.154425002634525299e-03
-7.584704399108886719e+00 -6.975256919860839844e+00 3.058293163776397705e-01
-6.519293785095214844e+00 -6.928546905517578125e+00 1.012889742851257324e-01
-4.857877254486083984e+00 -5.551673889160156250e+00 9.012703783810138702e-03
-7.646597862243652344e+00 -6.946061134338378906e+00 3.066006302833557129e-01
-6.565131664276123047e+00 -6.892034530639648438e+00 1.013422012329101562e-01
-5.064261913299560547e+00 -5.716374874114990234e+00 9.330353699624538422e-03
-7.722553253173828125e+00 -6.929050922393798828e+00 3.079356253147125244e-01
-6.616320610046386719e+00 -6.860979557037353516e+00 1.014806106686592102e-01
-5.125949859619140625e+00 -5.714970588684082031e+00 9.379222989082336426e-03
-7.808311939239501953e+00 -6.919987678527832031e+00 3.096562623977661133e-01
-6.670866966247558594e+00 -6.833132266998291016e+00 1.016722396016120911e-01
-5.200582981109619141e+00 -5.727089405059814453e+00 9.451305493712425232e-03
-7.910794734954833984e+00 -6.924615383148193359e+00 3.120295703411102295e-01
-6.720401287078857422e+00 -6.799895763397216797e+00 1.017893552780151367e-01
-5.401438236236572266e+00 -5.875434875488281250e+00 9.750628843903541565e-03
-7.990185737609863281e+00 -6.907978057861328125e+00 3.134832084178924561e-01
-7.528592586517333984e+00 -6.999750137329101562e+00 2.081533074378967285e-01
-6.845453262329101562e+00 -6.841944694519042969e+00 1.030456200242042542e-01
-4.974109172821044922e+00 -5.344413757324218750e+00 8.919851854443550110e-03
-8.061306953430175781e+00 -6.883486270904541016e+00 3.146105408668518066e-01
-7.606009960174560547e+00 -6.985208511352539062e+00 2.091047912836074829e-01
-6.786262512207031250e+00 -6.700053215026855469e+00 1.015338376164436340e-01
-5.008865833282470703e+00 -5.315976142883300781e+00 8.923517540097236633e-03
-8.133192062377929688e+00 -6.859024524688720703e+00 3.157674968242645264e-01
-7.689455509185791016e+00 -6.975353240966796875e+00 2.102182358503341675e-01
-6.824381828308105469e+00 -6.655494213104248047e+00 1.014912500977516174e-01
-5.115243434906005859e+00 -5.362566947937011719e+00 9.054242633283138275e-03
-8.204310417175292969e+00 -6.833300113677978516e+00 3.168948292732238770e-01
-7.762639522552490234e+00 -6.955394744873046875e+00 2.110482454299926758e-01
-6.869411468505859375e+00 -6.617658138275146484e+00 1.015551313757896423e-01
-5.550948143005371094e+00 -5.748300552368164062e+00 9.762845933437347412e-03
-6.832961082458496094e+00 -6.994435787200927734e+00 3.670918643474578857e-01
-8.281595230102539062e+00 -6.812039852142333984e+00 3.182594776153564453e-01
-7.848595619201660156e+00 -6.946064472198486328e+00 2.122224420309066772e-01
-7.138792514801025391e+00 -6.793207645416259766e+00 1.049193665385246277e-01
-5.602891921997070312e+00 -5.731294155120849609e+00 9.792167693376541138e-03
-6.892613410949707031e+00 -6.969429492950439453e+00 3.679922223091125488e-01
-8.381424903869628906e+00 -6.808363914489746094e+00 3.204844594001770020e-01
-7.936233043670654297e+00 -6.937254905700683594e+00 2.134370952844619751e-01
-7.224056720733642578e+00 -6.790368556976318359e+00 1.055581495165824890e-01
-5.633732795715332031e+00 -5.692543506622314453e+00 9.784838184714317322e-03
-7.004536151885986328e+00 -6.996212959289550781e+00 3.716687858104705811e-01
-8.493215560913085938e+00 -6.813099384307861328e+00 3.231544196605682373e-01
-8.023299217224121094e+00 -6.926977157592773438e+00 2.146315127611160278e-01
-7.308086872100830078e+00 -6.785376071929931641e+00 1.061756312847137451e-01
-5.306175231933593750e+00 -5.296171188354492188e+00 9.159311652183532715e-03
-7.071518421173095703e+00 -6.976964950561523438e+00 3.729443252086639404e-01
-8.567767143249511719e+00 -6.786925315856933594e+00 3.244003951549530029e-01
-8.103690147399902344e+00 -6.910052299499511719e+00 2.156437486410140991e-01
-7.359900951385498047e+00 -6.749868869781494141e+00 1.063246726989746094e-01
-5.523005008697509766e+00 -5.445353031158447266e+00 9.475739672780036926e-03
-7.124929428100585938e+00 -6.943904876708984375e+00 3.735070526599884033e-01
-8.656489372253417969e+00 -6.771177768707275391e+00 3.261803686618804932e-01
-8.187232017517089844e+00 -6.894976615905761719e+00 2.167369425296783447e-01
-7.462688446044921875e+00 -6.760303020477294922e+00 1.072083190083503723e-01
-5.559178352355957031e+00 -5.414152622222900391e+00 9.480626322329044342e-03
-7.212756156921386719e+00 -6.943718910217285156e+00 3.758705258369445801e-01
-8.742173194885253906e+00 -6.752150535583496094e+00 3.278416693210601807e-01
-8.252444267272949219e+00 -6.863790512084960938e+00 2.173442691564559937e-01
-7.575566291809082031e+00 -6.778395652770996094e+00 1.082303673028945923e-01
-5.660036087036132812e+00 -5.445109844207763672e+00 9.595469571650028229e-03
-7.306641101837158203e+00 -6.948223590850830078e+00 3.785341680049896240e-01
-8.816821098327636719e+00 -6.723840236663818359e+00 3.290876448154449463e-01
-8.322217941284179688e+00 -6.835870742797851562e+00 2.180730700492858887e-01
-7.661971092224121094e+00 -6.771516323089599609e+00 1.088691502809524536e-01
-5.970975875854492188e+00 -5.674109935760498047e+00 1.006339211016893387e-02
-7.358605861663818359e+00 -6.912154674530029297e+00 3.790218830108642578e-01
-8.928978919982910156e+00 -6.723125457763671875e+00 3.317279517650604248e-01
-8.466497421264648438e+00 -6.867817401885986328e+00 2.207453399896621704e-01
-7.788500785827636719e+00 -6.798682212829589844e+00 1.100721806287765503e-01
-6.027552127838134766e+00 -5.657897472381591797e+00 1.010004337877035141e-02
-7.460215091705322266e+00 -6.921927452087402344e+00 3.820606470108032227e-01
-8.983700752258300781e+00 -6.678349494934082031e+00 3.322322666645050049e-01
-8.544372558593750000e+00 -6.844491958618164062e+00 2.216765880584716797e-01
-7.842944622039794922e+00 -6.761865139007568359e+00 1.102531701326370239e-01
-6.108352184295654297e+00 -5.663640975952148438e+00 1.017701253294944763e-02
-7.539381980895996094e+00 -6.909780979156494141e+00 3.839364349842071533e-01
-9.109122276306152344e+00 -6.685197830200195312e+00 3.353472352027893066e-01
-8.616005897521972656e+00 -6.815505981445312500e+00 2.224458903074264526e-01
-7.913978576660156250e+00 -6.738896846771240234e+00 1.106683686375617981e-01
-6.200510025024414062e+00 -5.678735256195068359e+00 1.027230732142925262e-02
-7.619420051574707031e+00 -6.897593498229980469e+00 3.858497440814971924e-01
-9.183966636657714844e+00 -6.653810501098632812e+00 3.365932106971740723e-01
-8.702573776245117188e+00 -6.797590732574462891e+00 2.235998064279556274e-01
-7.964362144470214844e+00 -6.697934150695800781e+00 1.107961237430572510e-01
-6.250811576843261719e+00 -5.654671192169189453e+00 1.029796432703733444e-02
-7.724173545837402344e+00 -6.906662940979003906e+00 3.890010714530944824e-01
-9.316493034362792969e+00 -6.663039207458496094e+00 3.399454951286315918e-01
-8.771828651428222656e+00 -6.765436172485351562e+00 2.243083715438842773e-01
-8.069155693054199219e+00 -6.701967716217041016e+00 1.116797700524330139e-01
-6.276441574096679688e+00 -5.608214855194091797e+00 1.028330344706773758e-02
-7.786629676818847656e+00 -6.876999378204345703e+00 3.900140225887298584e-01
-9.383331298828125000e+00 -6.624195575714111328e+00 3.408948183059692383e-01
-8.829878807067871094e+00 -6.724206447601318359e+00 2.247335016727447510e-01
-8.147235870361328125e+00 -6.682769298553466797e+00 1.121907904744148254e-01
-5.887119770050048828e+00 -5.195732593536376953e+00 9.593025781214237213e-03
-7.876873970031738281e+00 -6.871132850646972656e+00 3.924149870872497559e-01
-9.516471862792968750e+00 -6.631069183349609375e+00 3.442471027374267578e-01
-8.907731056213378906e+00 -6.697538852691650391e+00 2.256647348403930664e-01
-8.184203147888183594e+00 -6.629506587982177734e+00 1.121375635266304016e-01
-6.394541740417480469e+00 -5.574139118194580078e+00 1.036393828690052032e-02
-7.956739902496337891e+00 -6.855285167694091797e+00 3.942907750606536865e-01
-9.612984657287597656e+00 -6.611068248748779297e+00 3.462644219398498535e-01
-9.020909309387207031e+00 -6.696389198303222656e+00 2.274867445230484009e-01
-8.202081680297851562e+00 -6.561049938201904297e+00 1.118288189172744751e-01
-5.880716323852539062e+00 -5.063071250915527344e+00 9.480626322329044342e-03
-8.028334617614746094e+00 -6.831591129302978516e+00 3.957539200782775879e-01
-9.679834365844726562e+00 -6.569922447204589844e+00 3.472137451171875000e-01
-9.123116493225097656e+00 -6.685826778411865234e+00 2.290253192186355591e-01
-8.227276802062988281e+00 -6.498823165893554688e+00 1.116265356540679932e-01
-6.419801712036132812e+00 -5.458971500396728516e+00 1.029552053660154343e-02
-8.122121810913085938e+00 -6.825920581817626953e+00 3.983049988746643066e-01
-9.837892532348632812e+00 -6.589392662048339844e+00 3.514263331890106201e-01
-9.221481323242187500e+00 -6.671330451965332031e+00 2.304626852273941040e-01
-8.510631561279296875e+00 -6.638252258300781250e+00 1.149162501096725464e-01
-6.306148052215576172e+00 -5.296001434326171875e+00 1.006094831973314285e-02
-8.206144332885742188e+00 -6.811057567596435547e+00 4.003683626651763916e-01
-9.926504135131835938e+00 -6.560870647430419922e+00 3.531469702720642090e-01
-9.341162681579589844e+00 -6.670984268188476562e+00 2.324263900518417358e-01
-8.535358428955078125e+00 -6.573703765869140625e+00 1.147033199667930603e-01
-5.799731254577636719e+00 -4.810328960418701172e+00 9.205737151205539703e-03
-8.279467582702636719e+00 -6.786550045013427734e+00 4.019064903259277344e-01
-1.006202030181884766e+01 -6.562086105346679688e+00 3.565289378166198730e-01
-9.430949211120605469e+00 -6.648104667663574219e+00 2.336410433053970337e-01
-8.666271209716796875e+00 -6.590209484100341797e+00 1.159169971942901611e-01
-5.997010231018066406e+00 -4.912157058715820312e+00 9.470853023231029510e-03
-8.418819427490234375e+00 -6.814841270446777344e+00 4.066334962844848633e-01
-1.015925407409667969e+01 -6.537002563476562500e+00 3.585462272167205811e-01
-9.512598037719726562e+00 -6.618663311004638672e+00 2.346532791852951050e-01
-8.794505119323730469e+00 -6.602951526641845703e+00 1.170880869030952454e-01
-5.858324527740478516e+00 -4.738795280456542969e+00 9.205737151205539703e-03
-8.491698265075683594e+00 -6.788014411926269531e+00 4.081341326236724854e-01
-1.028609275817871094e+01 -6.529720783233642578e+00 3.616018593311309814e-01
-9.644514083862304688e+00 -6.622993469238281250e+00 2.369004040956497192e-01
-8.914382934570312500e+00 -6.607815742492675781e+00 1.181420758366584778e-01
-6.496725082397460938e+00 -5.189575195312500000e+00 1.015868689864873886e-02
-8.563779830932617188e+00 -6.759929180145263672e+00 4.095972180366516113e-01
-1.036069869995117188e+01 -6.488234996795654297e+00 3.628181815147399902e-01
-9.728835105895996094e+00 -6.593418598175048828e+00 2.379733473062515259e-01
-8.924902915954589844e+00 -6.531144618988037109e+00 1.177481636404991150e-01
-6.547288894653320312e+00 -5.164478302001953125e+00 1.018800865858793259e-02
-8.683123588562011719e+00 -6.768074035644531250e+00 4.133112728595733643e-01
-1.049810981750488281e+01 -6.484951496124267578e+00 3.662298023700714111e-01
-9.848890304565429688e+00 -6.586958408355712891e+00 2.399168312549591064e-01
-8.980210304260253906e+00 -6.487385272979736328e+00 1.179504469037055969e-01
-6.580432415008544922e+00 -5.125436305999755859e+00 1.019045244902372360e-02
-8.758541107177734375e+00 -6.740876197814941406e+00 4.149244725704193115e-01
-1.064354991912841797e+01 -6.484904766082763672e+00 3.699084222316741943e-01
-9.931678771972656250e+00 -6.554488182067871094e+00 2.409492880105972290e-01
-9.041014671325683594e+00 -6.447256565093994141e+00 1.182272508740425110e-01
-6.595903396606445312e+00 -5.072770118713378906e+00 1.016601733863353729e-02
-8.862592697143554688e+00 -6.734772205352783203e+00 4.178882241249084473e-01
-1.073454666137695312e+01 -6.450364589691162109e+00 3.716883659362792969e-01
-1.010157108306884766e+01 -6.577989101409912109e+00 2.440871745347976685e-01
-9.459810256958007812e+00 -6.658722877502441406e+00 1.231671348214149475e-01
-7.003606319427490234e+00 -5.318254470825195312e+00 1.074389554560184479e-02
-8.970093727111816406e+00 -6.730041980743408203e+00 4.210020005702972412e-01
-1.085303592681884766e+01 -6.431257724761962891e+00 3.744176626205444336e-01
-1.018379974365234375e+01 -6.542904376983642578e+00 2.450993955135345459e-01
-9.510343551635742188e+00 -6.607399463653564453e+00 1.232948899269104004e-01
-6.780873775482177734e+00 -5.083825111389160156e+00 1.035416405647993088e-02
-9.068232536315917969e+00 -6.717106819152832031e+00 4.236656427383422852e-01
-1.096737670898437500e+01 -6.408416271209716797e+00 3.769986331462860107e-01
-1.029299926757812500e+01 -6.524185180664062500e+00 2.467594295740127563e-01
-9.619155883789062500e+00 -6.595856666564941406e+00 1.241785362362861633e-01
-7.171224594116210938e+00 -5.308061599731445312e+00 1.090027764439582825e-02
-9.157674789428710938e+00 -6.696730613708496094e+00 4.259165823459625244e-01
-1.108963775634765625e+01 -6.388903141021728516e+00 3.798466026782989502e-01
-1.038370132446289062e+01 -6.492709636688232422e+00 2.479741126298904419e-01
-9.687603950500488281e+00 -6.555764675140380859e+00 1.245405152440071106e-01
-7.115652084350585938e+00 -5.199649810791015625e+00 1.076710876077413559e-02
-9.293390274047851562e+00 -6.708847999572753906e+00 4.303059279918670654e-01
-1.117817306518554688e+01 -6.348876476287841797e+00 3.815375864505767822e-01
-1.049397373199462891e+01 -6.472436904907226562e+00 2.496543973684310913e-01
-9.832423210144042969e+00 -6.566170215606689453e+00 1.258819401264190674e-01
-7.082541942596435547e+00 -5.109088897705078125e+00 1.066937018185853958e-02
-1.246293163299560547e+01 -6.997804641723632812e+00 3.069403409957885742e+00
-1.235978984832763672e+01 -6.937054157257080078e+00 2.504266023635864258e+00
-9.356352806091308594e+00 -6.667356491088867188e+00 4.313188791275024414e-01
-1.135820865631103516e+01 -6.359274864196777344e+00 3.863435089588165283e-01
-1.066930103302001953e+01 -6.490543842315673828e+00 2.528732419013977051e-01
-9.979402542114257812e+00 -6.576143264770507812e+00 1.272446662187576294e-01
-7.110498428344726562e+00 -5.063214302062988281e+00 1.066448260098695755e-02
-1.240729236602783203e+01 -6.863945960998535156e+00 2.505310058593750000e+00
-9.551567077636718750e+00 -6.718481063842773438e+00 4.384093582630157471e-01
-1.150028228759765625e+01 -6.346450805664062500e+00 3.898441493511199951e-01
-1.076208019256591797e+01 -6.456847190856933594e+00 2.541284263134002686e-01
-8.542449951171875000e+00 -5.554357528686523438e+00 1.084858775138854980e-01
-6.486112594604492188e+00 -4.558886051177978516e+00 9.685877710580825806e-03
-1.260108375549316406e+01 -6.873365402221679688e+00 3.082420825958251953e+00
-1.250796699523925781e+01 -6.819741725921630859e+00 2.517141342163085938e+00
-9.792080879211425781e+00 -6.798230648040771484e+00 4.475256800651550293e-01
-1.159081363677978516e+01 -6.303943634033203125e+00 3.915944397449493408e-01
-1.083763504028320312e+01 -6.412072658538818359e+00 2.549786865711212158e-01
-8.474531173706054688e+00 -5.436506271362304688e+00 1.071976721286773682e-01
-6.756347179412841797e+00 -4.687153816223144531e+00 1.004628743976354599e-02
-1.270244216918945312e+01 -6.827857971191406250e+00 3.096908092498779297e+00
-1.261984062194824219e+01 -6.780618667602539062e+00 2.531234741210937500e+00
-9.837731361389160156e+00 -6.740843772888183594e+00 4.477132856845855713e-01
-1.173763942718505859e+01 -6.290782928466796875e+00 3.952434062957763672e-01
-1.100285720825195312e+01 -6.419009208679199219e+00 2.579343616962432861e-01
-8.410560607910156250e+00 -5.322908878326416016e+00 1.059733480215072632e-01
-7.135656833648681641e+00 -4.885714530944824219e+00 1.056552305817604065e-02
-1.277001857757568359e+01 -6.763516902923583984e+00 3.103206872940063477e+00
-1.259506511688232422e+01 -6.668040275573730469e+00 2.518011331558227539e+00
-9.921952247619628906e+00 -6.709462165832519531e+00 4.496640861034393311e-01
-1.186970996856689453e+01 -6.268119812011718750e+00 3.983880281448364258e-01
-1.113390254974365234e+01 -6.404217720031738281e+00 2.600803077220916748e-01
-8.454090118408203125e+00 -5.278086662292480469e+00 1.061117425560951233e-01
-6.722213268280029297e+00 -4.542303085327148438e+00 9.911896660923957825e-03
-1.327624130249023438e+01 -6.924707889556884766e+00 3.802822351455688477e+00
-1.282168006896972656e+01 -6.690462112426757812e+00 3.105726480484008789e+00
-1.261827945709228516e+01 -6.581524372100830078e+00 2.514531373977661133e+00
-1.301554203033447266e+01 -6.785841464996337891e+00 2.044614076614379883e+00
-1.010340881347656250e+01 -6.742197513580322266e+00 4.560042619705200195e-01
-1.201524162292480469e+01 -6.250991344451904297e+00 4.019775986671447754e-01
-1.124082469940185547e+01 -6.374247550964355469e+00 2.616593539714813232e-01
-8.531442642211914062e+00 -5.253904342651367188e+00 1.066760048270225525e-01
-6.923012733459472656e+00 -4.616366386413574219e+00 1.016601733863353729e-02
-1.290422916412353516e+01 -6.633118629455566406e+00 3.115804672241210938e+00
-1.312036895751953125e+01 -6.738431453704833984e+00 2.054547548294067383e+00
-1.011036968231201172e+01 -6.657544612884521484e+00 4.544660747051239014e-01
-1.215744781494140625e+01 -6.230487346649169922e+00 4.054485857486724854e-01
-1.143681144714355469e+01 -6.392964363098144531e+00 2.653033435344696045e-01
-1.065910339355468750e+01 -6.474308490753173828e+00 1.327807456254959106e-01
-7.199316024780273438e+00 -4.737052440643310547e+00 1.052887085825204849e-02
-1.304238128662109375e+01 -6.603277683258056641e+00 3.139319896697998047e+00
-1.012924194335937500e+01 -6.581227302551269531e+00 4.534906744956970215e-01
-1.233465194702148438e+01 -6.226037502288818359e+00 4.100765287876129150e-01
-1.156251525878906250e+01 -6.370432376861572266e+00 2.673075497150421143e-01
-1.070291709899902344e+01 -6.411353111267089844e+00 1.328339725732803345e-01
-7.065531730651855469e+00 -4.587150096893310547e+00 1.029185578227043152e-02
-1.259014129638671875e+01 -6.272069454193115234e+00 4.145165443420410156e+00
-1.360877704620361328e+01 -6.782491207122802734e+00 3.861653089523315430e+00
-1.309052753448486328e+01 -6.527052879333496094e+00 3.141209602355957031e+00
-1.279492855072021484e+01 -6.976383686065673828e+00 2.980860948562622070e+00
-1.261010265350341797e+01 -6.869898319244384766e+00 2.392738580703735352e+00
-1.367104053497314453e+01 -6.810544490814208984e+00 2.127529859542846680e+00
-1.029057788848876953e+01 -6.596609592437744141e+00 4.588929414749145508e-01
-1.246750068664550781e+01 -6.197398662567138672e+00 4.132211506366729736e-01
-1.173405838012695312e+01 -6.371405601501464844e+00 2.703644633293151855e-01
-1.075583076477050781e+01 -6.353698253631591797e+00 1.330043226480484009e-01
-7.352057933807373047e+00 -4.709298610687255859e+00 1.066692639142274857e-02
-1.261719417572021484e+01 -6.189208030700683594e+00 4.141490936279296875e+00
-1.284180927276611328e+01 -6.900062561035156250e+00 2.981863021850585938e+00
-1.264941024780273438e+01 -6.790995121002197266e+00 2.392245531082153320e+00
-1.258878612518310547e+01 -6.161649227142333984e+00 4.159800708293914795e-01
-1.184345531463623047e+01 -6.337020874023437500e+00 2.719840109348297119e-01
-1.083868026733398438e+01 -6.313249588012695312e+00 1.335472911596298218e-01
-6.884590625762939453e+00 -4.350523471832275391e+00 9.949770756065845490e-03
-1.261779117584228516e+01 -6.093736648559570312e+00 4.129335880279541016e+00
-1.268648242950439453e+01 -6.710946083068847656e+00 2.391423702239990234e+00
-1.279384422302246094e+01 -6.164997577667236328e+00 4.214980304241180420e-01
-1.197851657867431641e+01 -6.315054416656494141e+00 2.741906642913818359e-01
-1.088328361511230469e+01 -6.250111579895019531e+00 1.336218118667602539e-01
-7.623147487640380859e+00 -4.752031803131103516e+00 1.097480300813913345e-02
-1.334854888916015625e+01 -6.962608337402343750e+00 3.079454660415649414e+00
-1.271604919433593750e+01 -6.627050399780273438e+00 2.389286994934082031e+00
-1.131834602355957031e+01 -6.964879989624023438e+00 4.989222884178161621e-01
-1.290458202362060547e+01 -6.121078491210937500e+00 4.239009916782379150e-01
-1.210044193267822266e+01 -6.284754276275634766e+00 2.760936319828033447e-01
-1.106500625610351562e+01 -6.264502048492431641e+00 1.353784501552581787e-01
-7.600199222564697266e+00 -4.673216819763183594e+00 1.090027764439582825e-02
-1.323462867736816406e+01 -6.192512512207031250e+00 4.306008338928222656e+00
-1.333833408355712891e+01 -6.859387397766113281e+00 3.647980928421020508e+00
-1.346538639068603516e+01 -6.303349971771240234e+00 2.626930236816406250e+00
-1.322243404388427734e+01 -6.788116455078125000e+00 2.476561784744262695e+00
-1.137624454498291016e+01 -6.904633045196533203e+00 4.995975792407989502e-01
-1.305964183807373047e+01 -6.096749782562255859e+00 4.277575910091400146e-01
-1.225448608398437500e+01 -6.269587993621826172e+00 2.787254154682159424e-01
-1.110934829711914062e+01 -6.199901580810546875e+00 1.354529708623886108e-01
-7.742451190948486328e+00 -4.695461750030517578e+00 1.106276735663414001e-02
-1.332552433013916016e+01 -6.135662078857421875e+00 4.323251724243164062e+00
-1.353013134002685547e+01 -6.853374481201171875e+00 3.688866138458251953e+00
-1.349218273162841797e+01 -6.215252876281738281e+00 2.624668359756469727e+00
-1.255741786956787109e+01 -6.941631793975830078e+00 2.252022504806518555e+00
-1.331288051605224609e+01 -6.725822448730468750e+00 1.931879520416259766e+00
-1.310497951507568359e+01 -6.020257949829101562e+00 4.280245900154113770e-01
-1.231504535675048828e+01 -6.205524921417236328e+00 2.792315185070037842e-01
-1.124092864990234375e+01 -6.183186054229736328e+00 1.365921348333358765e-01
-7.786563396453857422e+00 -4.657105445861816406e+00 1.108475774526596069e-02
-1.334894180297851562e+01 -6.047449111938476562e+00 4.318728923797607422e+00
-1.346324062347412109e+01 -6.716008663177490234e+00 3.659324884414672852e+00
-1.342512416839599609e+01 -6.084786415100097656e+00 2.604311227798461914e+00
-1.261018371582031250e+01 -6.870121479034423828e+00 2.253883123397827148e+00
-1.367176342010498047e+01 -6.802157878875732422e+00 1.977864384651184082e+00
-1.050947189331054688e+01 -4.752248764038085938e+00 7.600210309028625488e-01
-1.177680587768554688e+01 -6.951438426971435547e+00 5.134033560752868652e-01
-1.039456367492675781e+01 -4.698103904724121094e+00 3.385511934757232666e-01
-1.245230102539062500e+01 -6.179174900054931641e+00 2.814786434173583984e-01
-1.138326644897460938e+01 -6.170805454254150391e+00 1.378590315580368042e-01
-7.759867191314697266e+00 -4.576727867126464844e+00 1.100656762719154358e-02
-1.339017772674560547e+01 -5.967380046844482422e+00 4.320142269134521484e+00
-1.274751472473144531e+01 -6.267115116119384766e+00 4.024904251098632812e+00
-1.259767818450927734e+01 -5.616835594177246094e+00 3.503007650375366211e+00
-1.353210449218750000e+01 -6.646981716156005859e+00 3.666887283325195312e+00
-1.308727264404296875e+01 -5.837865829467773438e+00 3.077381849288940430e+00
-1.243908500671386719e+01 -6.681051254272460938e+00 2.749716281890869141e+00
-1.265732383728027344e+01 -6.795421600341796875e+00 2.254813432693481445e+00
-1.356807804107666016e+01 -6.647024631500244141e+00 1.956927180290222168e+00
-1.037523651123046875e+01 -4.615081787109375000e+00 7.482514381408691406e-01
-1.028984546661376953e+01 -4.574947357177734375e+00 3.342199325561523438e-01
-1.263191223144531250e+01 -6.172000885009765625e+00 2.846772670745849609e-01
-1.145443153381347656e+01 -6.118746757507324219e+00 1.382635980844497681e-01
-7.745444774627685547e+00 -4.504394054412841797e+00 1.094670221209526062e-02
-1.288531970977783203e+01 -6.236985683441162109e+00 4.056255340576171875e+00
-1.265587043762207031e+01 -5.549941539764404297e+00 3.509653806686401367e+00
-1.359800243377685547e+01 -6.576093673706054688e+00 3.673740863800048828e+00
-1.317567157745361328e+01 -5.780630111694335938e+00 3.089769363403320312e+00
-1.238701725006103516e+01 -6.555474281311035156e+00 2.729263305664062500e+00
-1.330308341979980469e+01 -5.833761692047119141e+00 2.566555023193359375e+00
-1.272847270965576172e+01 -6.733335971832275391e+00 2.260085344314575195e+00
-1.360860824584960938e+01 -6.563647270202636719e+00 1.956927180290222168e+00
-1.028542995452880859e+01 -4.499741554260253906e+00 7.397695183753967285e-01
-1.029757499694824219e+01 -4.502913475036621094e+00 3.335672616958618164e-01
-1.273261451721191406e+01 -6.124714851379394531e+00 2.860943973064422607e-01
-1.153069496154785156e+01 -6.068840503692626953e+00 1.387320458889007568e-01
-8.054012298583984375e+00 -4.617944717407226562e+00 1.134254317730665207e-02
-1.292160987854003906e+01 -6.156977653503417969e+00 4.055709838867187500e+00
-1.264696598052978516e+01 -5.453759670257568359e+00 3.497838497161865234e+00
-1.362669086456298828e+01 -6.487103939056396484e+00 3.670668601989746094e+00
-1.330873203277587891e+01 -6.950891494750976562e+00 3.499524593353271484e+00
-1.325847244262695312e+01 -5.720204353332519531e+00 3.100897312164306641e+00
-1.335671424865722656e+01 -5.759824752807617188e+00 2.570034980773925781e+00
-1.284751701354980469e+01 -6.695744514465332031e+00 2.273885250091552734e+00
-1.028443145751953125e+01 -4.424322605133056641e+00 7.377312183380126953e-01
-1.013768386840820312e+01 -4.359095573425292969e+00 3.275153636932373047e-01
-1.291272735595703125e+01 -6.114074707031250000e+00 2.892930209636688232e-01
-1.171152400970458984e+01 -6.072541236877441406e+00 1.404567360877990723e-01
-7.664331912994384766e+00 -4.332242965698242188e+00 1.075611356645822525e-02
-1.447102069854736328e+01 -6.132340431213378906e+00 4.631651401519775391e+00
-1.294782066345214844e+01 -6.072265148162841797e+00 4.052165985107421875e+00
-1.268286800384521484e+01 -5.377191543579101562e+00 3.498576879501342773e+00
-1.322902584075927734e+01 -6.806276798248291016e+00 3.467519044876098633e+00
-1.272896862030029297e+01 -5.399357795715332031e+00 2.969252347946166992e+00
-1.335735225677490234e+01 -5.663154602050781250e+00 2.563423156738281250e+00
-1.308785915374755859e+01 -6.719209194183349609e+00 2.309082746505737305e+00
-1.321065711975097656e+01 -6.767691612243652344e+00 1.783093333244323730e+00
-1.024889183044433594e+01 -4.334703922271728516e+00 7.332601547241210938e-01
-1.015595340728759766e+01 -4.293306827545166016e+00 3.272483348846435547e-01
-1.308049583435058594e+01 -6.095540523529052734e+00 2.922082245349884033e-01
-1.184384822845458984e+01 -6.049232959747314453e+00 1.415958851575851440e-01
-8.225384712219238281e+00 -4.583009719848632812e+00 1.150381192564964294e-02
-1.451900196075439453e+01 -6.047858715057373047e+00 4.635043621063232422e+00
-1.301453685760498047e+01 -6.006412506103515625e+00 4.061434745788574219e+00
-1.250673389434814453e+01 -6.939464092254638672e+00 3.760315895080566406e+00
-1.266999626159667969e+01 -5.280254840850830078e+00 3.486023187637329102e+00
-1.279705333709716797e+01 -5.335827350616455078e+00 2.977440834045410156e+00
-1.345764732360839844e+01 -6.807991504669189453e+00 2.937045097351074219e+00
-1.248388576507568359e+01 -6.898317337036132812e+00 2.638347864151000977e+00
-1.339912128448486328e+01 -5.584119319915771484e+00 2.564815282821655273e+00
-1.326196384429931641e+01 -6.706091880798339844e+00 2.332496166229248047e+00
-1.329182243347167969e+01 -6.706632137298583984e+00 1.788460493087768555e+00
-1.021817016601562500e+01 -4.247987270355224609e+00 7.291834950447082520e-01
-1.054488563537597656e+01 -4.839866161346435547e+00 6.547768712043762207e-01
-3.597105026245117188e+00 -1.494683861732482910e+00 1.156093552708625793e-01
-1.059390735626220703e+01 -4.857890129089355469e+00 2.359894067049026489e-01
-1.212550354003906250e+01 -6.099570274353027344e+00 1.445129811763763428e-01
-8.146414756774902344e+00 -4.473728179931640625e+00 1.135476119816303253e-02
-1.306691551208496094e+01 -5.933603763580322266e+00 4.066341876983642578e+00
-1.268152809143066406e+01 -5.193964481353759766e+00 3.480361700057983398e+00
-1.302704524993896484e+01 -5.910015106201171875e+00 3.479241847991943359e+00
-1.328453922271728516e+01 -6.629941940307617188e+00 3.460482120513916016e+00
-1.277979373931884766e+01 -5.236815929412841797e+00 2.965893030166625977e+00
-1.245602893829345703e+01 -6.783493995666503906e+00 2.623614549636840820e+00
-1.343039798736572266e+01 -5.500679016113281250e+00 2.564293146133422852e+00
-1.333204460144042969e+01 -6.639124393463134766e+00 2.337612867355346680e+00
-1.287115383148193359e+01 -6.997922420501708984e+00 2.160786628723144531e+00
-1.331938552856445312e+01 -6.618321418762207031e+00 1.786671400070190430e+00
-1.017199230194091797e+01 -4.155773639678955078e+00 7.240549325942993164e-01
-1.048066043853759766e+01 -4.732750415802001953e+00 6.489734649658203125e-01
-3.575670957565307617e+00 -1.460114359855651855e+00 1.146303713321685791e-01
-1.038747787475585938e+01 -4.686307430267333984e+00 2.307461053133010864e-01
-1.221019172668457031e+01 -6.048580169677734375e+00 1.450772434473037720e-01
-7.916909217834472656e+00 -4.284675598144531250e+00 1.099801622331142426e-02
-1.323133182525634766e+01 -5.910608291625976562e+00 4.106143951416015625e+00
-1.268348693847656250e+01 -5.104113578796386719e+00 3.472238540649414062e+00
-1.269837665557861328e+01 -5.667213916778564453e+00 3.382110357284545898e+00
-1.320522403717041016e+01 -6.489458084106445312e+00 3.429384469985961914e+00
-1.286610317230224609e+01 -5.180212020874023438e+00 2.978490829467773438e+00
-1.390060329437255859e+01 -6.819145202636718750e+00 3.015226125717163086e+00
-1.250088214874267578e+01 -6.708796977996826172e+00 2.624342203140258789e+00
-1.347760009765625000e+01 -5.423682212829589844e+00 2.566902875900268555e+00
-1.338938236236572266e+01 -6.565459251403808594e+00 2.340559005737304688e+00
-1.292082500457763672e+01 -6.922552108764648438e+00 2.161953926086425781e+00
-1.326075077056884766e+01 -6.488036155700683594e+00 1.773432374000549316e+00
-1.018526268005371094e+01 -4.088449478149414062e+00 7.232001423835754395e-01
-1.029781627655029297e+01 -4.574321269989013672e+00 6.359015703201293945e-01
-3.567864656448364258e+00 -1.431447625160217285e+00 1.140963807702064514e-01
-1.030363368988037109e+01 -4.572599887847900391e+00 2.282560318708419800e-01
-1.244389820098876953e+01 -6.069546699523925781e+00 1.474087834358215332e-01
-8.108935356140136719e+00 -4.324483394622802734e+00 1.122770085930824280e-02
-1.330170345306396484e+01 -5.844405174255371094e+00 4.116775989532470703e+00
-1.264335918426513672e+01 -4.998044013977050781e+00 3.452792406082153320e+00
-1.273113155364990234e+01 -5.588410377502441406e+00 3.381637811660766602e+00
-1.346045589447021484e+01 -6.512655258178710938e+00 3.485224246978759766e+00
-1.326016902923583984e+01 -5.815114974975585938e+00 2.961622953414916992e+00
-1.391831874847412109e+01 -6.722198009490966797e+00 3.010064840316772461e+00
-1.251312541961669922e+01 -6.616797924041748047e+00 2.618339538574218750e+00
-1.348589897155761719e+01 -5.331108570098876953e+00 2.562205314636230469e+00
-1.294731044769287109e+01 -6.834827899932861328e+00 2.159327507019042969e+00
-1.331015110015869141e+01 -6.411287307739257812e+00 1.774744391441345215e+00
-1.019437599182128906e+01 -4.019654273986816406e+00 7.220823764801025391e-01
-1.032203006744384766e+01 -4.509449958801269531e+00 6.356762051582336426e-01
-3.599829435348510742e+00 -1.418690919876098633e+00 1.148380413651466370e-01
-1.032691478729248047e+01 -4.507291793823242188e+00 2.281548082828521729e-01
-1.259358215332031250e+01 -6.047183036804199219e+00 1.487395614385604858e-01
-8.295544624328613281e+00 -4.358837127685546875e+00 1.144883409142494202e-02
-1.325370979309082031e+01 -5.142854690551757812e+00 4.189545631408691406e+00
-1.334614562988281250e+01 -5.766493320465087891e+00 4.119502067565917969e+00
-1.299112606048583984e+01 -6.195840358734130859e+00 3.926674842834472656e+00
-1.276161289215087891e+01 -5.508647918701171875e+00 3.380692243576049805e+00
-1.351335239410400391e+01 -6.436222076416015625e+00 3.488629102706909180e+00
-1.275611877441406250e+01 -6.659615516662597656e+00 3.216522216796875000e+00
-1.316605377197265625e+01 -5.677776336669921875e+00 2.932766199111938477e+00
-1.401249217987060547e+01 -6.661957740783691406e+00 3.021534204483032227e+00
-1.351560211181640625e+01 -5.247191429138183594e+00 2.561683177947998047e+00
-1.296706295013427734e+01 -6.743844509124755859e+00 2.155679941177368164e+00
-1.019651603698730469e+01 -3.948379516601562500e+00 7.205043435096740723e-01
-1.034400177001953125e+01 -4.443665981292724609e+00 6.353381276130676270e-01
-1.016075515747070312e+01 -3.932492733001708984e+00 3.233620822429656982e-01
-1.036080837249755859e+01 -4.446602344512939453e+00 2.282965183258056641e-01
-1.246862602233886719e+01 -5.893310070037841797e+00 1.468338817358016968e-01
-8.338119506835937500e+00 -4.316129684448242188e+00 1.147082541137933731e-02
-1.324288749694824219e+01 -5.045383930206298828e+00 4.176259994506835938e+00
-1.435801887512207031e+01 -6.099423885345458984e+00 4.420197963714599609e+00
-1.303151893615722656e+01 -6.117241859436035156e+00 3.927464723587036133e+00
-1.279696273803710938e+01 -5.430999755859375000e+00 3.381165266036987305e+00
-1.283579540252685547e+01 -6.601305007934570312e+00 3.226338624954223633e+00
-1.436884498596191406e+01 -5.480104446411132812e+00 3.302458763122558594e+00
-1.292914485931396484e+01 -5.481772422790527344e+00 2.872447729110717773e+00
-1.356134700775146484e+01 -5.169423580169677734e+00 2.564293146133422852e+00
