-4.351636886596679688e+00 -6.628673076629638672e+00 1.104533076286315918e+00
-3.970136404037475586e+00 -6.554344654083251953e+00 9.925287961959838867e-01
-3.627629280090332031e+00 -6.511043548583984375e+00 8.953633308410644531e-01
-4.328849792480468750e+00 -6.588947296142578125e+00 8.077513575553894043e-01
-3.959511280059814453e+00 -6.531657695770263672e+00 7.099079489707946777e-01
-3.575391054153442383e+00 -6.412018775939941406e+00 6.126108169555664062e-01
-2.390727758407592773e+00 -4.677048683166503906e+00 3.884959220886230469e-01
-3.744682788848876953e+00 -5.695452690124511719e+00 4.491481482982635498e-01
-3.334534883499145508e+00 -5.496360301971435547e+00 3.628008365631103516e-01
-3.419628381729125977e+00 -6.127647876739501953e+00 3.296980857849121094e-01
-4.325498580932617188e+00 -6.501547813415527344e+00 2.301268100738525391e+00
-3.993788003921508789e+00 -6.523417949676513672e+00 2.167298078536987305e+00
-3.645302772521972656e+00 -6.483667373657226562e+00 2.029268980026245117e+00
-4.386691093444824219e+00 -6.596020698547363281e+00 2.011811017990112305e+00
-4.011871337890625000e+00 -6.547821044921875000e+00 1.867711424827575684e+00
-3.628383874893188477e+00 -6.445672035217285156e+00 1.723998785018920898e+00
-4.401172161102294922e+00 -6.620300292968750000e+00 1.707183718681335449e+00
-4.017165184020996094e+00 -6.551326751708984375e+00 1.571890592575073242e+00
-3.616154193878173828e+00 -6.413467884063720703e+00 1.433828473091125488e+00
-4.392023563385009766e+00 -6.604038715362548828e+00 1.401331186294555664e+00
-4.025210380554199219e+00 -6.559308052062988281e+00 1.282329082489013672e+00
-3.616874694824218750e+00 -6.412129878997802734e+00 1.155471682548522949e+00
-4.403200149536132812e+00 -6.618339061737060547e+00 1.107292294502258301e+00
-4.028443336486816406e+00 -6.559438705444335938e+00 9.970245361328125000e-01
-3.619145870208740234e+00 -6.403091907501220703e+00 8.835555315017700195e-01
-2.881740570068359375e+00 -4.328194618225097656e+00 5.327591300010681152e-01
-4.019847869873046875e+00 -6.540322780609130859e+00 7.135171890258789062e-01
-3.621536493301391602e+00 -6.402102947235107422e+00 6.137750148773193359e-01
-3.712056636810302734e+00 -5.571061611175537109e+00 4.411264359951019287e-01
-3.368197202682495117e+00 -5.475796222686767578e+00 3.628008365631103516e-01
-3.536394357681274414e+00 -6.246500968933105469e+00 3.372541666030883789e-01
-4.057587146759033203e+00 -6.537209987640380859e+00 2.180111169815063477e+00
-3.643913269042968750e+00 -6.389107704162597656e+00 2.006633758544921875e+00
-3.054485559463500977e+00 -4.532299518585205078e+00 1.388058543205261230e+00
-4.083760261535644531e+00 -6.574255466461181641e+00 1.882363796234130859e+00
-3.668348312377929688e+00 -6.424132823944091797e+00 1.724225759506225586e+00
-4.085736274719238281e+00 -6.572317123413085938e+00 1.582912206649780273e+00
-3.663722991943359375e+00 -6.405643463134765625e+00 1.437077999114990234e+00
-4.090393066406250000e+00 -6.574688434600830078e+00 1.290218234062194824e+00
-3.662038326263427734e+00 -6.400105953216552734e+00 1.157332301139831543e+00
-4.089058399200439453e+00 -6.567430496215820312e+00 1.002034068107604980e+00
-3.667255401611328125e+00 -6.396268367767333984e+00 8.857023715972900391e-01
-3.506297349929809570e+00 -6.665081024169921875e+00 8.327713012695312500e-01
-2.951085567474365234e+00 -4.373929500579833984e+00 5.406073331832885742e-01
-4.067801475524902344e+00 -6.528210163116455078e+00 7.149053215980529785e-01
-3.658766746520996094e+00 -6.376303672790527344e+00 6.134423613548278809e-01
-3.518306970596313477e+00 -6.679419517517089844e+00 5.583660602569580078e-01
-3.721601724624633789e+00 -5.511793136596679688e+00 4.382334053516387939e-01
-3.417462348937988281e+00 -5.950957775115966797e+00 3.224236071109771729e-01
-2.986236810684204102e+00 -4.371254920959472656e+00 1.560090541839599609e+00
-4.103771209716796875e+00 -6.521962642669677734e+00 2.183382511138916016e+00
-3.724592924118041992e+00 -6.438445568084716797e+00 2.029268980026245117e+00
-3.520143985748291016e+00 -6.640248298645019531e+00 1.975888490676879883e+00
-3.028125047683715820e+00 -4.434232234954833984e+00 1.363689303398132324e+00
-4.144215583801269531e+00 -6.581141471862792969e+00 1.891580820083618164e+00
-3.729662179946899414e+00 -6.439427375793457031e+00 1.734440445899963379e+00
-3.536893367767333984e+00 -6.657797336578369141e+00 1.685156583786010742e+00
-3.016902208328247070e+00 -4.419454097747802734e+00 1.149110317230224609e+00
-4.144791126251220703e+00 -6.576962471008300781e+00 1.590126514434814453e+00
-3.711824178695678711e+00 -6.398325443267822266e+00 1.440518736839294434e+00
-3.538149833679199219e+00 -6.646156787872314453e+00 1.392749428749084473e+00
-2.989967823028564453e+00 -4.378356933593750000e+00 9.367725849151611328e-01
-4.159072399139404297e+00 -6.594520092010498047e+00 1.299093604087829590e+00
-3.728513240814208984e+00 -6.424510002136230469e+00 1.165860414505004883e+00
-3.527557373046875000e+00 -6.615121841430664062e+00 1.105708837509155273e+00
-2.944322586059570312e+00 -4.309900760650634766e+00 7.270659208297729492e-01
-4.155744552612304688e+00 -6.584148406982421875e+00 1.008456468582153320e+00
-3.720907688140869141e+00 -6.398536682128906250e+00 8.891612291336059570e-01
-3.547127485275268555e+00 -6.643441200256347656e+00 8.327713012695312500e-01
-2.972814798355102539e+00 -4.348348140716552734e+00 5.396900177001953125e-01
-4.124797344207763672e+00 -6.530066490173339844e+00 7.178667187690734863e-01
-3.692308187484741211e+00 -6.344259262084960938e+00 6.125276088714599609e-01
-3.442621707916259766e+00 -6.439593791961669922e+00 5.400735139846801758e-01
-3.763239622116088867e+00 -5.500383377075195312e+00 4.391539096832275391e-01
-3.433539628982543945e+00 -5.431519508361816406e+00 3.626317977905273438e-01
-3.425255298614501953e+00 -5.880676746368408203e+00 3.197484910488128662e-01
-4.174754619598388672e+00 -6.545329093933105469e+00 2.199739456176757812e+00
-3.785020828247070312e+00 -6.451250553131103516e+00 2.040586471557617188e+00
-3.556697607040405273e+00 -6.610858917236328125e+00 1.973600149154663086e+00
-3.060239315032958984e+00 -4.422741413116455078e+00 1.365904688835144043e+00
-4.203339576721191406e+00 -6.585073947906494141e+00 1.900088429450988770e+00
-3.826816558837890625e+00 -6.514670372009277344e+00 1.760998368263244629e+00
-3.570731401443481445e+00 -6.623084545135498047e+00 1.681884527206420898e+00
-3.027833700180053711e+00 -4.377540588378906250e+00 1.143021583557128906e+00
-4.229898929595947266e+00 -6.621585845947265625e+00 1.607159972190856934e+00
-3.839114665985107422e+00 -6.525170803070068359e+00 1.474352598190307617e+00
-3.558297634124755859e+00 -6.586256027221679688e+00 1.384746074676513672e+00
-2.997725725173950195e+00 -4.332395553588867188e+00 9.308568835258483887e-01
-4.220178127288818359e+00 -6.601288318634033203e+00 1.305503606796264648e+00
-3.823486566543579102e+00 -6.496014118194580078e+00 1.183071613311767578e+00
-3.558192491531372070e+00 -6.575081348419189453e+00 1.102644681930541992e+00
-2.965075016021728516e+00 -4.283609867095947266e+00 7.256862521171569824e-01
-4.188583374023437500e+00 -6.546830177307128906e+00 1.006658196449279785e+00
-3.788847684860229492e+00 -6.424332141876220703e+00 8.959596753120422363e-01
-3.457607746124267578e+00 -6.381228923797607422e+00 8.025467395782470703e-01
-3.003971815109252930e+00 -4.336567878723144531e+00 5.405054092407226562e-01
-4.207740306854248047e+00 -6.571718215942382812e+00 7.252702713012695312e-01
-3.667342424392700195e+00 -6.213351726531982422e+00 6.020499467849731445e-01
-3.514883041381835938e+00 -6.478833198547363281e+00 5.451629757881164551e-01
-3.745186090469360352e+00 -5.402563571929931641e+00 4.331705272197723389e-01
-3.477036714553833008e+00 -5.426321506500244141e+00 3.637023568153381348e-01
-3.470418691635131836e+00 -5.875030040740966797e+00 3.205932676792144775e-01
-4.240432739257812500e+00 -6.559181213378906250e+00 2.213097572326660156e+00
-3.849198818206787109e+00 -6.469359397888183594e+00 2.053746461868286133e+00
-3.574022293090820312e+00 -6.546467304229736328e+00 1.960886955261230469e+00
-3.129047155380249023e+00 -4.463403701782226562e+00 1.384366154670715332e+00
-4.267945289611816406e+00 -6.596686840057373047e+00 1.910959720611572266e+00
-3.887152910232543945e+00 -6.525371074676513672e+00 1.770305037498474121e+00
-3.559311151504516602e+00 -6.506015777587890625e+00 1.657670617103576660e+00
-3.056881427764892578e+00 -4.362082958221435547e+00 1.143861413002014160e+00
-4.281097888946533203e+00 -6.611954212188720703e+00 1.611167788505554199e+00
-3.899700164794921875e+00 -6.536051750183105469e+00 1.482189774513244629e+00
-3.566026926040649414e+00 -6.504803657531738281e+00 1.372195482254028320e+00
-3.044037103652954102e+00 -4.342142105102539062e+00 9.369465708732604980e-01
-4.276695728302001953e+00 -6.600103855133056641e+00 1.310434460639953613e+00
-3.900235176086425781e+00 -6.534356594085693359e+00 1.194390654563903809e+00
-3.544661521911621094e+00 -6.455135822296142578e+00 1.086156845092773438e+00
-3.032817363739013672e+00 -4.324531555175781250e+00 7.357575297355651855e-01
-4.147738456726074219e+00 -6.396193981170654297e+00 9.873908162117004395e-01
-3.698754072189331055e+00 -6.184530258178710938e+00 8.656649589538574219e-01
-3.316642284393310547e+00 -6.032404422760009766e+00 7.612213492393493652e-01
-3.024237632751464844e+00 -4.309097290039062500e+00 5.393842458724975586e-01
-4.269124031066894531e+00 -6.578350543975830078e+00 7.288795113563537598e-01
-3.697721004486083984e+00 -6.177906513214111328e+00 6.008026599884033203e-01
-3.538699626922607422e+00 -6.428313732147216797e+00 5.427289009094238281e-01
-3.722634792327880859e+00 -5.300275325775146484e+00 4.267926216125488281e-01
-3.497215270996093750e+00 -5.384788990020751953e+00 3.623500764369964600e-01
-3.477656602859497070e+00 -5.805637836456298828e+00 3.179650604724884033e-01
-3.140082359313964844e+00 -4.419546127319335938e+00 1.597686529159545898e+00
-4.303272724151611328e+00 -6.567643642425537109e+00 2.224820137023925781e+00
-3.928193092346191406e+00 -6.510876655578613281e+00 2.074539422988891602e+00
-3.604282140731811523e+00 -6.506648540496826172e+00 1.955547332763671875e+00
-3.173212289810180664e+00 -4.467826366424560547e+00 1.391750812530517578e+00
-4.325391292572021484e+00 -6.596376895904541016e+00 1.918522119522094727e+00
-3.959345340728759766e+00 -6.554749011993408203e+00 1.784832477569580078e+00
-3.598217010498046875e+00 -6.482347488403320312e+00 1.657234311103820801e+00
-3.102833032608032227e+00 -4.370349407196044922e+00 1.151000022888183594e+00
-4.344700813293457031e+00 -6.620782852172851562e+00 1.619784712791442871e+00
-3.956498146057128906e+00 -6.539714813232421875e+00 1.488497853279113770e+00
-3.598225116729736328e+00 -6.469051361083984375e+00 1.369285225868225098e+00
-3.094001531600952148e+00 -4.356299400329589844e+00 9.440802335739135742e-01
-4.341478824615478516e+00 -6.610840797424316406e+00 1.317830681800842285e+00
-3.974016189575195312e+00 -6.566082954406738281e+00 1.204624295234680176e+00
-3.594314098358154297e+00 -6.451413154602050781e+00 1.089220881462097168e+00
-3.074209928512573242e+00 -4.326833248138427734e+00 7.393445968627929688e-01
-4.037121295928955078e+00 -6.142716407775878906e+00 9.520671963691711426e-01
-3.671763420104980469e+00 -6.054750442504882812e+00 8.506368994712829590e-01
-3.344878435134887695e+00 -5.996316432952880859e+00 7.592430710792541504e-01
-3.088090658187866211e+00 -4.343158245086669922e+00 5.460093617439270020e-01
-4.284785270690917969e+00 -6.514596462249755859e+00 7.247149944305419922e-01
-3.689025402069091797e+00 -6.078428745269775391e+00 5.933185815811157227e-01
-3.571268320083618164e+00 -6.394290447235107422e+00 5.416962504386901855e-01
-3.749301671981811523e+00 -5.269204139709472656e+00 4.261351227760314941e-01
-3.595145940780639648e+00 -5.919083595275878906e+00 3.253803551197052002e-01
-4.806443214416503906e+00 -6.752397060394287109e+00 2.459925115108489990e-01
-3.215332031250000000e+00 -4.467148303985595703e+00 1.621996760368347168e+00
-4.352005958557128906e+00 -6.553939342498779297e+00 2.229182004928588867e+00
-4.001296043395996094e+00 -6.540967464447021484e+00 2.091910600662231445e+00
-3.644138336181640625e+00 -6.484410285949707031e+00 1.955547332763671875e+00
-3.234530925750732422e+00 -4.495476722717285156e+00 1.406520009040832520e+00
-4.383531570434570312e+00 -6.596418380737304688e+00 1.926321029663085938e+00
-4.017292499542236328e+00 -6.559399127960205078e+00 1.792777180671691895e+00
-3.638881921768188477e+00 -6.461847782135009766e+00 1.657670617103576660e+00
-3.135870218276977539e+00 -4.359959125518798828e+00 1.153309464454650879e+00
-4.411284446716308594e+00 -6.633157730102539062e+00 1.629403710365295410e+00
-4.019646167755126953e+00 -6.552966117858886719e+00 1.497099637985229492e+00
-3.611272335052490234e+00 -6.399750232696533203e+00 1.359281182289123535e+00
-3.151730537414550781e+00 -4.380397796630859375e+00 9.534758329391479492e-01
-4.400541305541992188e+00 -6.611996650695800781e+00 1.323418736457824707e+00
-4.038515090942382812e+00 -6.581149578094482422e+00 1.211911797523498535e+00
-3.624582767486572266e+00 -6.412874221801757812e+00 1.086448669433593750e+00
-3.155668020248413086e+00 -4.384255886077880859e+00 7.524511218070983887e-01
-4.043400764465332031e+00 -6.070782184600830078e+00 9.447456002235412598e-01
-3.709365606307983398e+00 -6.032952308654785156e+00 8.507561683654785156e-01
-3.380139589309692383e+00 -5.973083972930908203e+00 7.589132785797119141e-01
-3.165265321731567383e+00 -4.394353866577148438e+00 5.548767447471618652e-01
-2.976080656051635742e+00 -4.464923858642578125e+00 4.987216591835021973e-01
-3.688650369644165039e+00 -5.994570255279541016e+00 5.873313546180725098e-01
-3.626659154891967773e+00 -6.400890350341796875e+00 5.441303253173828125e-01
-3.768142223358154297e+00 -5.227481842041015625e+00 4.246228337287902832e-01
-3.544194221496582031e+00 -5.313227653503417969e+00 3.604343831539154053e-01
-3.386789560317993164e+00 -5.499701976776123047e+00 3.034630417823791504e-01
-4.812121391296386719e+00 -6.673321723937988281e+00 2.441828548908233643e-01
-3.896427154541015625e+00 -6.863048076629638672e+00 9.641895070672035217e-03
-4.059659957885742188e+00 -6.545807838439941406e+00 2.101385593414306641e+00
-3.669966697692871094e+00 -6.437562465667724609e+00 1.948173642158508301e+00
-3.026352882385253906e+00 -4.494045257568359375e+00 1.317772865295410156e+00
-4.089316368103027344e+00 -6.585923671722412109e+00 1.806850671768188477e+00
-3.674105882644653320e+00 -6.431771278381347656e+00 1.655707240104675293e+00
-4.433833599090576172e+00 -6.579154968261718750e+00 1.622790694236755371e+00
-4.090361595153808594e+00 -6.577356815338134766e+00 1.508377671241760254e+00
-3.678804636001586914e+00 -6.426968574523925781e+00 1.369830846786499023e+00
-3.214510440826416016e+00 -4.410315990447998047e+00 9.642633199691772461e-01
-4.103868961334228516e+00 -6.596509456634521484e+00 1.219354510307312012e+00
-3.667307615280151367e+00 -6.396521091461181641e+00 1.087470054626464844e+00
-3.228607892990112305e+00 -4.428033828735351562e+00 7.633501887321472168e-01
-2.978180885314941406e+00 -4.412530899047851562e+00 6.895165443420410156e-01
-3.760493993759155273e+00 -6.032827854156494141e+00 8.539764285087585449e-01
-3.422663927078247070e+00 -5.962575912475585938e+00 7.602322101593017578e-01
-3.208000898361206055e+00 -4.396546840667724609e+00 5.576286911964416504e-01
-3.665234088897705078e+00 -5.875436305999755859e+00 5.778515338897705078e-01
-3.645988702774047852e+00 -6.343931198120117188e+00 5.411799550056457520e-01
-3.703053712844848633e+00 -5.071295261383056641e+00 4.137738645076751709e-01
-3.557159423828125000e+00 -5.262430191040039062e+00 3.584623336791992188e-01
-3.387673854827880859e+00 -5.426283359527587891e+00 3.005532622337341309e-01
-4.849440097808837891e+00 -6.638826847076416016e+00 2.440048754215240479e-01
-3.303530931472778320e+00 -4.472878456115722656e+00 1.638674616813659668e+00
-3.012010335922241211e+00 -4.417356491088867188e+00 1.514927744865417480e+00
-4.111558437347412109e+00 -6.539559364318847656e+00 2.107439279556274414e+00
-3.721985101699829102e+00 -6.436691284179687500e+00 1.954784512519836426e+00
-3.332630157470703125e+00 -4.513926506042480469e+00 1.424981594085693359e+00
-3.018271446228027344e+00 -4.423221111297607422e+00 1.302411437034606934e+00
-4.146770000457763672e+00 -6.587907314300537109e+00 1.814341425895690918e+00
-3.724754333496093750e+00 -6.428528308868408203e+00 1.660724639892578125e+00
-3.300029039382934570e+00 -4.471402168273925781e+00 1.193411946296691895e+00
-2.991217613220214844e+00 -4.380289077758789062e+00 1.084933161735534668e+00
-4.157339572906494141e+00 -6.594481945037841797e+00 1.518126368522644043e+00
-3.729032516479492188e+00 -6.422983646392822266e+00 1.373832583427429199e+00
-3.292982101440429688e+00 -4.460224628448486328e+00 9.795745611190795898e-01
-2.986453294754028320e+00 -4.370036125183105469e+00 8.819504976272583008e-01
-4.163765907287597656e+00 -6.602121829986572266e+00 1.225091576576232910e+00
-3.722898244857788086e+00 -6.402120590209960938e+00 1.092285037040710449e+00
-3.266308307647705078e+00 -4.422480106353759766e+00 7.658334970474243164e-01
-2.976648330688476562e+00 -4.352426528930664062e+00 6.829656958580017090e-01
-3.795318365097045898e+00 -6.006283283233642578e+00 8.534993529319763184e-01
-3.471187591552734375e+00 -5.962078094482421875e+00 7.628700137138366699e-01
-3.251473188400268555e+00 -4.399179935455322266e+00 5.604825615882873535e-01
-2.937855958938598633e+00 -4.292488574981689453e+00 4.834518432617187500e-01
-3.674584627151489258e+00 -5.810723304748535156e+00 5.736937522888183594e-01
-3.644667625427246094e+00 -6.252513885498046875e+00 5.352790951728820801e-01
-3.686037778854370117e+00 -4.983497142791748047e+00 4.084479808807373047e-01
-3.589382171630859375e+00 -5.240504741668701172e+00 3.584623336791992188e-01
-3.436930656433105469e+00 -5.430716991424560547e+00 3.019612133502960205e-01
-4.907919883728027344e+00 -6.633051395416259766e+00 2.448948472738265991e-01
-3.414229631423950195e+00 -4.563895225524902344e+00 1.679662704467773438e+00
-3.051089763641357422e+00 -4.416206836700439453e+00 1.520925402641296387e+00
-4.179087638854980469e+00 -6.557327270507812500e+00 2.121388912200927734e+00
-3.804953813552856445e+00 -6.487980842590332031e+00 1.977414131164550781e+00
-3.398574352264404297e+00 -4.544621467590332031e+00 1.441227674484252930e+00
-3.050881147384643555e+00 -4.412610530853271484e+00 1.304774761199951172e+00
-4.207020759582519531e+00 -6.593537330627441406e+00 1.822966933250427246e+00
-3.838788509368896484e+00 -6.532603263854980469e+00 1.693664193153381348e+00
-3.373063564300537109e+00 -4.512149810791015625e+00 1.209788680076599121e+00
-3.024727582931518555e+00 -4.371520996093750000e+00 1.087337851524353027e+00
-4.212523460388183594e+00 -6.592007637023925781e+00 1.523478627204895020e+00
-3.856682538986206055e+00 -6.549961566925048828e+00 1.406027555465698242e+00
-3.340338945388793945e+00 -4.466748237609863281e+00 9.854903221130371094e-01
-3.014895915985107422e+00 -4.354062557220458984e+00 8.824436068534851074e-01
-4.220692634582519531e+00 -6.602252006530761719e+00 1.229898214340209961e+00
-3.841011524200439453e+00 -6.512942790985107422e+00 1.115192890167236328e+00
-3.326014041900634766e+00 -4.445974826812744141e+00 7.734215259552001953e-01
-3.002733469009399414e+00 -4.333265304565429688e+00 6.828372478485107422e-01
-3.908143043518066406e+00 -6.101603984832763672e+00 8.704357743263244629e-01
-3.570369720458984375e+00 -6.046796321868896484e+00 7.764985561370849609e-01
-3.336830615997314453e+00 -4.457189083099365234e+00 5.704711675643920898e-01
-3.066272258758544922e+00 -4.421660900115966797e+00 5.001097917556762695e-01
-3.700489521026611328e+00 -5.772965908050537109e+00 5.721969604492187500e-01
-3.665708541870117188e+00 -6.200844287872314453e+00 5.327712893486022949e-01
-3.711161851882934570e+00 -4.953598976135253906e+00 4.078561961650848389e-01
-3.760932207107543945e+00 -5.419341564178466797e+00 3.722666800022125244e-01
-3.471806287765502930e+00 -5.412048339843750000e+00 3.021019995212554932e-01
-3.415278196334838867e+00 -5.770321846008300781e+00 2.517308592796325684e-01
-4.951524734497070312e+00 -6.606811523437500000e+00 2.450431883335113525e-01
-3.487933158874511719e+00 -4.603258132934570312e+00 1.701994180679321289e+00
-3.096336841583251953e+00 -4.423413276672363281e+00 1.529921770095825195e+00
-4.244894027709960938e+00 -6.571269512176513672e+00 2.134285688400268555e+00
-3.869409799575805664e+00 -6.506073474884033203e+00 1.990127205848693848e+00
-3.442196369171142578e+00 -4.544543266296386719e+00 1.447873830795288086e+00
-3.099083662033081055e+00 -4.424049377441406250e+00 1.313755273818969727e+00
-4.283891201019287109e+00 -6.624026298522949219e+00 1.838629364967346191e+00
-3.894786357879638672e+00 -6.535753250122070312e+00 1.700644850730895996e+00
-3.433737039566040039e+00 -4.535019397735595703e+00 1.221546530723571777e+00
-3.084674596786499023e+00 -4.400210857391357422e+00 1.099161148071289062e+00
-4.281173706054687500e+00 -6.609700202941894531e+00 1.533609747886657715e+00
-3.911418914794921875e+00 -6.550657272338867188e+00 1.411302328109741211e+00
-3.415844440460205078e+00 -4.509752750396728516e+00 9.995837211608886719e-01
-3.050052642822265625e+00 -4.347594261169433594e+00 8.849089741706848145e-01
-4.290133476257324219e+00 -6.621000289916992188e+00 1.238271236419677734e+00
-3.920000314712524414e+00 -6.554628849029541016e+00 1.126428008079528809e+00
-3.370577573776245117e+00 -4.448375701904296875e+00 7.774224281311035156e-01
-3.025846242904663086e+00 -4.309889316558837891e+00 6.820665001869201660e-01
-3.959564447402954102e+00 -6.099160671234130859e+00 8.735368251800537109e-01
-3.879555940628051758e+00 -6.479297637939453125e+00 8.350794315338134766e-01
-3.370127439498901367e+00 -4.444557666778564453e+00 5.714904665946960449e-01
-3.096207380294799805e+00 -4.406836986541748047e+00 5.005725622177124023e-01
-3.715210914611816406e+00 -5.718396663665771484e+00 5.690370202064514160e-01
-3.670357704162597656e+00 -6.122637271881103516e+00 5.279768109321594238e-01
-3.708915472030639648e+00 -4.887810230255126953e+00 4.043056368827819824e-01
-3.613797187805175781e+00 -5.139708042144775391e+00 3.545745611190795898e-01
-3.662853717803955078e+00 -5.633503437042236328e+00 3.157123327255249023e-01
-3.430563926696777344e+00 -5.715841293334960938e+00 2.502677440643310547e-01
-5.006474494934082031e+00 -6.595413208007812500e+00 2.457551807165145874e-01
-3.545311212539672852e+00 -4.619817733764648438e+00 1.716127872467041016e+00
-3.121750354766845703e+00 -4.401977062225341797e+00 1.529103755950927734e+00
-4.315784931182861328e+00 -6.591914176940917969e+00 2.149551391601562500e+00
-3.937726736068725586e+00 -6.529415607452392578e+00 2.004620313644409180e+00
-3.471786022186279297e+00 -4.525643825531005859e+00 1.448612213134765625e+00
-3.158225059509277344e+00 -4.450117111206054688e+00 1.327226042747497559e+00
-4.337267875671386719e+00 -6.617164611816406250e+00 1.844077229499816895e+00
-3.958033084869384766e+00 -6.550154209136962891e+00 1.710679411888122559e+00
-3.492436885833740234e+00 -4.554209232330322266e+00 1.232464432716369629e+00
-3.122961521148681641e+00 -4.397175788879394531e+00 1.103168964385986328e+00
-4.352352142333984375e+00 -6.630077838897705078e+00 1.544505238533020020e+00
-3.973438739776611328e+00 -6.562704086303710938e+00 1.419123768806457520e+00
-3.477016687393188477e+00 -4.532462596893310547e+00 1.009327173233032227e+00
-3.105815410614013672e+00 -4.369801998138427734e+00 8.932912945747375488e-01
-4.362672805786132812e+00 -6.643271446228027344e+00 1.247419476509094238e+00
-3.985280752182006836e+00 -6.571902751922607422e+00 1.133577704429626465e+00
-3.452077388763427734e+00 -4.498326778411865234e+00 7.898391485214233398e-01
-3.099368333816528320e+00 -4.357509136199951172e+00 6.925993561744689941e-01
-3.363323211669921875e+00 -5.111781597137451172e+00 7.350637912750244141e-01
-3.943482875823974609e+00 -6.495303153991699219e+00 8.402450680732727051e-01
-3.425812959671020508e+00 -4.460877418518066406e+00 5.762808918952941895e-01
-3.128385543823242188e+00 -4.395056724548339844e+00 5.014054179191589355e-01
-3.722826480865478516e+00 -5.653877258300781250e+00 5.648791790008544922e-01
-3.676258087158203125e+00 -6.048017024993896484e+00 5.234774351119995117e-01
-3.721203565597534180e+00 -4.842016696929931641e+00 4.023988544940948486e-01
-3.662643671035766602e+00 -5.141833305358886719e+00 3.562649190425872803e-01
-3.863338947296142578e+00 -5.862817764282226562e+00 3.298858106136322021e-01
-3.438557386398315430e+00 -5.650294780731201172e+00 2.483169138431549072e-01
-5.160775184631347656e+00 -6.712756633758544922e+00 2.513027787208557129e-01
-3.597136497497558594e+00 -4.628272056579589844e+00 1.727434873580932617e+00
-3.226170063018798828e+00 -4.490569114685058594e+00 1.566724777221679688e+00
-4.379086017608642578e+00 -6.599875450134277344e+00 2.160868644714355469e+00
-3.999915838241577148e+00 -6.541435718536376953e+00 2.015808105468750000e+00
-3.576793432235717773e+00 -4.603755474090576172e+00 1.480612158775329590e+00
-3.223474264144897461e+00 -4.483513355255126953e+00 1.343060016632080078e+00
-4.391799449920654297e+00 -6.611519336700439453e+00 1.849979043006896973e+00
-4.026190280914306641e+00 -6.571513175964355469e+00 1.722677230834960938e+00
-3.549101352691650391e+00 -4.569758415222167969e+00 1.242542505264282227e+00
-3.198519229888916016e+00 -4.445528507232666016e+00 1.120202541351318359e+00
-4.416330337524414062e+00 -6.638388633728027344e+00 1.552724719047546387e+00
-4.038324832916259766e+00 -6.578424453735351562e+00 1.427854537963867188e+00
-3.528928518295288086e+00 -4.542147636413574219e+00 1.016286849975585938e+00
-3.144096851348876953e+00 -4.366672515869140625e+00 8.965784311294555664e-01
-4.409374237060546875e+00 -6.625424861907958984e+00 1.249125123023986816e+00
-4.030193328857421875e+00 -6.554910659790039062e+00 1.134890913963317871e+00
-3.500278472900390625e+00 -4.503649234771728516e+00 7.945298552513122559e-01
-3.159093379974365234e+00 -4.384272575378417969e+00 6.999210119247436523e-01
-3.047065734863281250e+00 -4.569800376892089844e+00 6.598041057586669922e-01
-3.041243553161621094e+00 -4.940632343292236328e+00 6.415318250656127930e-01
-3.475106239318847656e+00 -4.468041419982910156e+00 5.799501538276672363e-01
-3.183830738067626953e+00 -4.415352821350097656e+00 5.059401392936706543e-01
-3.729238033294677734e+00 -5.588652133941650391e+00 5.606382489204406738e-01
-3.674057245254516602e+00 -5.961671352386474609e+00 5.179454088211059570e-01
-3.844001770019531250e+00 -4.938782215118408203e+00 4.123930633068084717e-01
-3.618173599243164062e+00 -5.014011859893798828e+00 3.489401340484619141e-01
-3.804379940032958984e+00 -5.696952342987060547e+00 3.218604326248168945e-01
-5.154582023620605469e+00 -6.620234966278076172e+00 2.490184605121612549e-01
-3.672335386276245117e+00 -4.665658473968505859e+00 1.749766349792480469e+00
-3.288197994232177734e+00 -4.518142223358154297e+00 1.583354353904724121e+00
-2.997831106185913086e+00 -4.458511352539062500e+00 1.465758681297302246e+00
-4.065966606140136719e+00 -6.558691501617431641e+00 2.028775453567504883e+00
-3.679890632629394531e+00 -4.676936626434326172e+00 1.511381268501281738e+00
-3.273805618286132812e+00 -4.495067596435546875e+00 1.352513194084167480e+00
-3.001444816589355469e+00 -4.458841800689697266e+00 1.252764821052551270e+00
-4.092183589935302734e+00 -6.588136196136474609e+00 1.733584403991699219e+00
-3.603065252304077148e+00 -4.580940723419189453e+00 1.251570820808410645e+00
-3.263244628906250000e+00 -4.477282047271728516e+00 1.133228063583374023e+00
-4.450943946838378906e+00 -6.602213382720947266e+00 1.550622105598449707e+00
-4.108747959136962891e+00 -6.601943016052246094e+00 1.438404321670532227e+00
-3.612753391265869141e+00 -4.591609001159667969e+00 1.032294154167175293e+00
-3.196406841278076172e+00 -4.382363796234130859e+00 9.038102030754089355e-01
-2.969575166702270508e+00 -4.403197765350341797e+00 8.335770368576049805e-01
-4.104353427886962891e+00 -6.584629535675048828e+00 1.144375085830688477e+00
-3.575627803802490234e+00 -4.542792797088623047e+00 8.052909970283508301e-01
-3.199383020401000977e+00 -4.383229255676269531e+00 7.028753161430358887e-01
-2.955537319183349609e+00 -4.374143600463867188e+00 6.341609954833984375e-01
-3.043086051940917969e+00 -4.876344680786132812e+00 6.355968117713928223e-01
-3.557855606079101562e+00 -4.516968250274658203e+00 5.891233682632446289e-01
-3.216148614883422852e+00 -4.402970314025878906e+00 5.067729949951171875e-01
-3.742805480957031250e+00 -5.535120964050292969e+00 5.575614571571350098e-01
-3.694715499877929688e+00 -5.913641929626464844e+00 5.157325863838195801e-01
-3.857555150985717773e+00 -4.893944263458251953e+00 4.106177985668182373e-01
-3.624714136123657227e+00 -4.958669662475585938e+00 3.466300368309020996e-01
-3.843183040618896484e+00 -5.679292678833007812e+00 3.221889436244964600e-01
-3.414367675781250000e+00 -5.458563804626464844e+00 2.417141348123550415e-01
-5.241524696350097656e+00 -6.647350788116455078e+00 2.512434422969818115e-01
-3.781010866165161133e+00 -4.743549823760986328e+00 1.787645101547241211e+00
-3.335270166397094727e+00 -4.524211883544921875e+00 1.592623472213745117e+00
-3.016440391540527344e+00 -4.427276611328125000e+00 1.461547493934631348e+00
-4.123115539550781250e+00 -6.560641288757324219e+00 2.037166118621826172e+00
-3.758045673370361328e+00 -4.716426849365234375e+00 1.531565785408020020e+00
-3.329014301300048828e+00 -4.512427330017089844e+00 1.363857150077819824e+00
-3.005698204040527344e+00 -4.406550407409667969e+00 1.243231296539306641e+00
-4.165291309356689453e+00 -6.614930152893066406e+00 1.747327446937561035e+00
-3.681055068969726562e+00 -4.621456623077392578e+00 1.268787503242492676e+00
-3.303457260131835938e+00 -4.474514961242675781e+00 1.137636780738830566e+00
-2.990925312042236328e+00 -4.378322601318359375e+00 1.032601237297058105e+00
-4.172790527343750000e+00 -6.614031791687011719e+00 1.446589469909667969e+00
-3.698543310165405273e+00 -4.641750335693359375e+00 1.048649430274963379e+00
-3.278334617614746094e+00 -4.437244415283203125e+00 9.192600250244140625e-01
-2.982602119445800781e+00 -4.364502906799316406e+00 8.297006487846374512e-01
-4.168458938598632812e+00 -6.596956729888916016e+00 1.150941014289855957e+00
-3.674428939819335938e+00 -4.609835147857666016e+00 8.211567401885986328e-01
-3.235651254653930664e+00 -4.376275062561035156e+00 7.049305438995361328e-01
-2.972785472869873047e+00 -4.341999053955078125e+00 6.321334242820739746e-01
-3.050631284713745117e+00 -4.822301864624023438e+00 6.309806108474731445e-01
-3.712671518325805664e+00 -4.654479026794433594e+00 6.100178956985473633e-01
-3.270939350128173828e+00 -4.420773983001708984e+00 5.111225843429565430e-01
-3.595326185226440430e+00 -5.247341156005859375e+00 5.307852029800415039e-01
-3.711188316345214844e+00 -5.859687805175781250e+00 5.130034685134887695e-01
-3.732508897781372070e+00 -4.675999164581298828e+00 3.942456841468811035e-01
-3.653289079666137695e+00 -4.933928012847900391e+00 3.464609980583190918e-01
-3.809606790542602539e+00 -5.555921077728271484e+00 3.165101706981658936e-01
-3.463315010070800781e+00 -5.461985111236572266e+00 2.428020834922790527e-01
-5.336476325988769531e+00 -6.683019161224365234e+00 2.538244128227233887e-01
-4.924942493438720703e+00 -6.646500110626220703e+00 1.675024628639221191e-01
-3.838964223861694336e+00 -4.756087779998779297e+00 1.801213502883911133e+00
-3.385993480682373047e+00 -4.534498214721679688e+00 1.603528022766113281e+00
-3.056154727935791016e+00 -4.426945209503173828e+00 1.467601060867309570e+00
-4.192912578582763672e+00 -6.581712722778320312e+00 2.051659345626831055e+00
-3.820997953414916992e+00 -4.735520362854003906e+00 1.545350432395935059e+00
-3.389792680740356445e+00 -4.536282539367675781e+00 1.377327799797058105e+00
-3.038217067718505859e+00 -4.396036624908447266e+00 1.245501279830932617e+00
-4.222603797912597656e+00 -6.615572452545166016e+00 1.754308104515075684e+00
-3.750468730926513672e+00 -4.649770736694335938e+00 1.282854795455932617e+00
-3.367814064025878906e+00 -4.503590583801269531e+00 1.150261640548706055e+00
-3.019409656524658203e+00 -4.362309455871582031e+00 1.033174633979797363e+00
-4.227068901062011719e+00 -6.609842300415039062e+00 1.451318740844726562e+00
-3.807962417602539062e+00 -4.719364643096923828e+00 1.071442365646362305e+00
-3.317910432815551758e+00 -4.433629989624023438e+00 9.227115511894226074e-01
-3.007638692855834961e+00 -4.343683242797851562e+00 8.292354345321655273e-01
-4.225399494171142578e+00 -6.597080230712890625e+00 1.155464172363281250e+00
-3.828306198120117188e+00 -4.742883682250976562e+00 8.490253090858459473e-01
-3.287410259246826172e+00 -4.389678001403808594e+00 7.103253602981567383e-01
-3.024271965026855469e+00 -4.359571456909179688e+00 6.373813152313232422e-01
-3.074797868728637695e+00 -4.795125961303710938e+00 6.298815608024597168e-01
-3.760538816452026367e+00 -4.655601024627685547e+00 6.131775379180908203e-01
-3.338011503219604492e+00 -4.454004764556884766e+00 5.173230767250061035e-01
-3.133035182952880859e+00 -4.512992382049560547e+00 4.584394395351409912e-01
-3.727138757705688477e+00 -5.805754661560058594e+00 5.102743506431579590e-01
-3.755484580993652344e+00 -4.646024703979492188e+00 3.936539292335510254e-01
-3.667320251464843750e+00 -4.889853477478027344e+00 3.449396789073944092e-01
-3.798030853271484375e+00 -5.466813087463378906e+00 3.127556145191192627e-01
-3.484877586364746094e+00 -5.422137737274169922e+00 2.419767528772354126e-01
-5.363554954528808594e+00 -6.633049488067626953e+00 2.531717419624328613e-01
-4.956029891967773438e+00 -6.603362083435058594e+00 1.671785563230514526e-01
-3.895391702651977539e+00 -4.765863895416259766e+00 1.813933968544006348e+00
-3.419556379318237305e+00 -4.521310329437255859e+00 1.606254220008850098e+00
-3.104272842407226562e+00 -4.438150405883789062e+00 1.477602601051330566e+00
-4.248957157135009766e+00 -6.580235481262207031e+00 2.059287071228027344e+00
-3.874512672424316406e+00 -4.742008209228515625e+00 1.555196642875671387e+00
-3.442192077636718750e+00 -4.547938346862792969e+00 1.387253761291503906e+00
-3.087478160858154297e+00 -4.409222126007080078e+00 1.254580855369567871e+00
-4.287501335144042969e+00 -6.627230167388916016e+00 1.764342546463012695e+00
-3.877886056900024414e+00 -4.747828006744384766e+00 1.316448450088500977e+00
-3.425552129745483398e+00 -4.522671699523925781e+00 1.160481691360473633e+00
-3.070916652679443359e+00 -4.379061222076416016e+00 1.041585326194763184e+00
-4.293754100799560547e+00 -6.624212741851806641e+00 1.460231542587280273e+00
-3.849932432174682617e+00 -4.711924552917480469e+00 1.075096249580383301e+00
-3.408807039260864258e+00 -4.497301101684570312e+00 9.402979016304016113e-01
-3.057496309280395508e+00 -4.358305454254150391e+00 8.355927467346191406e-01
-4.296503543853759766e+00 -6.618327140808105469e+00 1.163781166076660156e+00
-3.874259710311889648e+00 -4.740009784698486328e+00 8.527503013610839844e-01
-3.367023706436157227e+00 -4.438955783843994141e+00 7.216289043426513672e-01
-3.073801279067993164e+00 -4.373425006866455078e+00 6.421521306037902832e-01
-3.106328964233398438e+00 -4.779502391815185547e+00 6.303212046623229980e-01
-3.805409908294677734e+00 -4.652459621429443359e+00 6.158276200294494629e-01
-3.396582841873168945e+00 -4.474680423736572266e+00 5.221353769302368164e-01
-3.164107084274291992e+00 -4.498573780059814453e+00 4.589383602142333984e-01
-3.776833295822143555e+00 -5.804509162902832031e+00 5.121920704841613770e-01
-3.794033527374267578e+00 -4.635248661041259766e+00 3.947059214115142822e-01
-3.693027257919311523e+00 -4.861693859100341797e+00 3.445452749729156494e-01
-3.851051568984985352e+00 -5.471178531646728516e+00 3.143512904644012451e-01
-3.538262844085693359e+00 -5.431633472442626953e+00 2.433648407459259033e-01
-5.269271373748779297e+00 -6.435284614562988281e+00 2.468528151512145996e-01
-5.052118301391601562e+00 -6.646054267883300781e+00 1.690410524606704712e-01
-3.927007675170898438e+00 -4.744828701019287109e+00 1.815064668655395508e+00
-3.138139963150024414e+00 -4.428465366363525391e+00 1.480761051177978516e+00
-4.330032348632812500e+00 -6.616352558135986328e+00 2.078865528106689453e+00
-3.909714460372924805e+00 -4.725613117218017578e+00 1.557658076286315918e+00
-3.514368772506713867e+00 -4.584568977355957031e+00 1.404978394508361816e+00
-3.134196996688842773e+00 -4.417995929718017578e+00 1.262525558471679688e+00
-4.352700233459472656e+00 -6.638339519500732422e+00 1.774377346038818359e+00
-3.889497518539428711e+00 -4.702848434448242188e+00 1.310569524765014648e+00
-3.491998672485351562e+00 -4.552094936370849609e+00 1.173507332801818848e+00
-3.117057085037231445e+00 -4.387341499328613281e+00 1.048084497451782227e+00
-4.356454372406005859e+00 -6.631437301635742188e+00 1.467688918113708496e+00
-3.865589380264282227e+00 -4.672279834747314453e+00 1.071442365646362305e+00
-3.466971397399902344e+00 -4.516204357147216797e+00 9.486802220344543457e-01
-3.101350069046020508e+00 -4.363620281219482422e+00 8.402443528175354004e-01
-4.362044811248779297e+00 -6.629856586456298828e+00 1.170493006706237793e+00
-3.875484943389892578e+00 -4.682576179504394531e+00 8.466799259185791016e-01
-3.453405380249023438e+00 -4.495283603668212891e+00 7.342169284820556641e-01
-3.097698926925659180e+00 -4.350438117980957031e+00 6.415557861328125000e-01
-3.117554187774658203e+00 -4.732960700988769531e+00 6.266942024230957031e-01
-3.835788726806640625e+00 -4.631320476531982422e+00 6.161333322525024414e-01
-3.458566904067993164e+00 -4.498750686645507812e+00 5.274103879928588867e-01
-3.140181303024291992e+00 -4.406844615936279297e+00 4.515374898910522461e-01
-3.772848844528198242e+00 -5.721282482147216797e+00 5.068813562393188477e-01
-3.861881732940673828e+00 -4.659513473510742188e+00 3.987825214862823486e-01
-3.780015468597412109e+00 -4.913326263427734375e+00 3.498416244983673096e-01
-3.698963403701782227e+00 -5.187191486358642578e+00 2.993330061435699463e-01
-5.297812938690185547e+00 -6.389751434326171875e+00 2.463485151529312134e-01
-5.139156341552734375e+00 -6.675137519836425781e+00 1.705796271562576294e-01
-3.970833778381347656e+00 -4.738287925720214844e+00 1.821848869323730469e+00
-3.554398298263549805e+00 -4.581631660461425781e+00 1.643057346343994141e+00
-4.380704402923583984e+00 -6.604973316192626953e+00 2.083696603775024414e+00
-3.956064462661743164e+00 -4.722338199615478516e+00 1.564550399780273438e+00
-3.602019786834716797e+00 -4.639671325683593750e+00 1.428611278533935547e+00
-3.206146955490112305e+00 -4.461158275604248047e+00 1.280457854270935059e+00
-4.412794589996337891e+00 -6.640768051147460938e+00 1.782230257987976074e+00
-3.921419143676757812e+00 -4.682641983032226562e+00 1.311619281768798828e+00
-3.540901422500610352e+00 -4.557660579681396484e+00 1.180521130561828613e+00
-3.181189298629760742e+00 -4.419916629791259766e+00 1.060509324073791504e+00
-4.421584129333496094e+00 -6.641414642333984375e+00 1.475874185562133789e+00
-3.913788795471191406e+00 -4.671873569488525391e+00 1.076836109161376953e+00
-3.518229246139526367e+00 -4.525217056274414062e+00 9.550902843475341797e-01
-3.140765666961669922e+00 -4.362146377563476562e+00 8.436556458473205566e-01
-4.413619518280029297e+00 -6.619429111480712891e+00 1.173411250114440918e+00
-3.939132928848266602e+00 -4.700460433959960938e+00 8.542678952217102051e-01
-3.505891323089599609e+00 -4.506100654602050781e+00 7.394834160804748535e-01
-3.155118703842163086e+00 -4.374026298522949219e+00 6.478770971298217773e-01
-2.962777137756347656e+00 -4.438457489013671875e+00 5.900949835777282715e-01
-3.885867595672607422e+00 -4.633613586425781250e+00 6.195988059043884277e-01
-3.511185407638549805e+00 -4.509656429290771484e+00 5.312047004699707031e-01
-3.179410934448242188e+00 -4.404461860656738281e+00 4.532837569713592529e-01
-3.733077287673950195e+00 -5.586087703704833984e+00 4.969237148761749268e-01
-3.911567449569702148e+00 -4.660953521728515625e+00 4.009523391723632812e-01
-3.687363862991333008e+00 -4.732525825500488281e+00 3.385728001594543457e-01
-3.745345354080200195e+00 -5.184640407562255859e+00 3.005063235759735107e-01
-5.347845077514648438e+00 -6.370138168334960938e+00 2.468528151512145996e-01
-5.233501911163330078e+00 -6.712073802947998047e+00 1.723408997058868408e-01
-4.017210006713867188e+00 -4.734313488006591797e+00 1.829763889312744141e+00
-3.650799512863159180e+00 -4.646739482879638672e+00 1.674408197402954102e+00
-3.269415140151977539e+00 -4.495734214782714844e+00 1.516556143760681152e+00
-3.007136821746826172e+00 -4.474143028259277344e+00 1.417269706726074219e+00
-3.993743181228637695e+00 -4.708323001861572266e+00 1.567996621131896973e+00
-3.674862623214721680e+00 -4.674007415771484375e+00 1.446099758148193359e+00
-3.246070384979248047e+00 -4.458723068237304688e+00 1.285451650619506836e+00
-3.006765842437744141e+00 -4.465169429779052734e+00 1.203278183937072754e+00
-3.975370168685913086e+00 -4.688321113586425781e+00 1.320017695426940918e+00
-3.607571601867675781e+00 -4.585125923156738281e+00 1.193346381187438965e+00
-3.236006498336791992e+00 -4.438384532928466797e+00 1.069684624671936035e+00
-2.981800556182861328e+00 -4.419764995574951172e+00 9.862200617790222168e-01
-3.946203231811523438e+00 -4.652276992797851562e+00 1.077880024909973145e+00
-3.588643789291381836e+00 -4.557794570922851562e+00 9.665953516960144043e-01
-3.198908090591430664e+00 -4.385893821716308594e+00 8.520286083221435547e-01
-2.969804286956787109e+00 -4.395361900329589844e+00 7.823714613914489746e-01
-3.974949121475219727e+00 -4.684508800506591797e+00 8.557854890823364258e-01
-3.597306013107299805e+00 -4.565516471862792969e+00 7.528421282768249512e-01
-3.204157114028930664e+00 -4.385047435760498047e+00 6.524093747138977051e-01
-2.928696870803833008e+00 -4.329633712768554688e+00 5.780050754547119141e-01
-3.905855178833007812e+00 -4.599825382232666016e+00 6.182737946510314941e-01
-3.598591804504394531e+00 -4.563870429992675781e+00 5.401815176010131836e-01
-3.255198478698730469e+00 -4.451637268066406250e+00 4.601857066154479980e-01
-3.753861904144287109e+00 -5.543258666992187500e+00 4.951534569263458252e-01
-3.948492288589477539e+00 -4.646749496459960938e+00 4.018070697784423828e-01
-3.715714216232299805e+00 -4.709027767181396484e+00 3.385164439678192139e-01
-3.768238782882690430e+00 -5.149470329284667969e+00 2.998023331165313721e-01
-5.265913486480712891e+00 -6.668849945068359375e+00 1.720574796199798584e-01
-4.673445224761962891e+00 -6.888235569000244141e+00 1.016968209296464920e-02
-4.068686485290527344e+00 -4.735767841339111328e+00 1.839940190315246582e+00
-3.760710716247558594e+00 -4.726644039154052734e+00 1.711484074592590332e+00
-3.337564229965209961e+00 -4.530737876892089844e+00 1.535243272781372070e+00
-3.017112016677856445e+00 -4.430027961730957031e+00 1.409133195877075195e+00
-4.051606178283691406e+00 -4.717552185058593750e+00 1.579319596290588379e+00
-3.744628906250000000e+00 -4.703061103820800781e+00 1.462170124053955078e+00
-3.314407348632812500e+00 -4.494372367858886719e+00 1.301568031311035156e+00
-3.016505241394042969e+00 -4.420839786529541016e+00 1.196297526359558105e+00
-4.033358573913574219e+00 -4.697964668273925781e+00 1.329675793647766113e+00
-3.708289146423339844e+00 -4.654085636138916016e+00 1.217193245887756348e+00
-3.278923273086547852e+00 -4.439763545989990234e+00 1.074845671653747559e+00
-2.999429702758789062e+00 -4.387585639953613281e+00 9.831278920173645020e-01
-4.005471229553222656e+00 -4.663834571838378906e+00 1.086231708526611328e+00
-3.683572292327880859e+00 -4.619755268096923828e+00 9.845104813575744629e-01
-3.258633136749267578e+00 -4.410678863525390625e+00 8.607116341590881348e-01
-2.974362373352050781e+00 -4.344404220581054688e+00 7.765349745750427246e-01
-4.028144359588623047e+00 -4.688578605651855469e+00 8.610280752182006836e-01
-3.700094938278198242e+00 -4.637155532836914062e+00 7.683845162391662598e-01
-3.255811452865600586e+00 -4.398822307586669922e+00 6.574187278747558594e-01
-2.950150728225708008e+00 -4.304203510284423828e+00 5.770159363746643066e-01
-3.977457523345947266e+00 -4.626313209533691406e+00 6.251026988029479980e-01
-3.894307613372802734e+00 -4.877059936523437500e+00 5.800681114196777344e-01
-3.293128252029418945e+00 -4.445993900299072266e+00 4.616824984550476074e-01
-3.781033039093017578e+00 -5.510253429412841797e+00 4.942683279514312744e-01
-4.015976905822753906e+00 -4.667819499969482422e+00 4.057521820068359375e-01
-3.754510402679443359e+00 -4.698619365692138672e+00 3.394179642200469971e-01
-3.793816089630126953e+00 -5.118227005004882812e+00 2.993330061435699463e-01
-3.601465702056884766e+00 -5.242676258087158203e+00 2.387879043817520142e-01
-5.319221496582031250e+00 -6.652029991149902344e+00 1.724623590707778931e-01
-4.962417125701904297e+00 -6.687461376190185547e+00 8.866244554519653320e-02
-4.139217376708984375e+00 -4.758479118347167969e+00 1.858596801757812500e+00
-3.801111221313476562e+00 -4.717714786529541016e+00 1.716663718223571777e+00
-3.377994298934936523e+00 -4.527184486389160156e+00 1.541033744812011719e+00
-3.055223464965820312e+00 -4.427351951599121094e+00 1.414218544960021973e+00
-4.111003398895263672e+00 -4.727709770202636719e+00 1.591134905815124512e+00
-3.789882898330688477e+00 -4.700419425964355469e+00 1.468551039695739746e+00
-3.372228860855102539e+00 -4.514523983001708984e+00 1.313371539115905762e+00
-3.024704694747924805e+00 -4.374954700469970703e+00 1.188880681991577148e+00
-4.090331554412841797e+00 -4.705595493316650391e+00 1.338914155960083008e+00
-3.773688793182373047e+00 -4.676992416381835938e+00 1.229216814041137695e+00
-3.363135814666748047e+00 -4.495800971984863281e+00 1.093387365341186523e+00
-3.020135879516601562e+00 -4.360207080841064453e+00 9.811270236968994141e-01
-4.090229034423828125e+00 -4.703819274902343750e+00 1.101369023323059082e+00
-3.763282299041748047e+00 -4.660765171051025391e+00 9.981523156166076660e-01
-3.308719396591186523e+00 -4.421448707580566406e+00 8.667588233947753906e-01
-2.999835491180419922e+00 -4.324446201324462891e+00 7.762431502342224121e-01
-4.088038921356201172e+00 -4.699643611907958984e+00 8.676503896713256836e-01
-3.839422702789306641e+00 -4.751669406890869141e+00 7.912485599517822266e-01
-3.326216697692871094e+00 -4.436753749847412109e+00 6.661254763603210449e-01
-2.989545106887817383e+00 -4.304797649383544922e+00 5.795437693595886230e-01
-4.017525672912597656e+00 -4.615326881408691406e+00 6.269373893737792969e-01
-3.794564723968505859e+00 -4.692800998687744141e+00 5.609114766120910645e-01
-3.319748401641845703e+00 -4.424906730651855469e+00 4.615993499755859375e-01
-3.781753540039062500e+00 -5.439457893371582031e+00 4.899902045726776123e-01
-4.057651042938232422e+00 -4.658138275146484375e+00 4.070672094821929932e-01
-3.784526109695434570e+00 -4.677046298980712891e+00 3.395306468009948730e-01
-3.830547094345092773e+00 -5.102041244506835938e+00 2.997553944587707520e-01
-3.589609384536743164e+00 -5.157324790954589844e+00 2.358991801738739014e-01
-5.395800590515136719e+00 -6.663555622100830078e+00 1.736162900924682617e-01
-4.985934734344482422e+00 -6.633706569671630859e+00 8.835371583700180054e-02
-4.639882087707519531e+00 -6.661330223083496094e+00 9.918005205690860748e-03
-4.200669765472412109e+00 -4.769704341888427734e+00 1.873013257980346680e+00
-3.876211881637573242e+00 -4.750959396362304688e+00 1.737382531166076660e+00
-3.332417726516723633e+00 -4.409394741058349609e+00 1.507870554924011230e+00
-3.108932018280029297e+00 -4.446567058563232422e+00 1.426423192024230957e+00
-4.171317100524902344e+00 -4.738042831420898438e+00 1.603196501731872559e+00
-3.856753587722778320e+00 -4.723742485046386719e+00 1.483203530311584473e+00
-3.443348407745361328e+00 -4.551219940185546875e+00 1.330168962478637695e+00
-3.072208404541015625e+00 -4.385888099670410156e+00 1.196952104568481445e+00
-4.161113262176513672e+00 -4.728116035461425781e+00 1.352561473846435547e+00
