-1.898533701896667480e+00 -5.782393932342529297e+00 1.014095067977905273e+00
-1.707972288131713867e+00 -5.930396080017089844e+00 9.686301350593566895e-01
-1.462755799293518066e+00 -5.863931655883789062e+00 8.913664817810058594e-01
-2.172010183334350586e+00 -5.879096508026123047e+00 8.730308413505554199e-01
-1.896857738494873047e+00 -5.770492553710937500e+00 7.867528200149536133e-01
-1.717331409454345703e+00 -5.943385601043701172e+00 7.431741952896118164e-01
-1.453421115875244141e+00 -5.813547134399414062e+00 6.626340746879577637e-01
-2.166367769241333008e+00 -5.857532978057861328e+00 6.398817896842956543e-01
-1.882860064506530762e+00 -5.721177101135253906e+00 5.598009228706359863e-01
-1.694195628166198730e+00 -5.855651378631591797e+00 5.086656808853149414e-01
-1.459896326065063477e+00 -5.826479911804199219e+00 4.442587792873382568e-01
-2.178511619567871094e+00 -5.884054183959960938e+00 4.134450852870941162e-01
-1.914968848228454590e+00 -5.811908721923828125e+00 3.453341126441955566e-01
-1.718326330184936523e+00 -5.931298732757568359e+00 2.901343107223510742e-01
-1.726332545280456543e+00 -6.874563217163085938e+00 2.660993933677673340e-01
-2.252053022384643555e+00 -6.079427242279052734e+00 1.924152821302413940e-01
-1.968201518058776855e+00 -5.966461181640625000e+00 1.272160410881042480e-01
-2.260093450546264648e+00 -6.003931045532226562e+00 1.890539169311523438e+00
-1.941743493080139160e+00 -5.814006805419921875e+00 1.736837267875671387e+00
-1.746646046638488770e+00 -5.958343029022216797e+00 1.693952679634094238e+00
-1.494138598442077637e+00 -5.896933078765869141e+00 1.599323034286499023e+00
-2.240311622619628906e+00 -5.954532146453857422e+00 1.615750193595886230e+00
-1.938724994659423828e+00 -5.798231601715087891e+00 1.486984729766845703e+00
-1.750727057456970215e+00 -5.960701465606689453e+00 1.447977423667907715e+00
-1.492934584617614746e+00 -5.870659351348876953e+00 1.354015111923217773e+00
-2.236149549484252930e+00 -5.946618556976318359e+00 1.364319205284118652e+00
-1.935353159904479980e+00 -5.781436443328857422e+00 1.247051954269409180e+00
-1.739584207534790039e+00 -5.907506942749023438e+00 1.199285387992858887e+00
-1.496044039726257324e+00 -5.861467361450195312e+00 1.119001507759094238e+00
-2.213064670562744141e+00 -5.882112503051757812e+00 1.110416531562805176e+00
-1.933351278305053711e+00 -5.768765449523925781e+00 1.013766407966613770e+00
-1.751309037208557129e+00 -5.943495273590087891e+00 9.725065231323242188e-01
-1.505087137222290039e+00 -5.879764556884765625e+00 8.951601386070251465e-01
-2.219208717346191406e+00 -5.895320415496826172e+00 8.774456977844238281e-01
-1.939484715461730957e+00 -5.780369281768798828e+00 7.897071242332458496e-01
-1.752078294754028320e+00 -5.927023410797119141e+00 7.424585819244384766e-01
-1.495486617088317871e+00 -5.829551219940185547e+00 6.654917001724243164e-01
-2.220860004425048828e+00 -5.893466949462890625e+00 6.452837586402893066e-01
-1.927758097648620605e+00 -5.738776683807373047e+00 5.626698136329650879e-01
-1.716800212860107422e+00 -5.800234317779541016e+00 5.047573447227478027e-01
-1.500834107398986816e+00 -5.837695598602294922e+00 4.458077549934387207e-01
-2.220209598541259766e+00 -5.885514736175537109e+00 4.144971370697021484e-01
-1.957595825195312500e+00 -5.820868492126464844e+00 3.465736806392669678e-01
-1.765189886093139648e+00 -5.956079483032226562e+00 2.918708026409149170e-01
-1.761749744415283203e+00 -6.837713718414306641e+00 2.650864720344543457e-01
-2.298137187957763672e+00 -6.088873386383056641e+00 1.931569129228591919e-01
-2.019449234008789062e+00 -5.997858524322509766e+00 1.281472891569137573e-01
-1.800614714622497559e+00 -6.063953399658203125e+00 6.734853982925415039e-02
-2.298950910568237305e+00 -5.995324134826660156e+00 1.892235279083251953e+00
-2.002521038055419922e+00 -5.875748157501220703e+00 1.758919119834899902e+00
-1.797303080558776855e+00 -5.994642734527587891e+00 1.707375884056091309e+00
-1.536618828773498535e+00 -5.911991119384765625e+00 1.605933904647827148e+00
-2.219226598739624023e+00 -5.790437221527099609e+00 1.574888825416564941e+00
-1.984620332717895508e+00 -5.816574096679687500e+00 1.494783639907836914e+00
-1.797074675559997559e+00 -5.982492446899414062e+00 1.455922126770019531e+00
-1.534839987754821777e+00 -5.884052276611328125e+00 1.359250664710998535e+00
-2.279939889907836914e+00 -5.951959609985351562e+00 1.368728399276733398e+00
-1.984725475311279297e+00 -5.810245037078857422e+00 1.255869269371032715e+00
-1.785139560699462891e+00 -5.927737712860107422e+00 1.205593347549438477e+00
-1.535467505455017090e+00 -5.865494728088378906e+00 1.121547937393188477e+00
-2.264621257781982422e+00 -5.908881664276123047e+00 1.118072152137756348e+00
-1.980521082878112793e+00 -5.791327476501464844e+00 1.019847750663757324e+00
-1.796010613441467285e+00 -5.960068225860595703e+00 9.770030975341796875e-01
-1.550682187080383301e+00 -5.906779766082763672e+00 9.007047414779663086e-01
-2.265269041061401367e+00 -5.907486915588378906e+00 8.813087344169616699e-01
-1.985195279121398926e+00 -5.798384189605712891e+00 7.938175201416015625e-01
-1.786976337432861328e+00 -5.911409378051757812e+00 7.418622374534606934e-01
-1.537550091743469238e+00 -5.844296455383300781e+00 6.682394146919250488e-01
-2.249849796295166016e+00 -5.861155033111572266e+00 6.432452797889709473e-01
-1.967777013778686523e+00 -5.740968704223632812e+00 5.640580058097839355e-01
-1.862060189247131348e+00 -6.152036666870117188e+00 5.363566875457763672e-01
-1.536879539489746094e+00 -5.829340934753417969e+00 4.458815157413482666e-01
-2.282766103744506836e+00 -5.940707206726074219e+00 4.193627238273620605e-01
-2.006237268447875977e+00 -5.846521854400634766e+00 3.488274514675140381e-01
-1.804889321327209473e+00 -5.955651760101318359e+00 2.923870682716369629e-01
-1.812606096267700195e+00 -6.860589981079101562e+00 2.663995027542114258e-01
-2.344063282012939453e+00 -6.097049236297607422e+00 1.938689202070236206e-01
-2.068882226943969727e+00 -6.022231101989746094e+00 1.289368271827697754e-01
-1.808737158775329590e+00 -5.957109928131103516e+00 6.628391146659851074e-02
-2.263816118240356445e+00 -5.797043800354003906e+00 1.834003925323486328e+00
-2.058125495910644531e+00 -5.919693946838378906e+00 1.775821447372436523e+00
-1.835748076438903809e+00 -5.989036560058593750e+00 1.708955168724060059e+00
-1.576351642608642578e+00 -5.915534496307373047e+00 1.609493613243103027e+00
-2.030174493789672852e+00 -5.832735061645507812e+00 1.502109885215759277e+00
-1.838894724845886230e+00 -5.988110542297363281e+00 1.460007905960083008e+00
-1.579234719276428223e+00 -5.905635833740234375e+00 1.366449356079101562e+00
-2.329920053482055664e+00 -5.972470283508300781e+00 1.376706838607788086e+00
-2.034523725509643555e+00 -5.838665008544921875e+00 1.264686584472656250e+00
-1.827542781829833984e+00 -5.936372756958007812e+00 1.209607601165771484e+00
-1.575506210327148438e+00 -5.871158123016357422e+00 1.124458193778991699e+00
-2.311218261718750000e+00 -5.921478271484375000e+00 1.123117923736572266e+00
-2.028689861297607422e+00 -5.815389156341552734e+00 1.026257753372192383e+00
-1.846507191658020020e+00 -5.994254112243652344e+00 9.844458103179931641e-01
-1.589209914207458496e+00 -5.905751705169677734e+00 9.020178914070129395e-01
-2.312282562255859375e+00 -5.921153545379638672e+00 8.854475617408752441e-01
-2.037412166595458984e+00 -5.833843231201171875e+00 8.003684282302856445e-01
-1.836991071701049805e+00 -5.944917678833007812e+00 7.474679350852966309e-01
-1.582697033882141113e+00 -5.869299888610839844e+00 6.721960306167602539e-01
-2.297360897064208984e+00 -5.876888275146484375e+00 6.465068459510803223e-01
-2.031227588653564453e+00 -5.809618949890136719e+00 5.720167756080627441e-01
-1.902424097061157227e+00 -6.149063587188720703e+00 5.371050834655761719e-01
-1.577821731567382812e+00 -5.839056015014648438e+00 4.473567008972167969e-01
-2.326810598373413086e+00 -5.946102142333984375e+00 4.207434952259063721e-01
-2.049000024795532227e+00 -5.853890895843505859e+00 3.500106930732727051e-01
-1.847605466842651367e+00 -5.964502811431884766e+00 2.933726310729980469e-01
-1.635795593261718750e+00 -6.041038036346435547e+00 2.349613010883331299e-01
-2.400015115737915039e+00 -6.130020618438720703e+00 1.953818947076797485e-01
-2.093230724334716797e+00 -5.973568916320800781e+00 1.281675398349761963e-01
-1.854146718978881836e+00 -5.974549770355224609e+00 6.660330295562744141e-02
-2.101161479949951172e+00 -5.925997257232666016e+00 1.781546354293823242e+00
-1.858619093894958496e+00 -5.933469295501708984e+00 1.696321487426757812e+00
-1.616949796676635742e+00 -5.921611309051513672e+00 1.613816022872924805e+00
-2.084452152252197266e+00 -5.872362613677978516e+00 1.515580534934997559e+00
-1.856648206710815430e+00 -5.916315555572509766e+00 1.445253491401672363e+00
-1.623951673507690430e+00 -5.926895141601562500e+00 1.373648047447204590e+00
-2.378071784973144531e+00 -5.987138748168945312e+00 1.383425593376159668e+00
-2.078183889389038086e+00 -5.848227500915527344e+00 1.269496083259582520e+00
-1.871886253356933594e+00 -5.950328350067138672e+00 1.214768767356872559e+00
-1.619843006134033203e+00 -5.891721248626708984e+00 1.130278706550598145e+00
-2.359509468078613281e+00 -5.937385082244873047e+00 1.128859758377075195e+00
-2.071938276290893555e+00 -5.824206829071044922e+00 1.030037879943847656e+00
-1.887998461723327637e+00 -5.997888565063476562e+00 9.869266152381896973e-01
-1.630675554275512695e+00 -5.914963722229003906e+00 9.049361348152160645e-01
-2.366501331329345703e+00 -5.951951980590820312e+00 8.922078013420104980e-01
-2.082485675811767578e+00 -5.847390651702880859e+00 8.039650321006774902e-01
-1.879412531852722168e+00 -5.952469825744628906e+00 7.498533129692077637e-01
-1.616827964782714844e+00 -5.852771759033203125e+00 6.714267134666442871e-01
-2.300269603729248047e+00 -5.779496192932128906e+00 6.373336315155029297e-01
-2.074193000793457031e+00 -5.817679882049560547e+00 5.740527510643005371e-01
-1.878541588783264160e+00 -5.942485809326171875e+00 5.200580954551696777e-01
-1.622399687767028809e+00 -5.860982894897460938e+00 4.497908353805541992e-01
-2.375438928604125977e+00 -5.962303161621093750e+00 4.229132831096649170e-01
-2.094277620315551758e+00 -5.867537021636962891e+00 3.515883088111877441e-01
-1.895923495292663574e+00 -5.990194797515869141e+00 2.952030003070831299e-01
-1.662147998809814453e+00 -5.992369651794433594e+00 2.334606796503067017e-01
-2.156421422958374023e+00 -6.034990787506103516e+00 1.297668367624282837e-01
-1.888957500457763672e+00 -5.957341670989990234e+00 6.653942912817001343e-02
-2.144678831100463867e+00 -5.932898998260498047e+00 1.787543892860412598e+00
-1.842948794364929199e+00 -5.759317398071289062e+00 1.649735093116760254e+00
-1.648565173149108887e+00 -5.894813537597656250e+00 1.609239339828491211e+00
-2.119122743606567383e+00 -5.855807781219482422e+00 1.514635324478149414e+00
-1.855752468109130859e+00 -5.788886070251464844e+00 1.416879534721374512e+00
-1.667406797409057617e+00 -5.942189216613769531e+00 1.379537940025329590e+00
-2.431988239288330078e+00 -6.015036582946777344e+00 1.393293619155883789e+00
-2.125708580017089844e+00 -5.867605209350585938e+00 1.276509881019592285e+00
-1.850104689598083496e+00 -5.757438182830810547e+00 1.177685260772705078e+00
-1.661559581756591797e+00 -5.901547908782958984e+00 1.134098529815673828e+00
-2.409929037094116211e+00 -5.957485198974609375e+00 1.135471463203430176e+00
-2.124451398849487305e+00 -5.857748985290527344e+00 1.038255929946899414e+00
-1.867309570312500000e+00 -5.807498455047607422e+00 9.574661254882812500e-01
-1.673388957977294922e+00 -5.927696704864501953e+00 9.084379673004150391e-01
-2.415239334106445312e+00 -5.967616558074951172e+00 8.967605829238891602e-01
-2.127124786376953125e+00 -5.858739376068115234e+00 8.073047399520874023e-01
-1.895787954330444336e+00 -5.878460407257080078e+00 7.419815063476562500e-01
-1.662719368934631348e+00 -5.878128528594970703e+00 6.754932999610900879e-01
-2.386115312576293945e+00 -5.889743804931640625e+00 6.510934829711914062e-01
-2.136721134185791016e+00 -5.878772258758544922e+00 5.813637375831604004e-01
-1.859852790832519531e+00 -5.760148525238037109e+00 5.050899982452392578e-01
-1.658331513404846191e+00 -5.850917339324951172e+00 4.497908353805541992e-01
-2.431853055953979492e+00 -5.996624469757080078e+00 4.263981282711029053e-01
-2.153113365173339844e+00 -5.917438030242919922e+00 3.553633689880371094e-01
-1.950156450271606445e+00 -6.032625198364257812e+00 2.978781163692474365e-01
-1.673769116401672363e+00 -5.893620491027832031e+00 2.300092279911041260e-01
-2.217705965042114258e+00 -6.088344097137451172e+00 1.312042027711868286e-01
-1.917773604393005371e+00 -5.921856403350830078e+00 6.627326458692550659e-02
-2.195345163345336914e+00 -5.958448410034179688e+00 1.799266457557678223e+00
-2.178214311599731445e+00 -5.905597686767578125e+00 1.530941963195800781e+00
-1.894873261451721191e+00 -5.788496971130371094e+00 1.419603466987609863e+00
-1.710571646690368652e+00 -5.955296039581298828e+00 1.384991526603698730e+00
-2.486335754394531250e+00 -6.042496204376220703e+00 1.403161764144897461e+00
-2.176942348480224609e+00 -5.895809650421142578e+00 1.285527586936950684e+00
-1.889681100845336914e+00 -5.759034633636474609e+00 1.180361390113830566e+00
-1.712988018989562988e+00 -5.944154262542724609e+00 1.144284486770629883e+00
-2.467056035995483398e+00 -5.992669105529785156e+00 1.145040988922119141e+00
-2.173349618911743164e+00 -5.879761695861816406e+00 1.044501543045043945e+00
-1.896129012107849121e+00 -5.775282382965087891e+00 9.540549516677856445e-01
-1.711376905441284180e+00 -5.923019886016845703e+00 9.093134403228759766e-01
-2.470670461654663086e+00 -5.998474121093750000e+00 9.036586880683898926e-01
-2.171981573104858398e+00 -5.869759559631347656e+00 8.106443881988525391e-01
-1.902321338653564453e+00 -5.777127742767333984e+00 7.306508421897888184e-01
-1.710917115211486816e+00 -5.909823417663574219e+00 6.803292036056518555e-01
-2.441547393798828125e+00 -5.921895980834960938e+00 6.562916040420532227e-01
-2.175865173339843750e+00 -5.873954772949218750e+00 5.821967124938964844e-01
-1.894849419593811035e+00 -5.747682094573974609e+00 5.050068497657775879e-01
-1.708369970321655273e+00 -5.889479160308837891e+00 4.535525739192962646e-01
-2.477357149124145508e+00 -6.002804756164550781e+00 4.279104173183441162e-01
-2.195977210998535156e+00 -5.921901702880859375e+00 3.564339280128479004e-01
-1.984630584716796875e+00 -6.012957572937011719e+00 2.975026667118072510e-01
-1.719661474227905273e+00 -5.916824817657470703e+00 2.313222736120223999e-01
-2.254325628280639648e+00 -6.072746753692626953e+00 1.311637014150619507e-01
-1.977616310119628906e+00 -5.981182098388671875e+00 6.707173585891723633e-02
-2.246743202209472656e+00 -5.984498023986816406e+00 1.811261534690856934e+00
-1.925696849822998047e+00 -5.772874832153320312e+00 1.660263061523437500e+00
-1.749055743217468262e+00 -5.970664501190185547e+00 1.635682702064514160e+00
-2.235944986343383789e+00 -5.949423789978027344e+00 1.545830726623535156e+00
-1.942701578140258789e+00 -5.813709259033203125e+00 1.428683161735534668e+00
-1.755885958671569824e+00 -5.974650382995605469e+00 1.391972184181213379e+00
-2.535825252532958984e+00 -6.056888580322265625e+00 1.410090565681457520e+00
-2.222736835479736328e+00 -5.908016204833984375e+00 1.291138648986816406e+00
-1.931217074394226074e+00 -5.765946388244628906e+00 1.184184432029724121e+00
-1.754155755043029785e+00 -5.949565410614013672e+00 1.147376656532287598e+00
-2.521281003952026367e+00 -6.019199848175048828e+00 1.153044581413269043e+00
-2.219468355178833008e+00 -5.893085479736328125e+00 1.049268007278442383e+00
-1.935610651969909668e+00 -5.775716304779052734e+00 9.560706615447998047e-01
-1.758063793182373047e+00 -5.947510242462158203e+00 9.147121310234069824e-01
-2.521594047546386719e+00 -6.016999721527099609e+00 9.087633490562438965e-01
-2.220201730728149414e+00 -5.888800144195556641e+00 8.151401281356811523e-01
-1.939314961433410645e+00 -5.770052433013916016e+00 7.312471866607666016e-01
-1.748558282852172852e+00 -5.903979778289794922e+00 6.808787584304809570e-01
-2.506698846817016602e+00 -5.975604534149169922e+00 6.639359593391418457e-01
-2.212920904159545898e+00 -5.863287925720214844e+00 5.824742913246154785e-01
-1.953598976135253906e+00 -5.805840015411376953e+00 5.111603736877441406e-01
-1.735112905502319336e+00 -5.847335815429687500e+00 4.511184990406036377e-01
-2.526118993759155273e+00 -6.016011714935302734e+00 4.299487173557281494e-01
-2.239682197570800781e+00 -5.927929401397705078e+00 3.576171398162841797e-01
-2.037114143371582031e+00 -6.047051906585693359e+00 2.998023331165313721e-01
-1.768464207649230957e+00 -5.948307514190673828e+00 2.329729646444320679e-01
-2.309582948684692383e+00 -6.106492519378662109e+00 1.321961730718612671e-01
-2.031863927841186523e+00 -6.021044731140136719e+00 6.765729188919067383e-02
-2.625648260116577148e+00 -6.159004211425781250e+00 1.973080754280090332e+00
-2.286170482635498047e+00 -5.977788925170898438e+00 1.813442468643188477e+00
-1.988751411437988281e+00 -5.842232227325439453e+00 1.683687925338745117e+00
-1.793430328369140625e+00 -5.985761165618896484e+00 1.642802238464355469e+00
-2.605244874954223633e+00 -6.114101409912109375e+00 1.687873244285583496e+00
-2.277966499328613281e+00 -5.950110912322998047e+00 1.549612045288085938e+00
-1.987138271331787109e+00 -5.827489376068115234e+00 1.435038924217224121e+00
-1.798692822456359863e+00 -5.984325408935546875e+00 1.396771192550659180e+00
-2.582519531250000000e+00 -6.063702583312988281e+00 1.415339469909667969e+00
-2.272970199584960938e+00 -5.930859565734863281e+00 1.299154400825500488e+00
-1.971639037132263184e+00 -5.768848896026611328e+00 1.187242865562438965e+00
-1.792047977447509766e+00 -5.943397521972656250e+00 1.148286104202270508e+00
-2.570519447326660156e+00 -6.032606124877929688e+00 1.158612370491027832e+00
-2.270071744918823242e+00 -5.917115211486816406e+00 1.056006669998168945e+00
-1.984119296073913574e+00 -5.802056312561035156e+00 9.624279141426086426e-01
-1.801680207252502441e+00 -5.960285186767578125e+00 9.183598756790161133e-01
-2.574002504348754883e+00 -6.037858486175537109e+00 9.142819046974182129e-01
-2.274070262908935547e+00 -5.921356201171875000e+00 8.215625882148742676e-01
-1.984989285469055176e+00 -5.788097381591796875e+00 7.350637912750244141e-01
-1.803477644920349121e+00 -5.954972267150878906e+00 6.880227923393249512e-01
-2.545659780502319336e+00 -5.965601444244384766e+00 6.645475029945373535e-01
-2.283514022827148438e+00 -5.939750194549560547e+00 5.914511084556579590e-01
-1.994687557220458984e+00 -5.809766769409179688e+00 5.125740766525268555e-01
-1.834662437438964844e+00 -6.046528339385986328e+00 4.673458039760589600e-01
-2.582190513610839844e+00 -6.045361995697021484e+00 4.331705272197723389e-01
-2.301115036010742188e+00 -5.979300498962402344e+00 3.615612685680389404e-01
-2.064763307571411133e+00 -6.007043361663818359e+00 2.984412908554077148e-01
-1.797081470489501953e+00 -5.911529541015625000e+00 2.319600284099578857e-01
-2.349524259567260742e+00 -6.098737239837646484e+00 1.323378831148147583e-01
-2.084395885467529297e+00 -6.053846836090087891e+00 6.816831231117248535e-02
-1.849039316177368164e+00 -6.074824810028076172e+00 7.757986895740032196e-03
-2.686665773391723633e+00 -6.196460723876953125e+00 1.990323901176452637e+00
-2.047981023788452148e+00 -5.897359371185302734e+00 1.703164696693420410e+00
-1.836356163024902344e+00 -5.994987964630126953e+00 1.648396015167236328e+00
-2.670460462570190430e+00 -6.162031173706054688e+00 1.705596208572387695e+00
-2.326433658599853516e+00 -5.966801643371582031e+00 1.557647228240966797e+00
-2.031816959381103516e+00 -5.840942382812500000e+00 1.441394686698913574e+00
-1.842830777168273926e+00 -5.997430801391601562e+00 1.402442932128906250e+00
-2.644937276840209961e+00 -6.106057643890380859e+00 1.428986907005310059e+00
-2.318936109542846680e+00 -5.941443443298339844e+00 1.304564952850341797e+00
-2.022186279296875000e+00 -5.800204277038574219e+00 1.196226954460144043e+00
-1.834564566612243652e+00 -5.952023506164550781e+00 1.152105808258056641e+00
-2.625498771667480469e+00 -6.058283329010009766e+00 1.166615962982177734e+00
-2.317104816436767578e+00 -5.930637836456298828e+00 1.060937523841857910e+00
-2.028142929077148438e+00 -5.814024925231933594e+00 9.664593338966369629e-01
-1.850776553153991699e+00 -5.989762306213378906e+00 9.246340394020080566e-01
-2.629125595092773438e+00 -6.063751220703125000e+00 9.206281900405883789e-01
-2.319390773773193359e+00 -5.930381298065185547e+00 8.247738480567932129e-01
-2.038498163223266602e+00 -5.827353477478027344e+00 7.416236996650695801e-01
-1.830283164978027344e+00 -5.912461280822753906e+00 6.843958497047424316e-01
-2.587760925292968750e+00 -5.962644577026367188e+00 6.659744381904602051e-01
-2.272001028060913086e+00 -5.803238868713378906e+00 5.792352557182312012e-01
-2.031944751739501953e+00 -5.802120685577392578e+00 5.129898190498352051e-01
-1.859616756439208984e+00 -5.996103286743164062e+00 4.643215835094451904e-01
-2.641499996185302734e+00 -6.080656051635742188e+00 4.368526339530944824e-01
-2.341767311096191406e+00 -5.975294113159179688e+00 3.621810674667358398e-01
-2.106540441513061523e+00 -6.008400440216064453e+00 2.991452813148498535e-01
-1.838953733444213867e+00 -5.918523311614990234e+00 2.326728254556655884e-01
-2.393838644027709961e+00 -6.101890087127685547e+00 1.327225267887115479e-01
-2.121502161026000977e+00 -6.040943145751953125e+00 6.816831231117248535e-02
-1.832512497901916504e+00 -5.890535354614257812e+00 7.536853663623332977e-03
-2.744758367538452148e+00 -6.225499153137207031e+00 2.005023241043090820e+00
-2.395887374877929688e+00 -6.041402816772460938e+00 1.841521859169006348e+00
-2.090247392654418945e+00 -5.901960849761962891e+00 1.708165407180786133e+00
-1.868483424186706543e+00 -5.968840122222900391e+00 1.644327759742736816e+00
-2.723853826522827148e+00 -6.181006908416748047e+00 1.715442419052124023e+00
-2.385229825973510742e+00 -6.008408069610595703e+00 1.572299718856811523e+00
-2.081619024276733398e+00 -5.867832660675048828e+00 1.451155304908752441e+00
-1.871701836585998535e+00 -5.960870742797851562e+00 1.396553158760070801e+00
-2.704424142837524414e+00 -6.139820575714111328e+00 1.440744638442993164e+00
-2.363670110702514648e+00 -5.948043346405029297e+00 1.309174060821533203e+00
-2.070561408996582031e+00 -5.823756217956542969e+00 1.203681945800781250e+00
-1.884934782981872559e+00 -5.984736442565917969e+00 1.160654783248901367e+00
-2.682874917984008789e+00 -6.088016986846923828e+00 1.175489544868469238e+00
-2.365482330322265625e+00 -5.946555137634277344e+00 1.066361308097839355e+00
-2.070732116699218750e+00 -5.821016788482666016e+00 9.697154760360717773e-01
-1.889876961708068848e+00 -5.985840320587158203e+00 9.258013367652893066e-01
-2.682265043258666992e+00 -6.083755493164062500e+00 9.261466860771179199e-01
-2.370043516159057617e+00 -5.951971054077148438e+00 8.297833800315856934e-01
-2.086891889572143555e+00 -5.850271224975585938e+00 7.461559772491455078e-01
-1.872821569442749023e+00 -5.921020507812500000e+00 6.867038607597351074e-01
-2.635142326354980469e+00 -5.971227169036865234e+00 6.687263846397399902e-01
-2.325262784957885742e+00 -5.833585739135742188e+00 5.836773514747619629e-01
-2.077562093734741211e+00 -5.817698478698730469e+00 5.154845118522644043e-01
-1.887636899948120117e+00 -5.957010269165039062e+00 4.621825516223907471e-01
-2.693274974822998047e+00 -6.097192764282226562e+00 4.392196536064147949e-01
-2.378756999969482422e+00 -5.961740016937255859e+00 3.622373938560485840e-01
-2.150093078613281250e+00 -6.014174461364746094e+00 3.000839352607727051e-01
-1.886119604110717773e+00 -5.941416740417480469e+00 2.340234071016311646e-01
-2.164597034454345703e+00 -6.044757366180419922e+00 6.835994124412536621e-02
-1.906484723091125488e+00 -5.998307704925537109e+00 7.689570076763629913e-03
-2.806053876876831055e+00 -6.260183334350585938e+00 2.021701097488403320e+00
-2.461004495620727539e+00 -6.096177101135253906e+00 1.862785935401916504e+00
-2.142148733139038086e+00 -5.932579040527343750e+00 1.720798969268798828e+00
-1.854993104934692383e+00 -5.800662517547607422e+00 1.601102828979492188e+00
-2.776787281036376953e+00 -6.197788715362548828e+00 1.724796175956726074e+00
-2.439526319503784180e+00 -6.036902427673339844e+00 1.583643436431884766e+00
-2.126527547836303711e+00 -5.879677295684814453e+00 1.457283973693847656e+00
-1.858166098594665527e+00 -5.793154239654541016e+00 1.359905004501342773e+00
-2.755233287811279297e+00 -6.152557373046875000e+00 1.447673320770263672e+00
-2.426206350326538086e+00 -5.997911930084228516e+00 1.323402047157287598e+00
-2.124653100967407227e+00 -5.861696720123291016e+00 1.214195251464843750e+00
-1.861993670463562012e+00 -5.787715911865234375e+00 1.124640107154846191e+00
-2.731855869293212891e+00 -6.097501754760742188e+00 1.180535316467285156e+00
-2.411180496215820312e+00 -5.954785823822021484e+00 1.070470333099365234e+00
-2.121903419494628906e+00 -5.850922584533691406e+00 9.768480658531188965e-01
-1.881327986717224121e+00 -5.833840847015380859e+00 9.040606617927551270e-01
-2.741014957427978516e+00 -6.115084171295166016e+00 9.334587454795837402e-01
-2.416577816009521484e+00 -5.962131977081298828e+00 8.332515358924865723e-01
-2.133267879486083984e+00 -5.866281509399414062e+00 7.498533129692077637e-01
-1.861450314521789551e+00 -5.761871814727783203e+00 6.695582866668701172e-01
-2.716932296752929688e+00 -6.055692672729492188e+00 6.800400018692016602e-01
-2.422780752182006836e+00 -5.971446990966796875e+00 5.989471673965454102e-01
-2.112538099288940430e+00 -5.802968502044677734e+00 5.153182148933410645e-01
-1.859666466712951660e+00 -5.746063232421875000e+00 4.466928839683532715e-01
-2.753936290740966797e+00 -6.132437705993652344e+00 4.429675042629241943e-01
-2.446099042892456055e+00 -6.022884368896484375e+00 3.668576180934906006e-01
-2.234155416488647461e+00 -6.130383491516113281e+00 3.065605759620666504e-01
-1.941956281661987305e+00 -5.989618301391601562e+00 2.363868951797485352e-01
-2.226333618164062500e+00 -6.098992824554443359e+00 6.912647932767868042e-02
-1.965174794197082520e+00 -6.054028034210205078e+00 7.776312995702028275e-03
-2.864298343658447266e+00 -6.286491870880126953e+00 2.035834789276123047e+00
-2.506041765213012695e+00 -6.099650859832763672e+00 1.868510842323303223e+00
-2.192504882812500000e+00 -5.957349300384521484e+00 1.731853485107421875e+00
-1.876739740371704102e+00 -5.746881008148193359e+00 1.589406728744506836e+00
-2.833242416381835938e+00 -6.221209049224853516e+00 1.736119270324707031e+00
-2.485022544860839844e+00 -6.042489051818847656e+00 1.589079022407531738e+00
-2.175364732742309570e+00 -5.901242733001708984e+00 1.465909719467163086e+00
-1.900056362152099609e+00 -5.801119804382324219e+00 1.364485979080200195e+00
-2.818856716156005859e+00 -6.192486286163330078e+00 1.461110711097717285e+00
-2.480864763259887695e+00 -6.026398181915283203e+00 1.333020925521850586e+00
-2.180648088455200195e+00 -5.902873516082763672e+00 1.225473165512084961e+00
-1.899926543235778809e+00 -5.783655643463134766e+00 1.126095294952392578e+00
-2.793706417083740234e+00 -6.134396076202392578e+00 1.190974831581115723e+00
-2.467967033386230469e+00 -5.989127159118652344e+00 1.079345703125000000e+00
-2.173861503601074219e+00 -5.881344318389892578e+00 9.841356277465820312e-01
-1.899761676788330078e+00 -5.769566059112548828e+00 8.958896994590759277e-01
-2.795732021331787109e+00 -6.136004447937011719e+00 9.392532110214233398e-01
-2.472023010253906250e+00 -5.993031024932861328e+00 8.396739363670349121e-01
-2.177848339080810547e+00 -5.876356124877929688e+00 7.528350949287414551e-01
-1.880267620086669922e+00 -5.700314044952392578e+00 6.637331843376159668e-01
-2.795315742492675781e+00 -6.129418849945068359e+00 6.902324557304382324e-01
-2.460515260696411133e+00 -5.959229946136474609e+00 5.992248654365539551e-01
-2.161276578903198242e+00 -5.825400352478027344e+00 5.184780955314636230e-01
-1.902398109436035156e+00 -5.757270812988281250e+00 4.484631419181823730e-01
-2.804771900177001953e+00 -6.144471645355224609e+00 4.450715482234954834e-01
-2.491017341613769531e+00 -6.027139663696289062e+00 3.680408596992492676e-01
-2.270685195922851562e+00 -6.113749980926513672e+00 3.064197599887847900e-01
-1.987149953842163086e+00 -6.003204345703125000e+00 2.373998165130615234e-01
-2.274522066116333008e+00 -6.114270210266113281e+00 6.945651024580001831e-02
-2.007632493972778320e+00 -6.057992935180664062e+00 7.797082420438528061e-03
-2.928210258483886719e+00 -6.323635101318359375e+00 2.053643465042114258e+00
-2.550472021102905273e+00 -6.101025104522705078e+00 1.873690605163574219e+00
-2.234776020050048828e+00 -5.959140300750732422e+00 1.736327767372131348e+00
-2.894974470138549805e+00 -6.254723548889160156e+00 1.750396251678466797e+00
-2.527678012847900391e+00 -6.040572643280029297e+00 1.592623949050903320e+00
-2.227285861968994141e+00 -5.929721832275390625e+00 1.476351261138916016e+00
-1.948922038078308105e+00 -5.829151153564453125e+00 1.373866200447082520e+00
-2.878968238830566406e+00 -6.222990512847900391e+00 1.472448587417602539e+00
-2.535584926605224609e+00 -6.053533554077148438e+00 1.342439532279968262e+00
-2.220630168914794922e+00 -5.899487018585205078e+00 1.227575898170471191e+00
-1.938817262649536133e+00 -5.782144069671630859e+00 1.128095984458923340e+00
-2.845357179641723633e+00 -6.147522926330566406e+00 1.196890473365783691e+00
-2.522213697433471680e+00 -6.015716552734375000e+00 1.086906194686889648e+00
-2.215826988220214844e+00 -5.883612155914306641e+00 9.867715835571289062e-01
-1.935757517814636230e+00 -5.759675979614257812e+00 8.961815237998962402e-01
-2.849560260772705078e+00 -6.153786182403564453e+00 9.446337223052978516e-01
-2.521029949188232422e+00 -6.007012367248535156e+00 8.437843322753906250e-01
-2.218072891235351562e+00 -5.874028682708740234e+00 7.542663812637329102e-01
-1.936457037925720215e+00 -5.751782894134521484e+00 6.710969805717468262e-01
-2.838728904724121094e+00 -6.124787807464599609e+00 6.916593909263610840e-01
-2.505518198013305664e+00 -5.964216232299804688e+00 6.012607812881469727e-01
-2.228692531585693359e+00 -5.895924091339111328e+00 5.259621739387512207e-01
-1.955854058265686035e+00 -5.799353122711181641e+00 4.526674449443817139e-01
-2.859217643737792969e+00 -6.163353443145751953e+00 4.477016031742095947e-01
-2.538401603698730469e+00 -6.036591053009033203e+00 3.695621490478515625e-01
-2.300378322601318359e+00 -6.079149246215820312e+00 3.053872585296630859e-01
-2.023627758026123047e+00 -5.989951610565185547e+00 2.373622953891754150e-01
-2.311641454696655273e+00 -6.099264144897460938e+00 6.944586336612701416e-02
-1.994143366813659668e+00 -5.895889759063720703e+00 7.604049053043127060e-03
-2.977574348449707031e+00 -6.328115463256835938e+00 2.060992956161499023e+00
-2.605932712554931641e+00 -6.127759456634521484e+00 1.886776208877563477e+00
-2.266478538513183594e+00 -5.932698726654052734e+00 1.732643008232116699e+00
-2.965885639190673828e+00 -6.306130886077880859e+00 1.769842267036437988e+00
-2.585626125335693359e+00 -6.074121475219726562e+00 1.605622053146362305e+00
-2.274765253067016602e+00 -5.945050716400146484e+00 1.483615040779113770e+00
-1.995681643486022949e+00 -5.849410057067871094e+00 1.381501197814941406e+00
-2.947046518325805664e+00 -6.268915176391601562e+00 1.487565755844116211e+00
-2.586890459060668945e+00 -6.071210384368896484e+00 1.349854111671447754e+00
-2.259598255157470703e+00 -5.893082618713378906e+00 1.229105114936828613e+00
-1.983172535896301270e+00 -5.796189785003662109e+00 1.133189082145690918e+00
-2.904817581176757812e+00 -6.176286220550537109e+00 1.205938100814819336e+00
-2.574556827545166016e+00 -6.036420345306396484e+00 1.093480587005615234e+00
-2.265686511993408203e+00 -5.905877590179443359e+00 9.928187727928161621e-01
-1.988391160964965820e+00 -5.798223018646240234e+00 9.040606617927551270e-01
-2.908771276473999023e+00 -6.181891441345214844e+00 9.516698718070983887e-01
-2.565628528594970703e+00 -6.009672164916992188e+00 8.463533520698547363e-01
-2.276885271072387695e+00 -5.919615745544433594e+00 7.618997097015380859e-01
-1.978171229362487793e+00 -5.758593082427978516e+00 6.732951402664184570e-01
-2.913979530334472656e+00 -6.187352657318115234e+00 7.007306814193725586e-01
-2.556934833526611328e+00 -5.983523845672607422e+00 6.047775149345397949e-01
-2.299560785293579102e+00 -5.972346782684326172e+00 5.340282917022705078e-01
-1.995944380760192871e+00 -5.800445556640625000e+00 4.537001252174377441e-01
-2.908894300460815430e+00 -6.170965671539306641e+00 4.495426416397094727e-01
-2.599345207214355469e+00 -6.076897144317626953e+00 3.729991614818572998e-01
-2.326858282089233398e+00 -6.036957740783691406e+00 3.039793074131011963e-01
-2.065553665161132812e+00 -5.992538452148437500e+00 2.379625588655471802e-01
-2.351182937622070312e+00 -6.090562343597412109e+00 6.950974464416503906e-02
-2.066490888595581055e+00 -5.988471031188964844e+00 7.739661261439323425e-03
-3.035377502441406250e+00 -6.349535465240478516e+00 2.073996067047119141e+00
-2.659906625747680664e+00 -6.149625778198242188e+00 1.898498654365539551e+00
-3.025417327880859375e+00 -6.331539630889892578e+00 1.782149910926818848e+00
-2.651415824890136719e+00 -6.124127388000488281e+00 1.623110532760620117e+00
-2.321101665496826172e+00 -5.956389427185058594e+00 1.489970803260803223e+00
-2.041158914566040039e+00 -5.864705562591552734e+00 1.388045549392700195e+00
-3.000625848770141602e+00 -6.282474994659423828e+00 1.495124220848083496e+00
-2.643572092056274414e+00 -6.100169658660888672e+00 1.359873771667480469e+00
-2.314280509948730469e+00 -5.926651954650878906e+00 1.239045023918151855e+00
-2.027448654174804688e+00 -5.808978557586669922e+00 1.138100147247314453e+00
-2.963463544845581055e+00 -6.201884269714355469e+00 1.214463710784912109e+00
-2.631566762924194336e+00 -6.066661357879638672e+00 1.101862907409667969e+00
-2.315902233123779297e+00 -5.927751064300537109e+00 9.988659024238586426e-01
-2.033077478408813477e+00 -5.812060832977294922e+00 9.081462025642395020e-01
-2.974841356277465820e+00 -6.222903728485107422e+00 9.607754349708557129e-01
-2.628917694091796875e+00 -6.054764747619628906e+00 8.549594283103942871e-01
-2.324389696121215820e+00 -5.934192180633544922e+00 7.655970454216003418e-01
-2.025628805160522461e+00 -5.781053543090820312e+00 6.773617267608642578e-01
-2.982803821563720703e+00 -6.233966350555419922e+00 7.080692648887634277e-01
-2.594791650772094727e+00 -5.970461368560791016e+00 6.050550937652587891e-01
-2.359080791473388672e+00 -6.016573429107666016e+00 5.392671227455139160e-01
-2.044378042221069336e+00 -5.824788093566894531e+00 4.565767645835876465e-01
-2.969546556472778320e+00 -6.200698852539062500e+00 4.530274569988250732e-01
-2.646540403366088867e+00 -6.083722114562988281e+00 3.744077682495117188e-01
-2.410936594009399414e+00 -6.142516136169433594e+00 3.100335299968719482e-01
-2.125153064727783203e+00 -6.044799804687500000e+00 2.405511438846588135e-01
-2.134072065353393555e+00 -6.063403606414794922e+00 7.853281684219837189e-03
-3.103191852569580078e+00 -6.390327930450439453e+00 2.093500852584838867e+00
-2.723930597305297852e+00 -6.193077087402343750e+00 1.917036652565002441e+00
-3.077330112457275391e+00 -6.339887142181396484e+00 1.789780735969543457e+00
-2.714391469955444336e+00 -6.165548324584960938e+00 1.638471961021423340e+00
-2.374845981597900391e+00 -5.985486984252929688e+00 1.500866413116455078e+00
-2.092774629592895508e+00 -5.896216869354248047e+00 1.398516416549682617e+00
-3.062164068222045898e+00 -6.311446189880371094e+00 1.506462097167968750e+00
-2.705051660537719727e+00 -6.138522148132324219e+00 1.372097730636596680e+00
-2.364382505416870117e+00 -5.947000503540039062e+00 1.246308803558349609e+00
-2.072285890579223633e+00 -5.822368144989013672e+00 1.143193125724792480e+00
-3.026402235031127930e+00 -6.234965801239013672e+00 1.224555253982543945e+00
-2.679489612579345703e+00 -6.074767589569091797e+00 1.106300592422485352e+00
-2.368661880493164062e+00 -5.954737186431884766e+00 1.005843400955200195e+00
-2.076013326644897461e+00 -5.819975852966308594e+00 9.113562107086181641e-01
-3.037629604339599609e+00 -6.255317211151123047e+00 9.686393737792968750e-01
-2.682041406631469727e+00 -6.074809074401855469e+00 8.600974082946777344e-01
-2.376939773559570312e+00 -5.960396766662597656e+00 7.708449363708496094e-01
-2.075777530670166016e+00 -5.809699535369873047e+00 6.821976900100708008e-01
-3.030565500259399414e+00 -6.235230445861816406e+00 7.103115916252136230e-01
-2.631779432296752930e+00 -5.955338954925537109e+00 6.051477193832397461e-01
-2.386717081069946289e+00 -5.978847503662109375e+00 5.371882319450378418e-01
-2.089825153350830078e+00 -5.839364528656005859e+00 4.587158262729644775e-01
-3.049005508422851562e+00 -6.267603874206542969e+00 4.592738449573516846e-01
-2.701186418533325195e+00 -6.106630802154541016e+00 3.768305480480194092e-01
-2.517153263092041016e+00 -6.299210071563720703e+00 3.187159895896911621e-01
-2.177715063095092773e+00 -6.074917793273925781e+00 2.422768771648406982e-01
-2.179680585861206055e+00 -6.073725223541259766e+00 7.883825339376926422e-03
-3.146162748336791992e+00 -6.378909587860107422e+00 2.096045017242431641e+00
-2.797227621078491211e+00 -6.255293846130371094e+00 1.941571950912475586e+00
-3.147887706756591797e+00 -6.385215759277343750e+00 1.807996034622192383e+00
-2.768050193786621094e+00 -6.184252262115478516e+00 1.647925138473510742e+00
-2.436328411102294922e+00 -6.032208442687988281e+00 1.516301751136779785e+00
-2.135223150253295898e+00 -5.900700569152832031e+00 1.402661085128784180e+00
-3.116390943527221680e+00 -6.324110507965087891e+00 1.514020681381225586e+00
-2.751077890396118164e+00 -6.140584945678710938e+00 1.376306056976318359e+00
-2.417766332626342773e+00 -5.974235057830810547e+00 1.255101680755615234e+00
-2.124742269515991211e+00 -5.855761051177978516e+00 1.152287721633911133e+00
-3.094647407531738281e+00 -6.277223110198974609e+00 1.236560702323913574e+00
-2.743755340576171875e+00 -6.118515014648437500e+00 1.117312550544738770e+00
-2.432591676712036133e+00 -6.007852077484130859e+00 1.017317533493041992e+00
-2.133998632431030273e+00 -5.868490695953369141e+00 9.209862947463989258e-01
-3.090411901473999023e+00 -6.265873908996582031e+00 9.731921553611755371e-01
-2.737946033477783203e+00 -6.099856853485107422e+00 8.660060763359069824e-01
-2.433259010314941406e+00 -5.994457721710205078e+00 7.771663069725036621e-01
-2.142340660095214844e+00 -5.881840229034423828e+00 6.921992897987365723e-01
-3.080216169357299805e+00 -6.239710330963134766e+00 7.129616141319274902e-01
-2.690306186676025391e+00 -5.988123893737792969e+00 6.101450920104980469e-01
-2.402349948883056641e+00 -5.912388801574707031e+00 5.325314998626708984e-01
-2.132451295852661133e+00 -5.845169067382812500e+00 4.601910412311553955e-01
-3.105527877807617188e+00 -6.285456657409667969e+00 4.619696736335754395e-01
-2.762355089187622070e+00 -6.142755031585693359e+00 3.800985217094421387e-01
-2.556133270263671875e+00 -6.284571647644042969e+00 3.187628984451293945e-01
-2.219064950942993164e+00 -6.072704315185546875e+00 2.427270561456680298e-01
-2.213471889495849609e+00 -6.050845623016357422e+00 7.871608249843120575e-03
-2.853472948074340820e+00 -6.277427673339843750e+00 1.953839778900146484e+00
-2.821637392044067383e+00 -6.201644420623779297e+00 1.657141923904418945e+00
-2.488475799560546875e+00 -6.054077148437500000e+00 1.525608420372009277e+00
-2.187260627746582031e+00 -5.930522441864013672e+00 1.412913799285888672e+00
-3.154698848724365234e+00 -6.303995609283447266e+00 1.513810753822326660e+00
-2.814284563064575195e+00 -6.179760456085205078e+00 1.388930916786193848e+00
-2.466339826583862305e+00 -5.988330841064453125e+00 1.261218547821044922e+00
-2.169500112533569336e+00 -5.866592407226562500e+00 1.157016992568969727e+00
-3.148094415664672852e+00 -6.288055419921875000e+00 1.242476463317871094e+00
-2.798838615417480469e+00 -6.140159606933593750e+00 1.124380111694335938e+00
-2.483335256576538086e+00 -6.026608943939208984e+00 1.023054599761962891e+00
-2.179592847824096680e+00 -5.881259918212890625e+00 9.250717163085937500e-01
-3.160735845565795898e+00 -6.310554027557373047e+00 9.831255078315734863e-01
-2.791376590728759766e+00 -6.118129730224609375e+00 8.710156083106994629e-01
-2.482503652572631836e+00 -6.009696960449218750e+00 7.811021804809570312e-01
-2.184962511062622070e+00 -5.886289119720458984e+00 6.942875385284423828e-01
-3.137168169021606445e+00 -6.258043766021728516e+00 7.172424197196960449e-01
-2.761742115020751953e+00 -6.047585964202880859e+00 6.179188489913940430e-01
-2.497605085372924805e+00 -6.040278911590576172e+00 5.454207062721252441e-01
-2.180092573165893555e+00 -5.863756179809570312e+00 4.626988768577575684e-01
-3.151643276214599609e+00 -6.281444549560546875e+00 4.630874395370483398e-01
-2.818257093429565430e+00 -6.165644168853759766e+00 3.825776875019073486e-01
-2.602286815643310547e+00 -6.287228584289550781e+00 3.197015523910522461e-01
-2.261515378952026367e+00 -6.073020935058593750e+00 2.432897984981536865e-01
-2.261385917663574219e+00 -6.066197395324707031e+00 7.909481413662433624e-03
-3.400742530822753906e+00 -6.686950683593750000e+00 2.210811614990234375e+00
-2.902428150177001953e+00 -6.282509803771972656e+00 1.960927724838256836e+00
-2.550750017166137695e+00 -6.107867240905761719e+00 1.805812597274780273e+00
-2.214433908462524414e+00 -5.908229351043701172e+00 1.658820748329162598e+00
-2.882474899291992188e+00 -6.233603477478027344e+00 1.670376300811767578e+00
-2.534219026565551758e+00 -6.059359550476074219e+00 1.530829310417175293e+00
-2.234594345092773438e+00 -5.946223258972167969e+00 1.419894456863403320e+00
-2.878074884414672852e+00 -6.218389511108398438e+00 1.401555776596069336e+00
-2.520487785339355469e+00 -6.014728069305419922e+00 1.270011544227600098e+00
-2.222791671752929688e+00 -5.899178504943847656e+00 1.166111588478088379e+00
-3.165198326110839844e+00 -6.226484775543212891e+00 1.234124779701232910e+00
-2.853046417236328125e+00 -6.158671855926513672e+00 1.130954384803771973e+00
-2.529434442520141602e+00 -6.033123493194580078e+00 1.026775836944580078e+00
-2.219832181930541992e+00 -5.878881931304931641e+00 9.268226623535156250e-01
-3.171111822128295898e+00 -6.235423088073730469e+00 9.744337797164916992e-01
-2.852643251419067383e+00 -6.152170181274414062e+00 8.783372640609741211e-01
-2.531641960144042969e+00 -6.023641586303710938e+00 7.849188446998596191e-01
-2.226664543151855469e+00 -5.887646198272705078e+00 6.960460543632507324e-01
-3.313141822814941406e+00 -6.509075641632080078e+00 7.483294010162353516e-01
-2.841133356094360352e+00 -6.121747016906738281e+00 6.272658109664916992e-01
-2.506024360656738281e+00 -5.956866741180419922e+00 5.392671227455139160e-01
-2.253830194473266602e+00 -5.950058460235595703e+00 4.705912172794342041e-01
-3.402106761932373047e+00 -6.678090572357177734e+00 4.938591122627258301e-01
-2.866551399230957031e+00 -6.170872688293457031e+00 3.839862942695617676e-01
-2.658648490905761719e+00 -6.313490390777587891e+00 3.218604326248168945e-01
-2.302635431289672852e+00 -6.069307804107666016e+00 2.437024712562561035e-01
-2.309216022491455078e+00 -6.080253124237060547e+00 7.946133613586425781e-03
-3.465471982955932617e+00 -6.711983203887939453e+00 2.226076126098632812e+00
-2.970768928527832031e+00 -6.328160285949707031e+00 1.980828762054443359e+00
-2.602136611938476562e+00 -6.124954700469970703e+00 1.815550923347473145e+00
-2.237190246582031250e+00 -5.859293460845947266e+00 1.648904442787170410e+00
-2.942569971084594727e+00 -6.262409210205078125e+00 1.682901859283447266e+00
-2.603378295898437500e+00 -6.118973255157470703e+00 1.549896597862243652e+00
-2.274526834487915039e+00 -5.941514492034912109e+00 1.422075867652893066e+00
-2.928684711456298828e+00 -6.227209568023681641e+00 1.407567501068115234e+00
-2.578516006469726562e+00 -6.048811435699462891e+00 1.280524849891662598e+00
-2.270926475524902344e+00 -5.916641235351562500e+00 1.172295808792114258e+00
-2.902124404907226562e+00 -6.165146350860595703e+00 1.135392069816589355e+00
-2.590046167373657227e+00 -6.072920799255371094e+00 1.036234140396118164e+00
-2.264741182327270508e+00 -5.888234615325927734e+00 9.304704666137695312e-01
-2.916968107223510742e+00 -6.191070079803466797e+00 8.864296078681945801e-01
-2.582995653152465820e+00 -6.041772842407226562e+00 7.893319129943847656e-01
-2.279898881912231445e+00 -5.918393135070800781e+00 7.013216614723205566e-01
-2.910495042800903320e+00 -6.171742916107177734e+00 6.342065930366516113e-01
-2.557426214218139648e+00 -5.976192474365234375e+00 5.424270629882812500e-01
-2.284193992614746094e+00 -5.920300006866455078e+00 4.693373143672943115e-01
-3.586496829986572266e+00 -6.934505939483642578e+00 5.144393444061279297e-01
-2.926095724105834961e+00 -6.199214458465576172e+00 3.868598341941833496e-01
-2.696943998336791992e+00 -6.296140193939208984e+00 3.218134939670562744e-01
-2.353880405426025391e+00 -6.091417789459228516e+00 2.451655864715576172e-01
-3.536869764328002930e+00 -6.748365879058837891e+00 2.245297908782958984e+00
-3.033979177474975586e+00 -6.361048221588134766e+00 1.996913075447082520e+00
-2.664925813674926758e+00 -6.167322635650634766e+00 1.832922101020812988e+00
-2.361430406570434570e+00 -6.072604179382324219e+00 1.712979197502136230e+00
-3.010243177413940430e+00 -6.305617332458496094e+00 1.699444890022277832e+00
-2.653638124465942383e+00 -6.132379531860351562e+00 1.557387232780456543e+00
-2.320866107940673828e+00 -5.952905654907226562e+00 1.428183913230895996e+00
-2.997250795364379883e+00 -6.272769451141357422e+00 1.421995878219604492e+00
-2.631980895996093750e+00 -6.070699214935302734e+00 1.288553237915039062e+00
-2.316495180130004883e+00 -5.926407337188720703e+00 1.177025079727172852e+00
-2.959049463272094727e+00 -6.187267303466796875e+00 1.142788290977478027e+00
-2.642592191696166992e+00 -6.092260837554931641e+00 1.042281389236450195e+00
-2.324640989303588867e+00 -5.935023784637451172e+00 9.401005506515502930e-01
-2.971171617507934570e+00 -6.207046508789062500e+00 8.913106322288513184e-01
-2.641396760940551758e+00 -6.074977874755859375e+00 7.957724928855895996e-01
-2.328874588012695312e+00 -5.936677455902099609e+00 7.051684260368347168e-01
-2.921635627746582031e+00 -6.098094463348388672e+00 6.284688711166381836e-01
-2.609954357147216797e+00 -5.996937751770019531e+00 5.457533001899719238e-01
-2.317924499511718750e+00 -5.899675846099853516e+00 4.688210189342498779e-01
-3.647531747817993164e+00 -6.947708606719970703e+00 5.170693993568420410e-01
-2.990412473678588867e+00 -6.236059665679931641e+00 3.902968466281890869e-01
-2.770632266998291016e+00 -6.360061645507812500e+00 3.259435296058654785e-01
-2.448293924331665039e+00 -6.221923828125000000e+00 2.510180473327636719e-01
-3.595779418945312500e+00 -6.759564399719238281e+00 2.256322383880615234e+00
-3.090152978897094727e+00 -6.377811908721923828e+00 2.008090257644653320e+00
-2.722510814666748047e+00 -6.195899963378906250e+00 1.846345305442810059e+00
-2.394374370574951172e+00 -6.047209739685058594e+00 1.709928035736083984e+00
-3.071348190307617188e+00 -6.333365440368652344e+00 1.711970329284667969e+00
-2.702983140945434570e+00 -6.142723560333251953e+00 1.564196944236755371e+00
-2.371031284332275391e+00 -5.973021507263183594e+00 1.436473369598388672e+00
-3.055789947509765625e+00 -6.295685291290283203e+00 1.431414365768432617e+00
-2.694126129150390625e+00 -6.111019134521484375e+00 1.300595760345458984e+00
-2.361178159713745117e+00 -5.933095932006835938e+00 1.181208610534667969e+00
-3.018509626388549805e+00 -6.213356494903564453e+00 1.151006221771240234e+00
-2.693877696990966797e+00 -6.107567787170410156e+00 1.047708272933959961e+00
-2.371640682220458984e+00 -5.947297096252441406e+00 9.443318843841552734e-01
-3.039557933807373047e+00 -6.251130104064941406e+00 9.003021121025085449e-01
-2.689060688018798828e+00 -6.082266330718994141e+00 7.988735437393188477e-01
-2.374105215072631836e+00 -5.944429397583007812e+00 7.078062295913696289e-01
