-1.952803134918212891e+00 -2.262668609619140625e+00 3.182181343436241150e-02
-3.343807697296142578e+00 -4.169884204864501953e+00 6.530147977173328400e-03
-5.886708259582519531e+00 -5.829960346221923828e+00 5.459342598915100098e-01
-4.378722667694091797e+00 -4.663273811340332031e+00 3.609978258609771729e-01
-4.236881256103515625e+00 -4.853834152221679688e+00 3.027121424674987793e-01
-4.111656665802001953e+00 -5.067067146301269531e+00 2.449780106544494629e-01
-4.535477638244628906e+00 -4.490188121795654297e+00 1.894189715385437012e-01
-4.401482582092285156e+00 -4.684235095977783203e+00 1.301514953374862671e-01
-1.967307925224304199e+00 -2.251396894454956055e+00 3.183246031403541565e-02
-1.867787957191467285e+00 -2.300157546997070312e+00 3.619986586272716522e-03
-4.398999214172363281e+00 -4.627635002136230469e+00 3.603217005729675293e-01
-4.269229888916015625e+00 -4.830739974975585938e+00 3.028998672962188721e-01
-1.858809113502502441e+00 -2.262221574783325195e+00 1.099212169647216797e-01
-4.563658237457275391e+00 -4.462973117828369141e+00 1.894486397504806519e-01
-4.441855907440185547e+00 -4.669454574584960938e+00 1.304956376552581787e-01
-4.070831775665283203e+00 -4.601389884948730469e+00 6.541091203689575195e-02
-1.889487743377685547e+00 -2.297922611236572266e+00 3.634647466242313385e-03
-4.430772304534912109e+00 -4.604153156280517578e+00 3.606033921241760254e-01
-4.297458171844482422e+00 -4.802964687347412109e+00 3.028059899806976318e-01
-1.891828775405883789e+00 -2.273818969726562500e+00 1.110466867685317993e-01
-4.579454421997070312e+00 -4.423775672912597656e+00 1.889739781618118286e-01
-4.474584579467773438e+00 -4.646432876586914062e+00 1.306171119213104248e-01
-4.050286293029785156e+00 -4.521951198577880859e+00 6.463373452425003052e-02
-1.895873785018920898e+00 -2.277063608169555664e+00 3.619986586272716522e-03
-4.463119506835937500e+00 -4.581170558929443359e+00 3.609414696693420410e-01
-4.314776420593261719e+00 -4.763180255889892578e+00 3.019612133502960205e-01
-1.883211016654968262e+00 -2.235419750213623047e+00 1.097336411476135254e-01
-4.603619098663330078e+00 -4.392833232879638672e+00 1.888553202152252197e-01
-4.484166622161865234e+00 -4.599560737609863281e+00 1.300705075263977051e-01
-4.092062473297119141e+00 -4.512569904327392578e+00 6.485731154680252075e-02
-1.900141716003417969e+00 -2.253919601440429688e+00 3.601660719141364098e-03
-4.485536575317382812e+00 -4.548012256622314453e+00 3.604907095432281494e-01
-4.351348400115966797e+00 -4.744713306427001953e+00 3.024774491786956787e-01
-1.924777746200561523e+00 -2.256514549255371094e+00 1.113468185067176819e-01
-4.642124652862548828e+00 -4.375473022460937500e+00 1.893299818038940430e-01
-4.482105731964111328e+00 -4.541361808776855469e+00 1.291999965906143188e-01
-4.033114910125732422e+00 -4.393091201782226562e+00 6.349457800388336182e-02
-1.924323439598083496e+00 -2.254387617111206055e+00 3.621208481490612030e-03
-4.504892826080322266e+00 -4.511925697326660156e+00 3.598145842552185059e-01
-4.362708091735839844e+00 -4.698891639709472656e+00 3.012572228908538818e-01
-4.231841564178466797e+00 -4.899987697601318359e+00 2.430647015571594238e-01
-4.671079158782958984e+00 -4.348950386047363281e+00 1.894189715385437012e-01
-4.509180068969726562e+00 -4.513067245483398438e+00 1.291797608137130737e-01
-4.113773822784423828e+00 -4.426124572753906250e+00 6.433563679456710815e-02
-1.936158180236816406e+00 -2.240267992019653320e+00 3.617543261498212814e-03
-4.528234004974365234e+00 -4.479985713958740234e+00 3.594765067100524902e-01
-4.390089988708496094e+00 -4.670578479766845703e+00 3.011633753776550293e-01
-4.265774250030517578e+00 -4.878442764282226562e+00 2.432897984981536865e-01
-4.690318584442138672e+00 -4.313441276550292969e+00 1.891223192214965820e-01
-4.538919448852539062e+00 -4.487423419952392578e+00 1.292404830455780029e-01
-4.131261348724365234e+00 -4.390604019165039062e+00 6.418658792972564697e-02
-1.951184749603271484e+00 -2.229850769042968750e+00 3.619986586272716522e-03
-4.538500785827636719e+00 -4.435369491577148438e+00 3.581242561340332031e-01
-4.407648086547851562e+00 -4.631975650787353516e+00 3.004124760627746582e-01
-4.281717300415039062e+00 -4.836464405059814453e+00 2.425019592046737671e-01
-4.715957164764404297e+00 -4.283908367156982422e+00 1.890926361083984375e-01
-4.554208278656005859e+00 -4.447613239288330078e+00 1.288963258266448975e-01
-4.167089462280273438e+00 -4.374585151672363281e+00 6.432498991489410400e-02
-3.252612829208374023e+00 -3.671443939208984375e+00 5.992586724460124969e-03
-5.747604846954345703e+00 -5.158841609954833984e+00 5.089161992073059082e-01
-5.715657234191894531e+00 -5.517618656158447266e+00 4.483314454555511475e-01
-4.433907032012939453e+00 -4.602685451507568359e+00 3.002716600894927979e-01
-4.309978961944580078e+00 -4.808612823486328125e+00 2.424269467592239380e-01
-4.738433837890625000e+00 -4.251553535461425781e+00 1.889443248510360718e-01
-4.574936866760253906e+00 -4.413338184356689453e+00 1.287141293287277222e-01
-4.200099945068359375e+00 -4.355412006378173828e+00 6.442080438137054443e-02
-3.302454948425292969e+00 -3.681938648223876953e+00 6.042677443474531174e-03
-5.587552070617675781e+00 -5.328105926513671875e+00 4.357103407382965088e-01
-4.463459968566894531e+00 -4.576822757720947266e+00 3.003655076026916504e-01
-4.337388038635253906e+00 -4.779856681823730469e+00 2.423143833875656128e-01
-4.748722553253173828e+00 -4.208477020263671875e+00 1.883213371038436890e-01
-4.595416545867919922e+00 -4.378976345062255859e+00 1.285319328308105469e-01
-4.297994613647460938e+00 -4.402540683746337891e+00 6.550673395395278931e-02
-3.310867309570312500e+00 -3.646059274673461914e+00 6.017021369189023972e-03
-5.456615447998046875e+00 -5.139694690704345703e+00 4.230328798294067383e-01
-4.490756988525390625e+00 -4.548638820648193359e+00 3.003185987472534180e-01
-4.367311477661132812e+00 -4.753889083862304688e+00 2.423519194126129150e-01
-4.768438816070556641e+00 -4.173993110656738281e+00 1.880839914083480835e-01
-4.620742321014404297e+00 -4.349326610565185547e+00 1.284914463758468628e-01
-4.336173057556152344e+00 -4.387465000152587891e+00 6.567706912755966187e-02
-3.268882036209106445e+00 -3.555738925933837891e+00 5.900957155972719193e-03
-6.371779918670654297e+00 -5.928345680236816406e+00 4.911530911922454834e-01
-4.515758037567138672e+00 -4.518172264099121094e+00 3.001308739185333252e-01
-4.378704071044921875e+00 -4.707977294921875000e+00 2.413765043020248413e-01
-4.800009727478027344e+00 -4.149886131286621094e+00 1.883213371038436890e-01
-4.660522460937500000e+00 -4.333146095275878906e+00 1.288558393716812134e-01
-4.271777629852294922e+00 -4.269588470458984375e+00 6.430370360612869263e-02
-3.367624044418334961e+00 -3.618331670761108398e+00 6.039012689143419266e-03
-4.692266941070556641e+00 -4.312305450439453125e+00 3.596455454826354980e-01
-4.539843559265136719e+00 -4.486868381500244141e+00 2.998962104320526123e-01
-4.417099952697753906e+00 -4.691206932067871094e+00 2.419017255306243896e-01
-4.831463336944580078e+00 -4.125548362731933594e+00 1.885586529970169067e-01
-4.685549736022949219e+00 -4.303115844726562500e+00 1.288153529167175293e-01
-4.282951831817626953e+00 -4.228543281555175781e+00 6.408012658357620239e-02
-3.360959768295288086e+00 -3.567031621932983398e+00 5.987699609249830246e-03
-4.692025184631347656e+00 -4.259274482727050781e+00 3.576171398162841797e-01
-4.566574573516845703e+00 -4.458230018615722656e+00 2.998492717742919922e-01
-4.452695846557617188e+00 -4.671248912811279297e+00 2.422768771648406982e-01
-4.842932224273681641e+00 -4.084226131439208984e+00 1.880246698856353760e-01
-4.694832801818847656e+00 -4.258834838867187500e+00 1.283497363328933716e-01
-4.327429771423339844e+00 -4.220335960388183594e+00 6.435693055391311646e-02
-3.328946352005004883e+00 -3.489901781082153320e+00 5.892405286431312561e-03
-4.730708599090576172e+00 -4.241735458374023438e+00 3.585750162601470947e-01
-4.604629039764404297e+00 -4.440526962280273438e+00 3.005532622337341309e-01
-4.478498935699462891e+00 -4.640963554382324219e+00 2.421268224716186523e-01
-4.863293170928955078e+00 -4.050595283508300781e+00 1.878466606140136719e-01
-4.723110198974609375e+00 -4.231949329376220703e+00 1.284104734659194946e-01
-4.363326072692871094e+00 -4.203416824340820312e+00 6.450597941875457764e-02
-3.321121692657470703e+00 -3.439197301864624023e+00 5.841092206537723541e-03
-4.753656387329101562e+00 -4.209980487823486328e+00 3.583496212959289551e-01
-4.666505336761474609e+00 -4.445260524749755859e+00 3.028059899806976318e-01
-4.467087268829345703e+00 -4.572652339935302734e+00 2.399884164333343506e-01
-4.903494834899902344e+00 -4.033377647399902344e+00 1.884399950504302979e-01
-4.745244503021240234e+00 -4.199575901031494141e+00 1.283092498779296875e-01
-4.392657279968261719e+00 -4.180011272430419922e+00 6.455920636653900146e-02
-3.310704469680786133e+00 -3.386576414108276367e+00 5.786114372313022614e-03
-4.764369487762451172e+00 -4.167586326599121094e+00 3.572227358818054199e-01
-4.703150272369384766e+00 -4.425442695617675781e+00 3.034161031246185303e-01
-4.476088047027587891e+00 -4.525972843170166016e+00 2.389754951000213623e-01
-4.910306453704833984e+00 -3.988719463348388672e+00 1.877576708793640137e-01
-4.773181438446044922e+00 -4.172354698181152344e+00 1.283699721097946167e-01
-4.416037082672119141e+00 -4.150925159454345703e+00 6.452727317810058594e-02
-3.380661725997924805e+00 -3.415952444076538086e+00 5.871635396033525467e-03
-4.790606975555419922e+00 -4.138926982879638672e+00 3.572790920734405518e-01
-4.674609661102294922e+00 -4.344818115234375000e+00 2.998492717742919922e-01
-4.505895614624023438e+00 -4.500541210174560547e+00 2.390880286693572998e-01
-4.940146446228027344e+00 -3.962893486022949219e+00 1.879653334617614746e-01
-4.815341949462890625e+00 -4.157362461090087891e+00 1.288153529167175293e-01
-4.406249523162841797e+00 -4.091092586517333984e+00 6.401625275611877441e-02
-3.404389142990112305e+00 -3.397970676422119141e+00 5.876522511243820190e-03
-4.819710254669189453e+00 -4.112695217132568359e+00 3.575608134269714355e-01
-4.670275688171386719e+00 -4.287680149078369141e+00 2.978781163692474365e-01
-4.543384552001953125e+00 -4.482634544372558594e+00 2.396132498979568481e-01
-4.978472232818603516e+00 -3.943678379058837891e+00 1.884993165731430054e-01
-4.827066421508789062e+00 -4.116061210632324219e+00 1.284509599208831787e-01
-4.430531978607177734e+00 -4.063303470611572266e+00 6.400559842586517334e-02
-3.183062314987182617e+00 -3.138309478759765625e+00 5.461134016513824463e-03
-4.833403110504150391e+00 -4.073393344879150391e+00 3.567156493663787842e-01
-4.692057132720947266e+00 -4.254917144775390625e+00 2.975965142250061035e-01
-4.570088386535644531e+00 -4.453975200653076172e+00 2.395757287740707397e-01
-4.993129253387451172e+00 -3.905667066574096680e+00 1.881433278322219849e-01
-4.844583988189697266e+00 -4.079925060272216797e+00 1.282485127449035645e-01
-4.484282493591308594e+00 -4.062223434448242188e+00 6.442080438137054443e-02
-3.152827739715576172e+00 -3.070578098297119141e+00 5.376834422349929810e-03
-4.846027851104736328e+00 -4.033440589904785156e+00 3.558141589164733887e-01
-4.719564437866210938e+00 -4.227380275726318359e+00 2.976903915405273438e-01
-4.586532592773437500e+00 -4.415453910827636719e+00 2.390130013227462769e-01
-5.035985469818115234e+00 -3.889620065689086914e+00 1.888553202152252197e-01
-4.828018188476562500e+00 -4.015598773956298828e+00 1.271553039550781250e-01
-4.473354816436767578e+00 -4.002627372741699219e+00 6.390978395938873291e-02
-3.472123146057128906e+00 -3.340277433395385742e+00 5.886296276003122330e-03
-5.692164897918701172e+00 -4.342502117156982422e+00 4.717666208744049072e-01
-4.872999191284179688e+00 -4.005531787872314453e+00 3.559831678867340088e-01
-4.759629249572753906e+00 -4.210917949676513672e+00 2.985821068286895752e-01
-4.617159843444824219e+00 -4.390671730041503906e+00 2.392005920410156250e-01
-5.057372570037841797e+00 -3.856828212738037109e+00 1.887663155794143677e-01
-4.912827968597412109e+00 -4.035397529602050781e+00 1.287343800067901611e-01
-4.491836071014404297e+00 -3.969806432723999023e+00 6.382461637258529663e-02
-3.589689254760742188e+00 -3.411216735839843750e+00 6.050007883459329605e-03
-5.701965332031250000e+00 -4.294886589050292969e+00 4.703858494758605957e-01
-4.901360988616943359e+00 -3.978702306747436523e+00 3.562649190425872803e-01
-4.777855396270751953e+00 -4.175061225891113281e+00 2.981127798557281494e-01
-4.646198749542236328e+00 -4.364311218261718750e+00 2.393131256103515625e-01
-5.072957038879394531e+00 -3.819711685180664062e+00 1.884696483612060547e-01
-4.937496185302734375e+00 -4.005177021026611328e+00 1.287343800067901611e-01
-4.499536991119384766e+00 -3.927703380584716797e+00 6.359039247035980225e-02
-3.606177806854248047e+00 -3.385020256042480469e+00 6.042677443474531174e-03
-5.361489772796630859e+00 -3.987104654312133789e+00 4.402716755867004395e-01
-4.930355548858642578e+00 -3.952300071716308594e+00 3.566029667854309082e-01
-4.797333717346191406e+00 -4.140444755554199219e+00 2.977373301982879639e-01
-4.677285194396972656e+00 -4.339798450469970703e+00 2.395382225513458252e-01
-5.101914405822753906e+00 -3.792686939239501953e+00 1.886773109436035156e-01
-4.933887481689453125e+00 -3.952303409576416016e+00 1.280055791139602661e-01
-4.469781875610351562e+00 -3.853662252426147461e+00 6.283450871706008911e-02
-3.601948022842407227e+00 -3.339712619781494141e+00 6.001138594001531601e-03
-4.981129646301269531e+00 -3.943042755126953125e+00 3.585186600685119629e-01
-4.835571765899658203e+00 -4.121947288513183594e+00 2.985351681709289551e-01
-4.694985389709472656e+00 -4.302915096282958984e+00 2.390880286693572998e-01
-5.129118919372558594e+00 -3.764267921447753906e+00 1.888256520032882690e-01
-4.748682975769042969e+00 -3.756343603134155273e+00 1.226003095507621765e-01
-4.472787380218505859e+00 -3.808660030364990234e+00 6.254705786705017090e-02
-3.609835863113403320e+00 -3.306066989898681641e+00 5.980369634926319122e-03
-4.985564231872558594e+00 -3.897033214569091797e+00 3.571100533008575439e-01
-4.852366924285888672e+00 -4.085122585296630859e+00 2.980189323425292969e-01
-4.707223415374755859e+00 -4.261283874511718750e+00 2.383752316236495972e-01
-5.148072242736816406e+00 -3.729793071746826172e+00 1.886773109436035156e-01
-4.979652881622314453e+00 -3.889612913131713867e+00 1.279448419809341431e-01
-4.450155258178710938e+00 -3.742527723312377930e+00 6.190827861428260803e-02
-3.589266300201416016e+00 -3.246957778930664062e+00 5.913174245506525040e-03
-5.003059387207031250e+00 -3.861488819122314453e+00 3.566593229770660400e-01
-4.865819931030273438e+00 -4.045692920684814453e+00 2.973149418830871582e-01
-4.731791973114013672e+00 -4.230988979339599609e+00 2.383002042770385742e-01
-5.156226634979248047e+00 -3.687668561935424805e+00 1.881433278322219849e-01
-5.020842552185058594e+00 -3.872418403625488281e+00 1.283902227878570557e-01
-4.478419780731201172e+00 -3.719624042510986328e+00 6.198280677199363708e-02
-3.723211526870727539e+00 -3.326816558837890625e+00 6.100098602473735809e-03
-5.026659011840820312e+00 -3.830717802047729492e+00 3.566593229770660400e-01
-4.885920524597167969e+00 -4.011957168579101562e+00 2.970333397388458252e-01
-4.754667758941650391e+00 -4.199229717254638672e+00 2.381501495838165283e-01
-5.193454742431640625e+00 -3.666337490081787109e+00 1.886773109436035156e-01
-5.045304298400878906e+00 -3.842144012451171875e+00 1.284104734659194946e-01
-4.508889675140380859e+00 -3.698416471481323242e+00 6.208926811814308167e-02
-3.669328212738037109e+00 -3.238399505615234375e+00 5.979147739708423615e-03
-5.050867080688476562e+00 -3.800403118133544922e+00 3.567156493663787842e-01
-4.908117771148681641e+00 -3.980014562606811523e+00 2.968925535678863525e-01
-4.779591083526611328e+00 -4.169319152832031250e+00 2.381126135587692261e-01
-5.218313694000244141e+00 -3.636116504669189453e+00 1.887663155794143677e-01
-5.059993743896484375e+00 -3.804504871368408203e+00 1.281877756118774414e-01
-4.442919731140136719e+00 -3.598928928375244141e+00 6.087559089064598083e-02
-3.588873386383056641e+00 -3.128430366516113281e+00 5.816657561808824539e-03
-5.074892044067382812e+00 -3.769935369491577148e+00 3.567720055580139160e-01
-4.934785366058349609e+00 -3.951697111129760742e+00 2.970333397388458252e-01
-4.808868885040283203e+00 -4.143175125122070312e+00 2.383002042770385742e-01
-5.238879203796386719e+00 -3.602896213531494141e+00 1.887069940567016602e-01
-5.139437675476074219e+00 -3.815100431442260742e+00 1.296048909425735474e-01
-4.621869564056396484e+00 -3.697149038314819336e+00 6.301549822092056274e-02
-3.793668270111083984e+00 -3.266202688217163086e+00 6.115981377661228180e-03
-5.101953983306884766e+00 -3.741677761077880859e+00 3.570537269115447998e-01
-4.965208053588867188e+00 -3.926300048828125000e+00 2.974087893962860107e-01
-4.836483478546142578e+00 -4.115533351898193359e+00 2.384127527475357056e-01
-5.274947166442871094e+00 -3.580225944519042969e+00 1.892113089561462402e-01
-5.124847888946533203e+00 -3.755717277526855469e+00 1.286534070968627930e-01
-4.660945892333984375e+00 -3.681736469268798828e+00 6.323906779289245605e-02
-3.831921577453613281e+00 -3.258410930633544922e+00 6.145303137600421906e-03
-6.038094520568847656e+00 -4.045825004577636719e+00 4.789335429668426514e-01
-5.135329723358154297e+00 -3.717913627624511719e+00 3.577862083911895752e-01
-4.993142604827880859e+00 -3.898834228515625000e+00 2.976434826850891113e-01
-4.857055187225341797e+00 -4.081922531127929688e+00 2.381876558065414429e-01
-5.296815872192382812e+00 -3.547792196273803711e+00 1.892113089561462402e-01
-5.138885498046875000e+00 -3.717754840850830078e+00 1.284307092428207397e-01
-4.722872257232666016e+00 -3.683817863464355469e+00 6.377138197422027588e-02
-3.746931552886962891e+00 -3.146731376647949219e+00 5.977925844490528107e-03
-5.145861625671386719e+00 -3.677626132965087891e+00 3.569410443305969238e-01
-5.017762184143066406e+00 -3.868733406066894531e+00 2.976903915405273438e-01
-4.884316444396972656e+00 -4.053957939147949219e+00 2.383002042770385742e-01
-5.313481807708740234e+00 -3.511917829513549805e+00 1.890333145856857300e-01
-5.166482448577880859e+00 -3.689639568328857422e+00 1.285521835088729858e-01
-4.781828880310058594e+00 -3.682836294174194336e+00 6.426111608743667603e-02
-3.652252674102783203e+00 -3.029198646545410156e+00 5.797110032290220261e-03
-5.162619113922119141e+00 -3.641953468322753906e+00 3.565466105937957764e-01
-5.042200565338134766e+00 -3.838477134704589844e+00 2.977373301982879639e-01
-4.913736343383789062e+00 -4.027712821960449219e+00 2.385253012180328369e-01
-5.342465877532958984e+00 -3.484163045883178711e+00 1.893003135919570923e-01
-4.961033821105957031e+00 -3.497153043746948242e+00 1.229039728641510010e-01
-4.819459438323974609e+00 -3.664926528930664062e+00 6.446339190006256104e-02
-3.714866161346435547e+00 -3.042850494384765625e+00 5.866748280823230743e-03
-5.193061828613281250e+00 -3.615912914276123047e+00 3.571100533008575439e-01
-5.070449352264404297e+00 -3.811067581176757812e+00 2.980189323425292969e-01
-4.931366920471191406e+00 -3.991828203201293945e+00 2.381876558065414429e-01
-5.358700275421142578e+00 -3.448071479797363281e+00 1.891223192214965820e-01
-5.139971256256103516e+00 -3.576282501220703125e+00 1.267909109592437744e-01
-4.797875881195068359e+00 -3.602265119552612305e+00 6.387785077095031738e-02
-3.728024482727050781e+00 -3.015596866607666016e+00 5.858196411281824112e-03
-5.994052886962890625e+00 -3.806556224822998047e+00 4.678872823715209961e-01
-5.215151309967041016e+00 -3.583980798721313477e+00 3.571100533008575439e-01
-5.096144199371337891e+00 -3.781669616699218750e+00 2.981597185134887695e-01
-4.951084136962890625e+00 -3.957751035690307617e+00 2.379625588655471802e-01
-5.412667751312255859e+00 -3.436018705368041992e+00 1.902793049812316895e-01
-5.197257518768310547e+00 -3.569013595581054688e+00 1.276614218950271606e-01
-4.803822040557861328e+00 -3.560848951339721680e+00 6.366492062807083130e-02
-3.756614923477172852e+00 -3.000778913497924805e+00 5.874078720808029175e-03
-5.236217498779296875e+00 -3.551353454589843750e+00 3.570537269115447998e-01
-5.119252204895019531e+00 -3.750329256057739258e+00 2.981597185134887695e-01
-4.994100093841552734e+00 -3.942156791687011719e+00 2.388629317283630371e-01
-5.419247150421142578e+00 -3.393723726272583008e+00 1.897749751806259155e-01
-5.255474567413330078e+00 -3.561736345291137695e+00 1.285521835088729858e-01
-4.776356220245361328e+00 -3.495284318923950195e+00 6.301549822092056274e-02
-3.895083427429199219e+00 -3.072427988052368164e+00 6.061004009097814560e-03
-5.265377044677734375e+00 -3.524155616760253906e+00 3.575608134269714355e-01
-5.142167568206787109e+00 -3.718847513198852539e+00 2.981597185134887695e-01
-5.021347522735595703e+00 -3.913896799087524414e+00 2.390130013227462769e-01
-5.436566829681396484e+00 -3.358306646347045898e+00 1.896563023328781128e-01
-5.284709453582763672e+00 -3.534424543380737305e+00 1.287343800067901611e-01
-4.841483116149902344e+00 -3.497531414031982422e+00 6.359039247035980225e-02
-3.762388229370117188e+00 -2.930488586425781250e+00 5.826431326568126678e-03
-5.283569335937500000e+00 -3.489580869674682617e+00 3.573354482650756836e-01
-5.161637306213378906e+00 -3.684904336929321289e+00 2.979719936847686768e-01
-5.039724826812744141e+00 -3.878746509552001953e+00 2.387503981590270996e-01
-5.456217288970947266e+00 -3.324365139007568359e+00 1.896266341209411621e-01
-5.326323986053466797e+00 -3.515148639678955078e+00 1.292202472686767578e-01
-4.877507209777832031e+00 -3.478209018707275391e+00 6.378202885389328003e-02
-3.765237569808959961e+00 -2.895764589309692383e+00 5.803218111395835876e-03
-6.217367649078369141e+00 -3.737479209899902344e+00 4.780130386352539062e-01
-5.310737133026123047e+00 -3.460911512374877930e+00 3.577298521995544434e-01
-5.190682411193847656e+00 -3.657766819000244141e+00 2.983474433422088623e-01
-5.056268692016601562e+00 -3.842308759689331055e+00 2.384127527475357056e-01
-5.482509613037109375e+00 -3.294427633285522461e+00 1.898342967033386230e-01
-5.352818965911865234e+00 -3.485674381256103516e+00 1.293417066335678101e-01
-4.879950523376464844e+00 -3.434978008270263672e+00 6.353716552257537842e-02
-3.909563779830932617e+00 -2.968764066696166992e+00 5.997473839670419693e-03
-6.027313232421875000e+00 -3.573067665100097656e+00 4.617066681385040283e-01
-5.331872940063476562e+00 -3.428260326385498047e+00 3.577298521995544434e-01
-5.214668273925781250e+00 -3.626989126205444336e+00 2.984412908554077148e-01
-5.086943149566650391e+00 -3.816609144210815430e+00 2.387503981590270996e-01
-5.518099308013916016e+00 -3.269897937774658203e+00 1.903682947158813477e-01
-5.385881900787353516e+00 -3.460330247879028320e+00 1.296251267194747925e-01
-4.877941608428955078e+00 -3.388995170593261719e+00 6.323906779289245605e-02
-3.884500265121459961e+00 -2.912326812744140625e+00 5.931499879807233810e-03
-5.390747070312500000e+00 -3.419546365737915039e+00 3.602653443813323975e-01
-5.224472045898437500e+00 -3.586444377899169922e+00 2.977373301982879639e-01
-5.114281177520751953e+00 -3.788298606872558594e+00 2.389379739761352539e-01
-5.539784908294677734e+00 -3.236986398696899414e+00 1.904276311397552490e-01
-5.393501281738281250e+00 -3.418653726577758789e+00 1.293012201786041260e-01
-4.934105873107910156e+00 -3.383316993713378906e+00 6.369686126708984375e-02
-3.844425439834594727e+00 -2.845601320266723633e+00 5.843535531312227249e-03
-5.409934520721435547e+00 -3.385345458984375000e+00 3.601526319980621338e-01
-5.245553016662597656e+00 -3.553759813308715820e+00 2.976903915405273438e-01
-5.132589340209960938e+00 -3.753307342529296875e+00 2.387128770351409912e-01
-5.549149513244628906e+00 -3.196946382522583008e+00 1.900716423988342285e-01
-5.405899524688720703e+00 -3.380195140838623047e+00 1.290987730026245117e-01
-4.969679355621337891e+00 -3.363065719604492188e+00 6.388849765062332153e-02
-3.903798341751098633e+00 -2.852638721466064453e+00 5.907065235078334808e-03
-8.745082855224609375e+00 -4.968971252441406250e+00 6.627746224403381348e-01
-5.438251495361328125e+00 -3.356806993484497070e+00 3.606597483158111572e-01
-5.297984123229980469e+00 -3.542048454284667969e+00 2.994268834590911865e-01
-5.156332969665527344e+00 -3.722328662872314453e+00 2.387503981590270996e-01
-5.582567691802978516e+00 -3.170735597610473633e+00 1.905462890863418579e-01
-5.458023548126220703e+00 -3.366380929946899414e+00 1.298478245735168457e-01
-4.993546962738037109e+00 -3.334730386734008789e+00 6.393107771873474121e-02
-3.816608428955078125e+00 -2.753162860870361328e+00 5.749462638050317764e-03
-6.508426666259765625e+00 -3.645453691482543945e+00 4.915578067302703857e-01
-5.438278675079345703e+00 -3.310914516448974609e+00 3.593074977397918701e-01
-5.330457687377929688e+00 -3.516624927520751953e+00 3.000369966030120850e-01
-5.176634311676025391e+00 -3.688880205154418945e+00 2.386378496885299683e-01
-5.628954887390136719e+00 -3.151559591293334961e+00 1.914659589529037476e-01
-5.476013660430908203e+00 -3.331268787384033203e+00 1.297870874404907227e-01
-5.007235050201416016e+00 -3.299626111984252930e+00 6.384591013193130493e-02
-3.952358722686767578e+00 -2.814379215240478516e+00 5.927835125476121902e-03
-6.161159992218017578e+00 -3.401449918746948242e+00 4.637449681758880615e-01
-5.483314514160156250e+00 -3.292388200759887695e+00 3.609414696693420410e-01
-5.353609561920166016e+00 -3.484941720962524414e+00 3.001308739185333252e-01
-5.195901870727539062e+00 -3.654747724533081055e+00 2.384877800941467285e-01
-5.629808425903320312e+00 -3.106819629669189453e+00 1.908429563045501709e-01
-5.480061531066894531e+00 -3.287832975387573242e+00 1.294024437665939331e-01
-5.063434600830078125e+00 -3.292278528213500977e+00 6.430370360612869263e-02
-3.971189260482788086e+00 -2.791225194931030273e+00 5.930278450250625610e-03
-5.932113647460937500e+00 -3.227664947509765625e+00 4.450057744979858398e-01
-5.491385936737060547e+00 -3.251559495925903320e+00 3.601526319980621338e-01
-5.371529579162597656e+00 -3.449867725372314453e+00 2.999431192874908447e-01
-5.225616931915283203e+00 -3.627926349639892578e+00 2.388254255056381226e-01
-5.661058902740478516e+00 -3.078903436660766602e+00 1.912582963705062866e-01
-5.501853466033935547e+00 -3.255164384841918945e+00 1.294429302215576172e-01
-5.088590621948242188e+00 -3.264387607574462891e+00 6.436757743358612061e-02
-3.911007165908813477e+00 -2.713225364685058594e+00 5.815436132252216339e-03
-6.056456089019775391e+00 -3.247315645217895508e+00 4.528302252292633057e-01
-5.503473758697509766e+00 -3.213273286819458008e+00 3.596455454826354980e-01
-5.384159088134765625e+00 -3.411497354507446289e+00 2.994738221168518066e-01
-5.236238002777099609e+00 -3.587886571884155273e+00 2.383002042770385742e-01
-5.686892032623291016e+00 -3.047887325286865234e+00 1.914956122636795044e-01
-5.526041030883789062e+00 -3.223863124847412109e+00 1.295441538095474243e-01
-5.100074768066406250e+00 -3.227755546569824219e+00 6.426111608743667603e-02
-3.855795860290527344e+00 -2.640025854110717773e+00 5.709145683795213699e-03
-5.547314167022705078e+00 -3.193391084671020508e+00 3.612231910228729248e-01
-5.434636592864990234e+00 -3.396927118301391602e+00 3.011164367198944092e-01
-5.259809970855712891e+00 -3.556809425354003906e+00 2.383752316236495972e-01
-5.738190174102783203e+00 -3.030205726623535156e+00 1.925932615995407104e-01
-5.557851314544677734e+00 -3.196874380111694336e+00 1.298275738954544067e-01
-5.110453605651855469e+00 -3.190576076507568359e+00 6.414400041103363037e-02
-3.688807487487792969e+00 -2.492583990097045898e+00 5.439142696559429169e-03
-5.584170341491699219e+00 -3.169149160385131836e+00 3.623500764369964600e-01
-5.468981742858886719e+00 -3.371904611587524414e+00 3.018673360347747803e-01
-5.303978443145751953e+00 -3.539445638656616211e+00 2.393881678581237793e-01
-5.762882232666015625e+00 -2.998169183731079102e+00 1.928009241819381714e-01
-5.611280441284179688e+00 -3.181945562362670898e+00 1.306171119213104248e-01
-5.143557548522949219e+00 -3.167548418045043945e+00 6.431434303522109985e-02
-4.118364810943603516e+00 -2.746186017990112305e+00 6.047564558684825897e-03
-5.609610080718994141e+00 -3.138237714767456055e+00 3.627444803714752197e-01
-5.475913047790527344e+00 -3.329979896545410156e+00 3.011164367198944092e-01
-5.326430320739746094e+00 -3.507384061813354492e+00 2.394256740808486938e-01
-5.759821414947509766e+00 -2.951811313629150391e+00 1.920889467000961304e-01
-5.627208232879638672e+00 -3.145504236221313477e+00 1.305361390113830566e-01
-5.187681198120117188e+00 -3.150982618331909180e+00 6.462308764457702637e-02
-4.064965248107910156e+00 -2.674692153930664062e+00 5.944939330220222473e-03
-5.630509376525878906e+00 -3.104723215103149414e+00 3.628571927547454834e-01
-5.485962390899658203e+00 -3.290152549743652344e+00 3.005532622337341309e-01
-5.344499111175537109e+00 -3.472457647323608398e+00 2.392756044864654541e-01
-5.792994022369384766e+00 -2.924071073532104492e+00 1.925932615995407104e-01
-5.619256496429443359e+00 -3.095960855484008789e+00 1.299085468053817749e-01
-5.204344272613525391e+00 -3.117550849914550781e+00 6.459114700555801392e-02
-4.111495494842529297e+00 -2.669302940368652344e+00 5.988921970129013062e-03
-6.818840026855468750e+00 -3.391022682189941406e+00 5.018150210380554199e-01
-5.647698879241943359e+00 -3.069162845611572266e+00 3.627444803714752197e-01
-5.501748085021972656e+00 -3.253886699676513672e+00 3.003185987472534180e-01
-5.353927135467529297e+00 -3.432049036026000977e+00 2.387503981590270996e-01
-5.831413745880126953e+00 -2.898704290390014648e+00 1.932755857706069946e-01
-5.666263103485107422e+00 -3.076689958572387695e+00 1.305563747882843018e-01
-5.315496444702148438e+00 -3.139976978302001953e+00 6.573030352592468262e-02
-4.159794330596923828e+00 -2.664521217346191406e+00 6.035347003489732742e-03
-5.666424751281738281e+00 -3.034451484680175781e+00 3.627444803714752197e-01
-5.541456699371337891e+00 -3.231641530990600586e+00 3.013980388641357422e-01
-5.378263473510742188e+00 -3.401269912719726562e+00 2.389004677534103394e-01
-5.847294807434082031e+00 -2.861989974975585938e+00 1.932162642478942871e-01
-5.707073211669921875e+00 -3.053656578063964844e+00 1.310624927282333374e-01
-5.249985694885253906e+00 -3.057980298995971680e+00 6.468696892261505127e-02
-4.263137340545654297e+00 -2.693969726562500000e+00 6.161185447126626968e-03
-5.699065685272216797e+00 -3.007080793380737305e+00 3.636460006237030029e-01
-5.562047004699707031e+00 -3.198076725006103516e+00 3.014449775218963623e-01
-5.420228004455566406e+00 -3.381428480148315430e+00 2.398383468389511108e-01
-5.870148181915283203e+00 -2.828661441802978516e+00 1.933942586183547974e-01
-5.739853382110595703e+00 -3.026041269302368164e+00 1.313863992691040039e-01
-5.264314651489257812e+00 -3.023219347000122070e+00 6.463373452425003052e-02
-4.254977226257324219e+00 -2.652420043945312500e+00 6.125755608081817627e-03
-5.718295097351074219e+00 -2.972515821456909180e+00 3.637023568153381348e-01
-5.583303451538085938e+00 -3.164873600006103516e+00 3.015388250350952148e-01
-5.438320636749267578e+00 -3.346535921096801758e+00 2.397257983684539795e-01
-5.879265785217285156e+00 -2.788733959197998047e+00 1.931272596120834351e-01
-5.762749195098876953e+00 -2.993069410324096680e+00 1.314876228570938110e-01
-5.244478702545166016e+00 -2.969184875488281250e+00 6.416530162096023560e-02
-4.246468067169189453e+00 -2.611072063446044922e+00 6.090325303375720978e-03
-8.223591804504394531e+00 -3.840841531753540039e+00 5.980751514434814453e-01
-5.771085262298583984e+00 -2.955120325088500977e+00 3.658997714519500732e-01
-5.628777980804443359e+00 -3.145173072814941406e+00 3.029468059539794922e-01
-5.491214752197265625e+00 -3.332806348800659180e+00 2.411514073610305786e-01
-5.928873062133789062e+00 -2.767828941345214844e+00 1.941952407360076904e-01
-5.772104740142822266e+00 -2.953099727630615234e+00 1.312851756811141968e-01
-5.321101188659667969e+00 -2.969598531723022461e+00 6.487859785556793213e-02
-4.255568981170654297e+00 -2.580818653106689453e+00 6.080551538616418839e-03
-7.011222839355468750e+00 -3.222347021102905273e+00 5.084559321403503418e-01
-5.814960956573486328e+00 -2.932692050933837891e+00 3.675337433815002441e-01
-5.668969631195068359e+00 -3.122141361236572266e+00 3.040731549263000488e-01
-5.497841835021972656e+00 -3.290838479995727539e+00 2.405511438846588135e-01
-5.962093353271484375e+00 -2.738908529281616211e+00 1.947292238473892212e-01
-5.799937248229980469e+00 -2.922576189041137695e+00 1.315078586339950562e-01
-5.368134498596191406e+00 -2.952796697616577148e+00 6.522992998361587524e-02
-4.247294902801513672e+00 -2.540286302566528320e+00 6.046343129128217697e-03
-7.180881023406982422e+00 -3.247102737426757812e+00 5.193049311637878418e-01
-5.833740234375000000e+00 -2.897400856018066406e+00 3.675900995731353760e-01
-5.684508323669433594e+00 -3.085392475128173828e+00 3.038854300975799561e-01
-5.499858856201171875e+00 -3.246375322341918945e+00 2.397633194923400879e-01
-6.012488365173339844e+00 -2.717506408691406250e+00 1.958268880844116211e-01
-5.844628810882568359e+00 -2.900265932083129883e+00 1.321152001619338989e-01
-5.436259746551513672e+00 -2.946966171264648438e+00 6.583677232265472412e-02
-4.262801647186279297e+00 -2.514177560806274414e+00 6.046343129128217697e-03
-7.269048213958740234e+00 -3.233396291732788086e+00 5.242363214492797852e-01
-5.838851928710937500e+00 -2.855410575866699219e+00 3.668012619018554688e-01
-5.707737445831298828e+00 -3.052810668945312500e+00 3.041200935840606689e-01
-5.541266441345214844e+00 -3.225134372711181641e+00 2.407012134790420532e-01
-6.040009498596191406e+00 -2.685436487197875977e+00 1.961828768253326416e-01
-5.868602752685546875e+00 -2.867421865463256836e+00 1.322569102048873901e-01
-5.424251556396484375e+00 -2.897535324096679688e+00 6.547479331493377686e-02
-4.373237133026123047e+00 -2.543273448944091797e+00 6.180732976645231247e-03
-7.535579204559326172e+00 -3.296717405319213867e+00 5.419891476631164551e-01
-5.859860897064208984e+00 -2.821262836456298828e+00 3.670266568660736084e-01
-5.734314441680908203e+00 -3.021922349929809570e+00 3.045424818992614746e-01
-5.557483673095703125e+00 -3.189083576202392578e+00 2.405511438846588135e-01
-6.026151180267333984e+00 -2.635109424591064453e+00 1.952039003372192383e-01
-5.900501728057861328e+00 -2.838292837142944336e+00 1.325808167457580566e-01
-5.450777053833007812e+00 -2.868855476379394531e+00 6.558125466108322144e-02
-3.858708620071411133e+00 -2.212475299835205078e+00 5.434256512671709061e-03
-7.401674747467041016e+00 -3.184171676635742188e+00 5.309429764747619629e-01
-5.875256538391113281e+00 -2.784399032592773438e+00 3.669139444828033447e-01
-5.757181644439697266e+00 -2.988981723785400391e+00 3.047771453857421875e-01
-5.580426216125488281e+00 -3.156891822814941406e+00 2.407012134790420532e-01
-6.056898593902587891e+00 -2.604401588439941406e+00 1.956785470247268677e-01
-5.909673690795898438e+00 -2.798184156417846680e+00 1.323986202478408813e-01
-5.481593132019042969e+00 -2.842260360717773438e+00 6.574095040559768677e-02
-4.254383087158203125e+00 -2.404778480529785156e+00 5.970595404505729675e-03
-5.915756225585937500e+00 -2.759269714355468750e+00 3.683789074420928955e-01
-5.778080940246582031e+00 -2.954964399337768555e+00 3.049179315567016602e-01
-5.608418941497802734e+00 -3.127458095550537109e+00 2.410763651132583618e-01
-6.082892417907714844e+00 -2.571469545364379883e+00 1.960048824548721313e-01
-5.868732929229736328e+00 -2.734842777252197266e+00 1.311029791831970215e-01
-5.450841903686523438e+00 -2.784011602401733398e+00 6.516604870557785034e-02
-4.335448741912841797e+00 -2.415620088577270508e+00 6.063447333872318268e-03
-5.963427543640136719e+00 -2.737079620361328125e+00 3.702946305274963379e-01
-5.801456451416015625e+00 -2.922151327133178711e+00 3.051995337009429932e-01
-5.646770000457763672e+00 -3.103575944900512695e+00 2.419017255306243896e-01
-6.121632575988769531e+00 -2.543685913085937500e+00 1.967465430498123169e-01
-5.899034976959228516e+00 -2.705032348632812500e+00 1.314066350460052490e-01
-5.454422473907470703e+00 -2.743773221969604492e+00 6.500636041164398193e-02
-4.394891738891601562e+00 -2.413522005081176758e+00 6.125755608081817627e-03
-7.353726387023925781e+00 -3.004369497299194336e+00 5.234472751617431641e-01
-5.966460227966308594e+00 -2.694273471832275391e+00 3.694494366645812988e-01
-5.828226089477539062e+00 -2.890938043594360352e+00 3.056688606739044189e-01
-5.671857357025146484e+00 -3.072201251983642578e+00 2.421643286943435669e-01
-6.153781414031982422e+00 -2.512877941131591797e+00 1.972805261611938477e-01
-5.994809150695800781e+00 -2.704555988311767578e+00 1.331679075956344604e-01
-5.466674804687500000e+00 -2.708034515380859375e+00 6.495312601327896118e-02
-4.294408798217773438e+00 -2.324157953262329102e+00 5.965708754956722260e-03
-5.991092205047607422e+00 -2.661261320114135742e+00 3.699565529823303223e-01
-5.855727672576904297e+00 -2.859944343566894531e+00 3.061850965023040771e-01
-5.695009231567382812e+00 -3.039694309234619141e+00 2.423519194126129150e-01
-6.167229175567626953e+00 -2.474327325820922852e+00 1.972212046384811401e-01
-6.013118267059326172e+00 -2.668532609939575195e+00 1.332083940505981445e-01
-5.580251693725585938e+00 -2.721783638000488281e+00 6.610292196273803711e-02
-4.298000335693359375e+00 -2.292117595672607422e+00 5.951047874987125397e-03
-6.018287181854248047e+00 -2.629246950149536133e+00 3.706327080726623535e-01
-5.877666950225830078e+00 -2.826124668121337891e+00 3.064197599887847900e-01
-5.712668418884277344e+00 -3.004227876663208008e+00 2.423143833875656128e-01
-6.170206069946289062e+00 -2.431674957275390625e+00 1.968355327844619751e-01
-5.982646942138671875e+00 -2.611189842224121094e+00 1.321759372949600220e-01
-5.577917575836181641e+00 -2.678402900695800781e+00 6.587935239076614380e-02
-4.361556529998779297e+00 -2.291750192642211914e+00 6.019464693963527679e-03
-8.307583808898925781e+00 -3.216931343078613281e+00 5.870289206504821777e-01
-6.050818920135498047e+00 -2.599363327026367188e+00 3.716468811035156250e-01
-5.910246372222900391e+00 -2.797271490097045898e+00 3.072176277637481689e-01
-5.754951477050781250e+00 -2.981530666351318359e+00 2.433273196220397949e-01
-6.221364974975585938e+00 -2.407840013504028320e+00 1.979925185441970825e-01
-6.065625190734863281e+00 -2.603216171264648438e+00 1.336537748575210571e-01
-5.607807636260986328e+00 -2.650536537170410156e+00 6.603904813528060913e-02
-4.291169643402099609e+00 -2.221273422241210938e+00 5.903400480747222900e-03
-6.067574024200439453e+00 -2.562575578689575195e+00 3.717032074928283691e-01
-5.936353683471679688e+00 -2.765171766281127930e+00 3.076869249343872070e-01
-5.783818244934082031e+00 -2.951613426208496094e+00 2.437774986028671265e-01
-6.245366096496582031e+00 -2.373171806335449219e+00 1.982891857624053955e-01
-6.102670669555664062e+00 -2.574888706207275391e+00 1.341194063425064087e-01
-5.617618560791015625e+00 -2.613125562667846680e+00 6.596451997756958008e-02
-4.309172630310058594e+00 -2.197172880172729492e+00 5.909509491175413132e-03
-6.095170974731445312e+00 -2.530273675918579102e+00 3.724356889724731445e-01
-5.959564685821533203e+00 -2.731608629226684570e+00 3.080154657363891602e-01
-5.811642169952392578e+00 -2.921005487442016602e+00 2.441901862621307373e-01
-6.267302513122558594e+00 -2.337600708007812500e+00 1.985265165567398071e-01
-6.144213676452636719e+00 -2.548118829727172852e+00 1.346862465143203735e-01
-5.650822162628173828e+00 -2.586514711380004883e+00 6.616680324077606201e-02
-4.351170063018798828e+00 -2.185051441192626953e+00 5.948604550212621689e-03
-6.137390613555908203e+00 -2.503763675689697266e+00 3.740696907043457031e-01
-5.972571372985839844e+00 -2.693347454071044922e+00 3.078277409076690674e-01
-5.837515830993652344e+00 -2.889280557632446289e+00 2.445278167724609375e-01
-6.285282135009765625e+00 -2.300475358963012695e+00 1.986451745033264160e-01
-6.151400566101074219e+00 -2.506974935531616211e+00 1.345040500164031982e-01
-5.684821605682373047e+00 -2.560004949569702148e+00 6.637972593307495117e-02
-4.430827617645263672e+00 -2.191114425659179688e+00 6.039012689143419266e-03
-6.169319629669189453e+00 -2.472744464874267578e+00 3.750838935375213623e-01
-6.004507541656494141e+00 -2.663535356521606445e+00 3.086255788803100586e-01
-5.856931209564208984e+00 -2.854283332824707031e+00 2.446028590202331543e-01
-6.313390731811523438e+00 -2.266933202743530273e+00 1.990901827812194824e-01
-6.167595386505126953e+00 -2.469554901123046875e+00 1.345242857933044434e-01
-5.739735603332519531e+00 -2.542489767074584961e+00 6.683751940727233887e-02
-4.306628227233886719e+00 -2.096907854080200195e+00 5.852087866514921188e-03
-6.185304641723632812e+00 -2.435209274291992188e+00 3.751402497291564941e-01
-6.051866531372070312e+00 -2.640222787857055664e+00 3.102212548255920410e-01
-5.882442951202392578e+00 -2.822182416915893555e+00 2.449404895305633545e-01
-6.333781242370605469e+00 -2.230476379394531250e+00 1.992978453636169434e-01
-6.190075397491455078e+00 -2.434592247009277344e+00 1.346862465143203735e-01
-5.794647216796875000e+00 -2.524396181106567383e+00 6.729531288146972656e-02
-4.411392688751220703e+00 -2.114531993865966797e+00 5.976704414933919907e-03
-6.700071811676025391e+00 -2.314666271209716797e+00 4.670982956886291504e-01
-6.203855037689208984e+00 -2.398651361465454102e+00 3.753656148910522461e-01
-6.058773040771484375e+00 -2.599101543426513672e+00 3.097519576549530029e-01
-5.902359962463378906e+00 -2.787315607070922852e+00 2.450530529022216797e-01
-6.377582550048828125e+00 -2.202010393142700195e+00 2.002471685409545898e-01
-6.236607074737548828e+00 -2.408812522888183594e+00 1.353745460510253906e-01
-5.813704490661621094e+00 -2.490368366241455078e+00 6.733790040016174316e-02
-3.679065465927124023e+00 -1.735822319984436035e+00 4.969998728483915329e-03
-6.224056720733642578e+00 -2.362666130065917969e+00 3.757036626338958740e-01
-6.070004463195800781e+00 -2.559935808181762695e+00 3.095172941684722900e-01
-5.918444633483886719e+00 -2.750625610351562500e+00 2.450155168771743774e-01
-6.415590763092041016e+00 -2.171167612075805664e+00 2.010184824466705322e-01
-6.267162322998046875e+00 -2.376526355743408203e+00 1.357187032699584961e-01
-5.788326740264892578e+00 -2.437573432922363281e+00 6.686946004629135132e-02
-4.343588829040527344e+00 -2.016860246658325195e+00 5.850865971297025681e-03
-8.557706832885742188e+00 -2.839359045028686523e+00 5.941300392150878906e-01
-6.249663829803466797e+00 -2.328614711761474609e+00 3.763798177242279053e-01
-6.105898380279541016e+00 -2.531057834625244141e+00 3.105497956275939941e-01
-5.967018127441406250e+00 -2.728804826736450195e+00 2.463285773992538452e-01
-6.433535575866699219e+00 -2.133334398269653320e+00 2.011668086051940918e-01
-6.290059566497802734e+00 -2.341165781021118164e+00 1.359008997678756714e-01
-5.778228759765625000e+00 -2.391685485839843750e+00 6.658200919628143311e-02
-4.354972362518310547e+00 -1.989754915237426758e+00 5.849644076079130173e-03
-6.286339282989501953e+00 -2.298451900482177734e+00 3.777320683002471924e-01
-6.147216320037841797e+00 -2.504096746444702148e+00 3.118638992309570312e-01
-6.001875877380371094e+00 -2.700340747833251953e+00 2.470788955688476562e-01
-6.463616371154785156e+00 -2.099376916885375977e+00 2.017008066177368164e-01
-6.312757968902587891e+00 -2.305613517761230469e+00 1.360830962657928467e-01
-5.789090156555175781e+00 -2.354679107666015625e+00 6.653942912817001343e-02
-4.361627101898193359e+00 -1.960536003112792969e+00 5.842313636094331741e-03
-6.331336498260498047e+00 -2.270960330963134766e+00 3.795914351940155029e-01
-6.172666549682617188e+00 -2.470413684844970703e+00 3.123801350593566895e-01
-6.038435459136962891e+00 -2.672360181808471680e+00 2.479042410850524902e-01
-6.525908946990966797e+00 -2.075430154800415039e+00 2.032434493303298950e-01
-6.353140354156494141e+00 -2.276278257369995117e+00 1.366499513387680054e-01
-5.761644363403320312e+00 -2.302415847778320312e+00 6.606034189462661743e-02
-4.390951633453369141e+00 -1.941419839859008789e+00 5.865526851266622543e-03
-6.993708610534667969e+00 -2.178381443023681641e+00 4.826813936233520508e-01
-6.349860668182373047e+00 -2.233725786209106445e+00 3.798731267452239990e-01
-6.195146083831787109e+00 -2.435416221618652344e+00 3.127556145191192627e-01
-6.059300422668457031e+00 -2.637252807617187500e+00 2.480918169021606445e-01
-6.559516906738281250e+00 -2.041884660720825195e+00 2.038961052894592285e-01
-6.383965969085693359e+00 -2.243219137191772461e+00 1.370143443346023560e-01
-5.766355037689208984e+00 -2.263366222381591797e+00 6.595387309789657593e-02
-4.461472988128662109e+00 -1.939961552619934082e+00 5.943717435002326965e-03
-6.370054244995117188e+00 -2.197000503540039062e+00 3.802675604820251465e-01
-6.198790550231933594e+00 -2.393040657043457031e+00 3.121924102306365967e-01
-6.085474014282226562e+00 -2.604348897933959961e+00 2.485045045614242554e-01
-6.575747489929199219e+00 -2.002762794494628906e+00 2.040147632360458374e-01
-6.362635135650634766e+00 -2.191956758499145508e+00 1.362653076648712158e-01
-5.322015762329101562e+00 -2.051360845565795898e+00 6.072654202580451965e-02
-4.499037742614746094e+00 -1.923557400703430176e+00 5.977925844490528107e-03
-6.395710468292236328e+00 -2.162029504776000977e+00 3.810000121593475342e-01
-6.231104373931884766e+00 -2.361686944961547852e+00 3.130841255187988281e-01
-6.092128276824951172e+00 -2.563084840774536133e+00 2.481293380260467529e-01
-6.592702388763427734e+00 -1.963803887367248535e+00 2.041631042957305908e-01
-6.401540756225585938e+00 -2.161510705947875977e+00 1.368119120597839355e-01
-5.409320354461669922e+00 -2.046979188919067383e+00 6.157824397087097168e-02
-4.501537322998046875e+00 -1.892040967941284180e+00 5.965708754956722260e-03
-6.258584976196289062e+00 -2.328285217285156250e+00 3.137411773204803467e-01
-6.115128040313720703e+00 -2.528710842132568359e+00 2.484294623136520386e-01
-6.608466148376464844e+00 -1.924432635307312012e+00 2.042817622423171997e-01
-6.422276496887207031e+00 -2.124703168869018555e+00 1.369738578796386719e-01
-5.828598976135253906e+00 -2.164850711822509766e+00 6.619874387979507446e-02
-4.452062129974365234e+00 -1.839184880256652832e+00 5.885074846446514130e-03
-1.115924072265625000e+01 -3.177608728408813477e+00 7.645577788352966309e-01
-6.582256793975830078e+00 -2.135450839996337891e+00 3.905222117900848389e-01
-6.296211719512939453e+00 -2.298402786254882812e+00 3.149144947528839111e-01
-6.144415378570556641e+00 -2.496784210205078125e+00 2.489921897649765015e-01
-6.645146369934082031e+00 -1.890960574150085449e+00 2.050530910491943359e-01
-6.458970069885253906e+00 -2.092961788177490234e+00 1.374799758195877075e-01
-5.279016017913818359e+00 -1.923948407173156738e+00 5.982160568237304688e-02
-4.482721328735351562e+00 -1.819731712341308594e+00 5.910730920732021332e-03
-6.585720539093017578e+00 -2.092000007629394531e+00 3.899587988853454590e-01
-6.326182842254638672e+00 -2.265451669692993164e+00 3.157123327255249023e-01
-6.159619808197021484e+00 -2.459035873413085938e+00 2.489921897649765015e-01
-6.669143676757812500e+00 -1.853630900382995605e+00 2.054387480020523071e-01
-6.497421264648437500e+00 -2.061454534530639648e+00 1.380265653133392334e-01
-5.662644863128662109e+00 -2.024489402770996094e+00 6.402689963579177856e-02
-4.696292877197265625e+00 -1.872947931289672852e+00 6.177068222314119339e-03
-6.584131717681884766e+00 -2.047104835510253906e+00 3.891136050224304199e-01
-6.355043888092041016e+00 -2.231888294219970703e+00 3.164632618427276611e-01
-6.202502250671386719e+00 -2.432139158248901367e+00 2.501176595687866211e-01
-6.686179637908935547e+00 -1.814245462417602539e+00 2.056167423725128174e-01
-6.515676498413085938e+00 -2.023327350616455078e+00 1.381480395793914795e-01
-6.081662178039550781e+00 -2.132300376892089844e+00 6.861545145511627197e-02
-4.761701107025146484e+00 -1.865251421928405762e+00 6.247928366065025330e-03
