-5.431497097015380859e-01 -5.981221675872802734e+00 7.778897881507873535e-01
-3.225267231464385986e-01 -5.938490390777587891e+00 7.144300341606140137e-01
-7.935980558395385742e-01 -5.947493553161621094e+00 1.288523674011230469e+00
-5.593094229698181152e-01 -5.808318138122558594e+00 1.193546772003173828e+00
-3.546649217605590820e-01 -5.969140052795410156e+00 1.164495825767517090e+00
-1.364663988351821899e-01 -5.966199398040771484e+00 1.103904366493225098e+00
-8.025725483894348145e-01 -6.006754398345947266e+00 1.070746421813964844e+00
-5.775029659271240234e-01 -5.975392341613769531e+00 1.000288963317871094e+00
-3.563607037067413330e-01 -5.980052471160888672e+00 9.402549862861633301e-01
-1.405308842658996582e-01 -5.961831569671630859e+00 8.795477151870727539e-01
-7.981514334678649902e-01 -5.965732574462890625e+00 8.384021520614624023e-01
-5.799353122711181641e-01 -5.978763580322265625e+00 7.780182361602783203e-01
-3.597375750541687012e-01 -5.949283599853515625e+00 7.159805297851562500e-01
-1.435127556324005127e-01 -5.955958843231201172e+00 6.587873101234436035e-01
-5.945608615875244141e-01 -5.821130275726318359e+00 1.423175811767578125e+00
-8.369744420051574707e-01 -5.991896152496337891e+00 1.299231648445129395e+00
-5.892443656921386719e-01 -5.749224185943603516e+00 1.182124257087707520e+00
-3.912199437618255615e-01 -5.965871810913085938e+00 1.164304614067077637e+00
-1.731002628803253174e-01 -5.966232776641845703e+00 1.104086279869079590e+00
-8.402326107025146484e-01 -6.007568359375000000e+00 1.071790337562561035e+00
-6.147618889808654785e-01 -5.977623939514160156e+00 1.001275181770324707e+00
-3.932413756847381592e-01 -5.980710506439208984e+00 9.407202005386352539e-01
-1.771681010723114014e-01 -5.962834358215332031e+00 8.798395395278930664e-01
-8.350161910057067871e-01 -5.962685108184814453e+00 8.386781215667724609e-01
-6.151841878890991211e-01 -5.961281776428222656e+00 7.762199640274047852e-01
-3.964989781379699707e-01 -5.950926780700683594e+00 7.164576649665832520e-01
-1.791539490222930908e-01 -5.925161361694335938e+00 6.554901003837585449e-01
-4.808342084288597107e-02 -7.178909778594970703e-01 6.003868579864501953e-02
-4.222840666770935059e-01 -5.988716602325439453e+00 1.637891292572021484e+00
-1.987263411283493042e-01 -5.948429107666015625e+00 1.564743041992187500e+00
-6.073467731475830078e-01 -5.605813980102539062e+00 1.371419668197631836e+00
-2.064376324415206909e-01 -6.021772861480712891e+00 1.346816420555114746e+00
-8.850199580192565918e-01 -6.064044475555419922e+00 1.316028475761413574e+00
-6.210162043571472168e-01 -5.713358879089355469e+00 1.175511240959167480e+00
-4.284506440162658691e-01 -5.972170352935791016e+00 1.166025042533874512e+00
-2.099469453096389771e-01 -5.971937179565429688e+00 1.105359435081481934e+00
-8.800686001777648926e-01 -6.022762298583984375e+00 1.075444102287292480e+00
-6.530323028564453125e-01 -5.988447666168212891e+00 1.003740549087524414e+00
-4.304978251457214355e-01 -5.986068248748779297e+00 9.419606328010559082e-01
-2.141419649124145508e-01 -5.972510814666748047e+00 8.814445734024047852e-01
-8.728771805763244629e-01 -5.966269016265869141e+00 8.399197459220886230e-01
-6.520739197731018066e-01 -5.960352897644042969e+00 7.766053080558776855e-01
-4.330056905746459961e-01 -5.948381900787353516e+00 7.164576649665832520e-01
-2.148201167583465576e-01 -5.905077934265136719e+00 6.534017920494079590e-01
-4.647755920886993408e-01 -6.061041831970214844e+00 1.658420681953430176e+00
-6.824277043342590332e-01 -5.957234382629394531e+00 1.458388924598693848e+00
-2.402290105819702148e-01 -5.942383289337158203e+00 1.329365015029907227e+00
-9.242714047431945801e-01 -6.072031974792480469e+00 1.318967819213867188e+00
-6.637781262397766113e-01 -5.776599407196044922e+00 1.189338445663452148e+00
-4.664595425128936768e-01 -5.987043857574462891e+00 1.169465780258178711e+00
-2.469107508659362793e-01 -5.978396892547607422e+00 1.106814742088317871e+00
-9.167103171348571777e-01 -6.015301704406738281e+00 1.075096249580383301e+00
-6.905550360679626465e-01 -5.991187572479248047e+00 1.004891037940979004e+00
-4.672964513301849365e-01 -5.984298706054687500e+00 9.421156644821166992e-01
-2.508676052093505859e-01 -5.973061084747314453e+00 8.817363977432250977e-01
-9.109629988670349121e-01 -5.970592498779296875e+00 8.412994146347045898e-01
-6.872668862342834473e-01 -5.944417476654052734e+00 7.750639319419860840e-01
-4.699651002883911133e-01 -5.951551914215087891e+00 7.171732783317565918e-01
-2.502466142177581787e-01 -5.884780883789062500e+00 6.513135433197021484e-01
-9.169111251831054688e-01 -5.995540618896484375e+00 6.214334368705749512e-01
-5.025940537452697754e-01 -6.065767765045166016e+00 1.660526394844055176e+00
-7.327156066894531250e-01 -6.066765308380126953e+00 1.486275792121887207e+00
-9.627358317375183105e-01 -6.073971748352050781e+00 1.320647597312927246e+00
-7.087528705596923828e-01 -5.851199150085449219e+00 1.205570340156555176e+00
-5.013771057128906250e-01 -5.962550640106201172e+00 1.165260434150695801e+00
-2.836354672908782959e-01 -5.977751255035400391e+00 1.106996536254882812e+00
-9.559171795845031738e-01 -6.024152278900146484e+00 1.077706098556518555e+00
-7.275411486625671387e-01 -5.988795757293701172e+00 1.005219697952270508e+00
-5.038407444953918457e-01 -5.979350090026855469e+00 9.418056011199951172e-01
-2.873701751232147217e-01 -5.968444824218750000e+00 8.812986612319946289e-01
-9.489792585372924805e-01 -5.973693847656250000e+00 8.425410389900207520e-01
-7.244479060173034668e-01 -5.945995330810546875e+00 7.758346199989318848e-01
-5.077376961708068848e-01 -5.963395118713378906e+00 7.189623117446899414e-01
-2.851905524730682373e-01 -5.859308242797851562e+00 6.486757993698120117e-01
-5.423702597618103027e-01 -6.091397762298583984e+00 1.668422341346740723e+00
-7.644177079200744629e-01 -6.018778324127197266e+00 1.475640892982482910e+00
-1.000940799713134766e+00 -6.073738574981689453e+00 1.321907401084899902e+00
-7.592474818229675293e-01 -5.961420059204101562e+00 1.229216814041137695e+00
-5.438657402992248535e-01 -6.024859905242919922e+00 1.178067564964294434e+00
-3.204141557216644287e-01 -5.977861881256103516e+00 1.107360363006591797e+00
-9.938244223594665527e-01 -6.024003028869628906e+00 1.078750014305114746e+00
-7.653987407684326172e-01 -5.993025302886962891e+00 1.006698966026306152e+00
-5.414097309112548828e-01 -5.985984802246093750e+00 9.433560967445373535e-01
-3.244692087173461914e-01 -5.975460052490234375e+00 8.826118111610412598e-01
-9.898114204406738281e-01 -5.993165493011474609e+00 8.461281061172485352e-01
-7.629338502883911133e-01 -5.957177162170410156e+00 7.778897881507873535e-01
-5.414292812347412109e-01 -5.928527832031250000e+00 7.151456475257873535e-01
-3.226063251495361328e-01 -5.884244441986083984e+00 6.516433358192443848e-01
-1.049058675765991211e+00 -6.338136672973632812e+00 6.582281589508056641e-01
-1.033737421035766602e+00 -6.041462421417236328e+00 1.316238522529602051e+00
-7.995741367340087891e-01 -5.984810352325439453e+00 1.235028266906738281e+00
-5.726241469383239746e-01 -5.936408519744873047e+00 1.161437392234802246e+00
-3.570289611816406250e-01 -5.974802017211914062e+00 1.107178449630737305e+00
-1.036587119102478027e+00 -6.051763057708740234e+00 1.084839701652526855e+00
-8.045141696929931641e-01 -6.005813598632812500e+00 1.009657382965087891e+00
-5.784139633178710938e-01 -5.985500335693359375e+00 9.438213109970092773e-01
-3.616650998592376709e-01 -5.982243537902832031e+00 8.839250206947326660e-01
-1.028574824333190918e+00 -5.998693943023681641e+00 8.477836847305297852e-01
-8.064687252044677734e-01 -6.004476547241210938e+00 7.846975922584533691e-01
-5.749049782752990723e-01 -5.895448684692382812e+00 7.115675210952758789e-01
-3.594917953014373779e-01 -5.895051479339599609e+00 6.530721187591552734e-01
-1.088434457778930664e+00 -6.334522247314453125e+00 6.585339307785034180e-01
-1.004605591297149658e-01 -7.420773506164550781e-01 1.516308262944221497e-02
-5.818009972572326660e-01 -5.706671714782714844e+00 1.336978673934936523e+00
-8.404877185821533203e-01 -6.009870529174804688e+00 1.241240501403808594e+00
-6.084370613098144531e-01 -5.926924228668212891e+00 1.160290479660034180e+00
-3.937475979328155518e-01 -5.973480224609375000e+00 1.107360363006591797e+00
-1.075422644615173340e+00 -6.054984569549560547e+00 1.086579680442810059e+00
-8.420348167419433594e-01 -6.005648612976074219e+00 1.010479211807250977e+00
-6.163420677185058594e-01 -5.993631362915039062e+00 9.456819891929626465e-01
-3.977728486061096191e-01 -5.971028327941894531e+00 8.826118111610412598e-01
-1.071777343750000000e+00 -6.028349876403808594e+00 8.528882861137390137e-01
-8.412256836891174316e-01 -5.984684467315673828e+00 7.827708721160888672e-01
-6.106582283973693848e-01 -5.887859821319580078e+00 7.110904455184936523e-01
-3.968549370765686035e-01 -5.910585403442382812e+00 6.550504565238952637e-01
-1.132865071296691895e+00 -6.359064102172851562e+00 6.617955565452575684e-01
-6.160724759101867676e-01 -5.696216583251953125e+00 1.335389733314514160e+00
-8.786225914955139160e-01 -6.013324737548828125e+00 1.243044018745422363e+00
-6.444738507270812988e-01 -5.920152187347412109e+00 1.159717082977294922e+00
-4.314531981945037842e-01 -5.985662937164306641e+00 1.110088706016540527e+00
-1.114158391952514648e+00 -6.056988239288330078e+00 1.088145613670349121e+00
-8.798695802688598633e-01 -6.007200717926025391e+00 1.011629700660705566e+00
-6.539633870124816895e-01 -5.997592926025390625e+00 9.469224214553833008e-01
-4.356237649917602539e-01 -5.985249042510986328e+00 8.850923180580139160e-01
-1.109822630882263184e+00 -6.027504444122314453e+00 8.537160158157348633e-01
-8.770667910575866699e-01 -5.973523139953613281e+00 7.820001840591430664e-01
-6.525235772132873535e-01 -5.936308860778808594e+00 7.174118161201477051e-01
-4.334774613380432129e-01 -5.912995338439941406e+00 6.555999517440795898e-01
-1.176374077796936035e+00 -6.376450061798095703e+00 6.643435955047607422e-01
-6.471390724182128906e-01 -5.658463001251220703e+00 1.327445030212402344e+00
-9.186025261878967285e-01 -6.028160095214843750e+00 1.247252345085144043e+00
-6.795527935028076172e-01 -5.905359745025634766e+00 1.157614350318908691e+00
-4.687860906124114990e-01 -5.990745544433593750e+00 1.111543774604797363e+00
-1.155352473258972168e+00 -6.071321010589599609e+00 1.091973423957824707e+00
-9.173082709312438965e-01 -6.005589485168457031e+00 1.012287139892578125e+00
-6.909778118133544922e-01 -5.995430469512939453e+00 9.472324848175048828e-01
-4.728854298591613770e-01 -5.989367008209228516e+00 8.861137032508850098e-01
-1.148824334144592285e+00 -6.031283855438232422e+00 8.552336692810058594e-01
-9.140033125877380371e-01 -5.969989299774169922e+00 7.822570204734802246e-01
-7.177988886833190918e-01 -6.180723667144775391e+00 7.474679350852966309e-01
-4.680182635784149170e-01 -5.888426303863525391e+00 6.531820297241210938e-01
-1.214917778968811035e+00 -6.366180896759033203e+00 6.640378832817077637e-01
-5.027132630348205566e-01 -6.080909252166748047e+00 1.604153990745544434e+00
-7.241705060005187988e-01 -6.005368232727050781e+00 1.409842967987060547e+00
-9.601792097091674805e-01 -6.051438331604003906e+00 1.253264069557189941e+00
-7.188475728034973145e-01 -5.926414012908935547e+00 1.162584304809570312e+00
-5.071903467178344727e-01 -6.007353305816650391e+00 1.115181803703308105e+00
-1.194293856620788574e+00 -6.072813510894775391e+00 1.093539357185363770e+00
-9.546053409576416016e-01 -6.002770423889160156e+00 1.012780189514160156e+00
-7.287050485610961914e-01 -5.998923301696777344e+00 9.484729170799255371e-01
-5.087034702301025391e-01 -5.975509166717529297e+00 8.845086693763732910e-01
-1.191548705101013184e+00 -6.053274631500244141e+00 8.593724966049194336e-01
-9.484319090843200684e-01 -5.950557708740234375e+00 7.804587483406066895e-01
-7.613770961761474609e-01 -6.222522258758544922e+00 7.530736327171325684e-01
-5.053277611732482910e-01 -5.899308204650878906e+00 6.547207236289978027e-01
-1.252609729766845703e+00 -6.351774215698242188e+00 6.633244156837463379e-01
-1.207414627075195312e+00 -6.111358642578125000e+00 4.104863107204437256e-01
-5.401867032051086426e-01 -6.079636573791503906e+00 1.604662537574768066e+00
-7.719098329544067383e-01 -6.086799621582031250e+00 1.430045127868652344e+00
-9.998435378074645996e-01 -6.060899257659912109e+00 1.256470441818237305e+00
-7.668697834014892578e-01 -6.013416767120361328e+00 1.180552482604980469e+00
-5.435975193977355957e-01 -5.999231815338134766e+00 1.114272236824035645e+00
-1.233101010322570801e+00 -6.073091506958007812e+00 1.094931244850158691e+00
-9.938331246376037598e-01 -6.011398315429687500e+00 1.015245676040649414e+00
-7.655000686645507812e-01 -5.994338989257812500e+00 9.484729170799255371e-01
-5.467983484268188477e-01 -5.988038539886474609e+00 8.868432044982910156e-01
-1.230838179588317871e+00 -6.056526184082031250e+00 8.608901500701904297e-01
-9.969214797019958496e-01 -6.017026424407958984e+00 7.899640202522277832e-01
-7.937184572219848633e-01 -6.172434806823730469e+00 7.475872039794921875e-01
-5.423338413238525391e-01 -5.905004501342773438e+00 6.557098627090454102e-01
-1.260402083396911621e+00 -6.190926074981689453e+00 6.473222374916076660e-01
-1.320265889167785645e+00 -6.473408699035644531e+00 4.353403151035308838e-01
-5.770229697227478027e-01 -6.071393489837646484e+00 1.603391170501708984e+00
-8.068026304244995117e-01 -6.063606262207031250e+00 1.425732254981994629e+00
-5.622631311416625977e-01 -5.861777782440185547e+00 1.316276431083679199e+00
-1.038667559623718262e+00 -6.064306735992431641e+00 1.258474349975585938e+00
-8.083079457283020020e-01 -6.042650222778320312e+00 1.187242865562438965e+00
-5.801136493682861328e-01 -5.992846965789794922e+00 1.113726496696472168e+00
-1.268322944641113281e+00 -6.055772781372070312e+00 1.093191385269165039e+00
-1.037374138832092285e+00 -6.044074058532714844e+00 1.021820068359375000e+00
-8.027908205986022949e-01 -5.993445873260498047e+00 9.490931630134582520e-01
-5.844900608062744141e-01 -5.994417190551757812e+00 8.883023262023925781e-01
-1.273057222366333008e+00 -6.073093891143798828e+00 8.643392324447631836e-01
-1.024408817291259766e+00 -5.956063747406005859e+00 7.827708721160888672e-01
-8.323729038238525391e-01 -6.173352241516113281e+00 7.483028173446655273e-01
-5.792348980903625488e-01 -5.908489704132080078e+00 6.564792394638061523e-01
-1.257682681083679199e+00 -5.989337444305419922e+00 6.270393133163452148e-01
-1.365096092224121094e+00 -6.489597797393798828e+00 4.369841217994689941e-01
-6.129991412162780762e-01 -6.055230140686035156e+00 1.600085735321044922e+00
-8.400962948799133301e-01 -6.030569076538085938e+00 1.419149518013000488e+00
-5.853313803672790527e-01 -5.732004165649414062e+00 1.287917733192443848e+00
-1.078941583633422852e+00 -6.075182437896728516e+00 1.262081503868103027e+00
-8.400614857673645020e-01 -5.999665260314941406e+00 1.179787993431091309e+00
-6.179823875427246094e-01 -5.999934196472167969e+00 1.115727424621582031e+00
-1.308573246002197266e+00 -6.062314987182617188e+00 1.095801234245300293e+00
-1.075477242469787598e+00 -6.043422222137451172e+00 1.022806167602539062e+00
-8.413338661193847656e-01 -6.001125812530517578e+00 9.511088728904724121e-01
-6.214641928672790527e-01 -5.992685794830322266e+00 8.885941505432128906e-01
-1.314898252487182617e+00 -6.086466789245605469e+00 8.673744201660156250e-01
-1.073992371559143066e+00 -6.022889614105224609e+00 7.924045324325561523e-01
-8.755070567131042480e-01 -6.205487251281738281e+00 7.528350949287414551e-01
-6.528825759887695312e-01 -6.263681411743164062e+00 6.963757872581481934e-01
-1.299037814140319824e+00 -6.002898216247558594e+00 6.292816400527954102e-01
-1.305537104606628418e+00 -6.022760868072509766e+00 4.060809314250946045e-01
-6.195454001426696777e-01 -5.719573020935058594e+00 1.285954475402832031e+00
-1.122755527496337891e+00 -6.104099750518798828e+00 1.269496083259582520e+00
-8.794161677360534668e-01 -6.011879920959472656e+00 1.183228611946105957e+00
-6.571340560913085938e-01 -6.017534255981445312e+00 1.119729042053222656e+00
-1.348310470581054688e+00 -6.065707206726074219e+00 1.097889184951782227e+00
-1.114326477050781250e+00 -6.046409606933593750e+00 1.024449706077575684e+00
-8.797150254249572754e-01 -6.006602764129638672e+00 9.528145194053649902e-01
-6.574663519859313965e-01 -5.981876373291015625e+00 8.875727653503417969e-01
-1.355875730514526367e+00 -6.094719886779785156e+00 8.697198033332824707e-01
-1.110387682914733887e+00 -6.013260841369628906e+00 7.920192480087280273e-01
-9.257244467735290527e-01 -6.282508373260498047e+00 7.628538608551025391e-01
-6.938129067420959473e-01 -6.282279968261718750e+00 6.989036202430725098e-01
-1.332384586334228516e+00 -5.979279041290283203e+00 6.276508569717407227e-01
-1.179824113845825195e+00 -6.376824855804443359e+00 6.027415394783020020e-01
-1.339424371719360352e+00 -6.001002788543701172e+00 4.051603972911834717e-01
-6.652889847755432129e-01 -5.808743000030517578e+00 1.306896209716796875e+00
-1.158723235130310059e+00 -6.089395523071289062e+00 1.267892837524414062e+00
-9.146595597267150879e-01 -5.995697021484375000e+00 1.181125998497009277e+00
-6.942700743675231934e-01 -6.015343189239501953e+00 1.120092868804931641e+00
-1.392969012260437012e+00 -6.089958190917968750e+00 1.103804826736450195e+00
-1.154730677604675293e+00 -6.056900024414062500e+00 1.027408242225646973e+00
-9.199848175048828125e-01 -6.023552894592285156e+00 9.563807249069213867e-01
-6.939298510551452637e-01 -5.975764274597167969e+00 8.872810006141662598e-01
-1.393025755882263184e+00 -6.085319995880126953e+00 8.695818185806274414e-01
-1.147263526916503906e+00 -6.006334304809570312e+00 7.920192480087280273e-01
-9.766179919242858887e-01 -6.357180118560791016e+00 7.726339697837829590e-01
-7.341899275779724121e-01 -6.293700695037841797e+00 7.006621956825256348e-01
-1.368380665779113770e+00 -5.968081951141357422e+00 6.273450255393981934e-01
-1.217806458473205566e+00 -6.363597393035888672e+00 6.021862626075744629e-01
-1.388280868530273438e+00 -6.045186996459960938e+00 4.087109863758087158e-01
-7.146066427230834961e-01 -5.917910575866699219e+00 1.332419037818908691e+00
-1.193418622016906738e+00 -6.068713188171386719e+00 1.265087366104125977e+00
-9.552807211875915527e-01 -6.014207363128662109e+00 1.185904860496520996e+00
-7.323538064956665039e-01 -6.020730972290039062e+00 1.121911764144897461e+00
-1.438652038574218750e+00 -6.116764545440673828e+00 1.110242605209350586e+00
-1.191301345825195312e+00 -6.046796798706054688e+00 1.026915073394775391e+00
-9.561516046524047852e-01 -6.012916088104248047e+00 9.556054472923278809e-01
-7.325056195259094238e-01 -5.987105369567871094e+00 8.896155357360839844e-01
-1.433061480522155762e+00 -6.088227272033691406e+00 8.712373971939086914e-01
-1.186784625053405762e+00 -6.012803077697753906e+00 7.938175201416015625e-01
-1.013254880905151367e+00 -6.336362361907958984e+00 7.708449363708496094e-01
-7.741269469261169434e-01 -6.299928665161132812e+00 7.018711566925048828e-01
-1.409083127975463867e+00 -5.977001667022705078e+00 6.291797161102294922e-01
-1.256250381469726562e+00 -6.353075027465820312e+00 6.019086241722106934e-01
-1.434060931205749512e+00 -6.073458194732666016e+00 4.112095534801483154e-01
-7.591416239738464355e-01 -5.978279590606689453e+00 1.347034573554992676e+00
-9.980823397636413574e-01 -6.044064998626708984e+00 1.192977428436279297e+00
-7.711533308029174805e-01 -6.030754089355468750e+00 1.124640107154846191e+00
-1.501140952110290527e+00 -6.211198329925537109e+00 1.129033684730529785e+00
-1.234869241714477539e+00 -6.071271419525146484e+00 1.032338976860046387e+00
-9.962506890296936035e-01 -6.026429653167724609e+00 9.587065577507019043e-01
-7.692280411720275879e-01 -5.982498168945312500e+00 8.896155357360839844e-01
-1.479937672615051270e+00 -6.118789196014404297e+00 8.768938779830932617e-01
-1.228408217430114746e+00 -6.028729915618896484e+00 7.969003319740295410e-01
-1.052603363990783691e+00 -6.332963943481445312e+00 7.712027430534362793e-01
-8.066588640213012695e-01 -6.247744083404541016e+00 6.965956091880798340e-01
-1.455333113670349121e+00 -6.007883071899414062e+00 6.333585977554321289e-01
-1.292022228240966797e+00 -6.329637527465820312e+00 6.004279255867004395e-01
-1.473417282104492188e+00 -6.073272228240966797e+00 4.118013381958007812e-01
-1.424958944320678711e+00 -6.968482971191406250e+00 4.013966917991638184e-01
-7.976136803627014160e-01 -5.987052440643310547e+00 1.350088596343994141e+00
-1.039129972457885742e+00 -6.061045646667480469e+00 1.197565078735351562e+00
-8.089270591735839844e-01 -6.031756877899169922e+00 1.125731468200683594e+00
-1.275136709213256836e+00 -6.078061103820800781e+00 1.034804344177246094e+00
-1.037387013435363770e+00 -6.044545173645019531e+00 9.625829458236694336e-01
-8.059214949607849121e-01 -5.977665424346923828e+00 8.896155357360839844e-01
-1.523422598838806152e+00 -6.133624553680419922e+00 8.803429603576660156e-01
-1.273331165313720703e+00 -6.058929443359375000e+00 8.019098639488220215e-01
-1.092961072921752930e+00 -6.335191726684570312e+00 7.722762227058410645e-01
-8.428460359573364258e-01 -6.226917743682861328e+00 6.948370933532714844e-01
-1.502735137939453125e+00 -6.041316986083984375e+00 6.378433108329772949e-01
-1.278939723968505859e+00 -6.075079917907714844e+00 5.770141482353210449e-01
-1.538875102996826172e+00 -6.177401542663574219e+00 4.194942116737365723e-01
-1.465629696846008301e+00 -6.949839115142822266e+00 4.008332192897796631e-01
-8.471414446830749512e-01 -6.073869228363037109e+00 1.370812177658081055e+00
-1.078877210617065430e+00 -6.069051742553710938e+00 1.200432300567626953e+00
-8.441451191902160645e-01 -6.014020442962646484e+00 1.123366832733154297e+00
-1.311156272888183594e+00 -6.064337730407714844e+00 1.033818244934082031e+00
-1.077225446701049805e+00 -6.053628444671630859e+00 9.650638699531555176e-01
-8.442429304122924805e-01 -5.984363079071044922e+00 8.913664817810058594e-01
-1.573750138282775879e+00 -6.174067974090576172e+00 8.875169754028320312e-01
-1.310064196586608887e+00 -6.049063205718994141e+00 8.016529083251953125e-01
-1.124470949172973633e+00 -6.287317276000976562e+00 7.672668099403381348e-01
-8.955312967300415039e-01 -6.323976993560791016e+00 7.062674760818481445e-01
-1.536331057548522949e+00 -6.018488407135009766e+00 6.364163756370544434e-01
-1.314291834831237793e+00 -6.058360576629638672e+00 5.761812925338745117e-01
-1.572795748710632324e+00 -6.152375221252441406e+00 4.184422194957733154e-01
-1.322099924087524414e+00 -6.084101676940917969e+00 3.513629436492919922e-01
-8.845347762107849121e-01 -6.069522380828857422e+00 1.371030330657958984e+00
-1.117517590522766113e+00 -6.070040225982666016e+00 1.201961517333984375e+00
-8.800320029258728027e-01 -6.001917362213134766e+00 1.122093558311462402e+00
-1.352843284606933594e+00 -6.076397895812988281e+00 1.037269711494445801e+00
-1.115244626998901367e+00 -6.051762104034423828e+00 9.658390879631042480e-01
-8.815232515335083008e-01 -5.982985496520996094e+00 8.919501304626464844e-01
-1.619871139526367188e+00 -6.195916652679443359e+00 8.920697569847106934e-01
-1.354279160499572754e+00 -6.072853088378906250e+00 8.058917522430419922e-01
-1.104451775550842285e+00 -5.963990211486816406e+00 7.286232113838195801e-01
-9.367893934249877930e-01 -6.335078716278076172e+00 7.081359028816223145e-01
-1.594899296760559082e+00 -6.091711044311523438e+00 6.451818346977233887e-01
-1.337765455245971680e+00 -5.988961219787597656e+00 5.703510046005249023e-01
-1.618108510971069336e+00 -6.171565532684326172e+00 4.204147756099700928e-01
-1.363984346389770508e+00 -6.096335887908935547e+00 3.525461852550506592e-01
-9.202933311462402344e-01 -6.054332256317138672e+00 1.368848919868469238e+00
-1.154374361038208008e+00 -6.061140537261962891e+00 1.201579213142395020e+00
-9.129783511161804199e-01 -5.971132278442382812e+00 1.117364406585693359e+00
-1.409044742584228516e+00 -6.150671005249023438e+00 1.051404595375061035e+00
-1.154946684837341309e+00 -6.058391571044921875e+00 9.680099487304687500e-01
-9.213718771934509277e-01 -5.997998237609863281e+00 8.950142264366149902e-01
-1.728623390197753906e+00 -6.449903011322021484e+00 9.301475882530212402e-01
-1.397504329681396484e+00 -6.090527057647705078e+00 8.093598484992980957e-01
-1.143266677856445312e+00 -5.968802928924560547e+00 7.300544381141662598e-01
-9.815487265586853027e-01 -6.367522716522216797e+00 7.124223113059997559e-01
-1.654938817024230957e+00 -6.166359424591064453e+00 6.541512012481689453e-01
-1.383854866027832031e+00 -6.021397590637207031e+00 5.742378830909729004e-01
-1.223023176193237305e+00 -6.373156547546386719e+00 5.415123105049133301e-01
-1.668636202812194824e+00 -6.208738803863525391e+00 4.236365854740142822e-01
-1.392630338668823242e+00 -6.049906253814697266e+00 3.503487408161163330e-01
-1.196850657463073730e+00 -6.080909729003906250e+00 1.206931471824645996e+00
-9.480535387992858887e-01 -5.955707073211669922e+00 1.115545511245727539e+00
-1.424820303916931152e+00 -6.048777580261230469e+00 1.035461783409118652e+00
-1.194007992744445801e+00 -6.060883522033691406e+00 9.695604443550109863e-01
-9.597195982933044434e-01 -6.002000331878662109e+00 8.964732885360717773e-01
-1.437581419944763184e+00 -6.093420028686523438e+00 8.109012842178344727e-01
-1.179483652114868164e+00 -5.959727764129638672e+00 7.298159003257751465e-01
-1.020443201065063477e+00 -6.360398769378662109e+00 7.123124003410339355e-01
-1.747076272964477539e+00 -6.353682518005371094e+00 6.751476526260375977e-01
-1.415508985519409180e+00 -5.990505218505859375e+00 5.721093416213989258e-01
-1.267531991004943848e+00 -6.392902851104736328e+00 5.438407063484191895e-01
-1.176034659147262573e-01 -7.305738329887390137e-01 5.473020672798156738e-02
-1.717826366424560547e+00 -6.238788604736328125e+00 4.263981282711029053e-01
-1.441452264785766602e+00 -6.090797901153564453e+00 3.532223105430603027e-01
-1.240785598754882812e+00 -6.106156349182128906e+00 1.213430643081665039e+00
-9.980644583702087402e-01 -6.031268596649169922e+00 1.130824446678161621e+00
-1.232552647590637207e+00 -6.060219764709472656e+00 9.706458449363708496e-01
-9.986376762390136719e-01 -6.008685588836669922e+00 8.983701467514038086e-01
-1.476811885833740234e+00 -6.092195034027099609e+00 8.119288682937622070e-01
-1.223183870315551758e+00 -5.987397670745849609e+00 7.341096401214599609e-01
-1.058960199356079102e+00 -6.351076126098632812e+00 7.119826674461364746e-01
-1.459286808967590332e+00 -6.010735034942626953e+00 5.748856663703918457e-01
-1.306933999061584473e+00 -6.385981082916259766e+00 5.439238548278808594e-01
-1.478325724601745605e+00 -6.079897880554199219e+00 3.531095981597900391e-01
-1.410369396209716797e+00 -6.879164695739746094e+00 3.299327492713928223e-01
-1.283867001533508301e+00 -6.125327110290527344e+00 1.218782901763916016e+00
-1.036717653274536133e+00 -6.034721851348876953e+00 1.132643342018127441e+00
-1.593397974967956543e+00 -6.410875797271728516e+00 1.100712418556213379e+00
-1.275190591812133789e+00 -6.078648090362548828e+00 9.748322963714599609e-01
-1.035992026329040527e+00 -6.005370140075683594e+00 8.988078832626342773e-01
-1.523747086524963379e+00 -6.121513366699218750e+00 8.170669078826904297e-01
-1.262764573097229004e+00 -5.993381023406982422e+00 7.357794046401977539e-01
-1.101299405097961426e+00 -6.364046573638916016e+00 7.141808271408081055e-01
-1.503125071525573730e+00 -6.029685974121093750e+00 5.775694251060485840e-01
-1.337655544281005859e+00 -6.337864398956298828e+00 5.405144691467285156e-01
-1.524067878723144531e+00 -6.104616641998291016e+00 3.550816774368286133e-01
-1.343249559402465820e+00 -6.353392601013183594e+00 3.051056861877441406e-01
-1.321427106857299805e+00 -6.117334365844726562e+00 1.218782901763916016e+00
-1.079761505126953125e+00 -6.062129974365234375e+00 1.139009594917297363e+00
-1.642456173896789551e+00 -6.439210414886474609e+00 1.107286691665649414e+00
-1.312882065773010254e+00 -6.072640895843505859e+00 9.751424789428710938e-01
-1.075433135032653809e+00 -6.013507843017578125e+00 9.009965658187866211e-01
-1.578951239585876465e+00 -6.181230068206787109e+00 8.263152241706848145e-01
-1.302675247192382812e+00 -6.000074386596679688e+00 7.375684976577758789e-01
-1.143661975860595703e+00 -6.375757694244384766e+00 7.162690758705139160e-01
-1.547497391700744629e+00 -6.049288749694824219e+00 5.803458094596862793e-01
-1.305363297462463379e+00 -6.002349376678466797e+00 5.125740766525268555e-01
-1.559266328811645508e+00 -6.086445331573486328e+00 3.545745611190795898e-01
-1.332668662071228027e+00 -6.117620944976806641e+00 2.941704690456390381e-01
-1.119256496429443359e+00 -6.067961215972900391e+00 1.141374111175537109e+00
-1.347542166709899902e+00 -6.052898883819580078e+00 9.732818007469177246e-01
-1.117534995079040527e+00 -6.035006046295166016e+00 9.052279591560363770e-01
-1.625142931938171387e+00 -6.203083515167236328e+00 8.305540084838867188e-01
-1.357011318206787109e+00 -6.070452690124511719e+00 7.472293972969055176e-01
-1.185846686363220215e+00 -6.385233402252197266e+00 7.181375622749328613e-01
-1.618698358535766602e+00 -6.169699668884277344e+00 5.928392410278320312e-01
-1.350224971771240234e+00 -6.030207157135009766e+00 5.156508088111877441e-01
-1.626266479492187500e+00 -6.189743041992187500e+00 3.611668646335601807e-01
-1.374771237373352051e+00 -6.129797458648681641e+00 2.951560616493225098e-01
-1.160890936851501465e+00 -6.084161281585693359e+00 1.145739555358886719e+00
-1.392377376556396484e+00 -6.078220367431640625e+00 9.787087440490722656e-01
-1.156032800674438477e+00 -6.035808563232421875e+00 9.063952565193176270e-01
-1.693268299102783203e+00 -6.305055618286132812e+00 8.455826044082641602e-01
-1.399351716041564941e+00 -6.084266662597656250e+00 7.499725818634033203e-01
-1.214129567146301270e+00 -6.321223258972167969e+00 7.117628455162048340e-01
-1.630924105644226074e+00 -6.064458847045898438e+00 5.836773514747619629e-01
-1.392345428466796875e+00 -6.044144630432128906e+00 5.175634026527404785e-01
-1.688101291656494141e+00 -6.268342018127441406e+00 3.663505315780639648e-01
-1.415051937103271484e+00 -6.132925987243652344e+00 2.957192361354827881e-01
-1.200673699378967285e+00 -6.089465141296386719e+00 1.148104190826416016e+00
-1.448672175407409668e+00 -6.150336265563964844e+00 9.917333722114562988e-01
-1.197847485542297363e+00 -6.052863597869873047e+00 9.100430011749267578e-01
-1.436886310577392578e+00 -6.076532363891601562e+00 7.500919103622436523e-01
-1.194465875625610352e+00 -6.019225120544433594e+00 6.785706877708435059e-01
-1.702222704887390137e+00 -6.178169727325439453e+00 5.956156253814697266e-01
-1.425960421562194824e+00 -6.020941734313964844e+00 5.163160562515258789e-01
-1.280848503112792969e+00 -6.436875343322753906e+00 4.854170978069305420e-01
-1.740339279174804688e+00 -6.307913303375244141e+00 3.692804276943206787e-01
-1.453809022903442383e+00 -6.128987789154052734e+00 2.959538996219635010e-01
-1.191007494926452637e+00 -5.969050884246826172e+00 2.285085767507553101e-01
-1.226639389991760254e+00 -6.026096820831298828e+00 1.137554407119750977e+00
-1.484523534774780273e+00 -6.133650302886962891e+00 9.904929399490356445e-01
-1.239320635795593262e+00 -6.066723823547363281e+00 9.132530093193054199e-01
-1.477191448211669922e+00 -6.080143928527832031e+00 7.516424059867858887e-01
-1.225193858146667480e+00 -5.981596946716308594e+00 6.751635670661926270e-01
-1.767676830291748047e+00 -6.265355110168457031e+00 6.050550937652587891e-01
-1.462877392768859863e+00 -6.012078762054443359e+00 5.163160562515258789e-01
-1.324934720993041992e+00 -6.451363086700439453e+00 4.871135652065277100e-01
-1.486185312271118164e+00 -6.098601341247558594e+00 2.949213981628417969e-01
-1.276522636413574219e+00 -6.080046653747558594e+00 1.149195551872253418e+00
-1.575982213020324707e+00 -6.341100692749023438e+00 1.025535464286804199e+00
-1.280193209648132324e+00 -6.076430320739746094e+00 9.158794283866882324e-01
-1.531533002853393555e+00 -6.139362335205078125e+00 7.601106166839599609e-01
-1.267214059829711914e+00 -5.999251365661621094e+00 6.780211329460144043e-01
-1.504328608512878418e+00 -6.021358966827392578e+00 5.178959965705871582e-01
-1.344659447669982910e+00 -6.349451065063476562e+00 4.800325930118560791e-01
-1.569643855094909668e+00 -6.273482322692871094e+00 3.038385212421417236e-01
-1.319835543632507324e+00 -6.099970817565917969e+00 1.154470443725585938e+00
-1.642450571060180664e+00 -6.439481258392333984e+00 1.043056607246398926e+00
-1.318712711334228516e+00 -6.074261665344238281e+00 9.167549014091491699e-01
-1.579516053199768066e+00 -6.170247077941894531e+00 7.651199698448181152e-01
-1.309285402297973633e+00 -6.015643119812011719e+00 6.807688474655151367e-01
-1.556837320327758789e+00 -6.072830677032470703e+00 5.231348872184753418e-01
-1.310672283172607422e+00 -6.006878376007080078e+00 4.547327756881713867e-01
-1.623011350631713867e+00 -6.321784496307373047e+00 3.066544234752655029e-01
-1.364082217216491699e+00 -6.122470855712890625e+00 1.160290956497192383e+00
-1.688432335853576660e+00 -6.454131603240966797e+00 1.047088027000427246e+00
-1.360922455787658691e+00 -6.088261127471923828e+00 9.201108217239379883e-01
-1.627178907394409180e+00 -6.197891712188720703e+00 7.697715163230895996e-01
-1.352040052413940430e+00 -6.033683300018310547e+00 6.837363839149475098e-01
-1.593816876411437988e+00 -6.062200069427490234e+00 5.230517387390136719e-01
-1.365646600723266602e+00 -6.079483985900878906e+00 4.608548581600189209e-01
-1.664568066596984863e+00 -6.322332382202148438e+00 3.071706593036651611e-01
-1.414367437362670898e+00 -6.169576168060302734e+00 1.170840740203857422e+00
-1.404462218284606934e+00 -6.106791496276855469e+00 9.241962432861328125e-01
-1.681432127952575684e+00 -6.248192310333251953e+00 7.772855162620544434e-01
-1.378765583038330078e+00 -5.980720996856689453e+00 6.786805987358093262e-01
-1.718107938766479492e+00 -6.375609397888183594e+00 5.509921312332153320e-01
-1.399555921554565430e+00 -6.056415557861328125e+00 4.597484767436981201e-01
-1.447910189628601074e+00 -6.142596721649169922e+00 1.167384743690490723e+00
-1.446686983108520508e+00 -6.118277072906494141e+00 9.272604584693908691e-01
-1.417728900909423828e+00 -5.981820106506347656e+00 6.797797083854675293e-01
-1.745526909828186035e+00 -6.322680473327636719e+00 5.473333001136779785e-01
-1.429776072502136230e+00 -6.018605232238769531e+00 4.575356543064117432e-01
-1.487937569618225098e+00 -6.124666690826416016e+00 9.295949935913085938e-01
-1.473453164100646973e+00 -6.051232337951660156e+00 6.886822581291198730e-01
-1.478500962257385254e+00 -6.058161258697509766e+00 4.612236618995666504e-01
-1.529320836067199707e+00 -6.130779266357421875e+00 9.319295287132263184e-01
-1.505733728408813477e+00 -6.022792339324951172e+00 6.864840984344482422e-01
-1.524613618850708008e+00 -6.084768295288085938e+00 4.639528095722198486e-01
-1.646886825561523438e+00 -6.433717727661132812e+00 9.794963002204895020e-01
-1.569087743759155273e+00 -6.116455554962158203e+00 6.982442140579223633e-01
-1.582034111022949219e+00 -6.153533935546875000e+00 4.699274003505706787e-01
-1.691607594490051270e+00 -6.443585872650146484e+00 9.825604557991027832e-01
-1.591667771339416504e+00 -6.050000190734863281e+00 6.917596459388732910e-01
-1.611880183219909668e+00 -6.113816738128662109e+00 4.676408171653747559e-01
-1.809883475303649902e+00 -6.840615749359130859e+00 8.644962683320045471e-03
-1.697854161262512207e+00 -6.296350002288818359e+00 7.211050391197204590e-01
-1.721946001052856445e+00 -6.372417926788330078e+00 4.882199764251708984e-01
-1.752234220504760742e+00 -6.330014705657958984e+00 4.857859015464782715e-01
-2.017452716827392578e+00 -6.932403087615966797e+00 8.820892311632633209e-03
-2.048253536224365234e+00 -6.880598068237304688e+00 8.770801126956939697e-03
-2.125375986099243164e+00 -6.982700347900390625e+00 8.917408995330333710e-03
-2.088571071624755859e+00 -6.713624954223632812e+00 8.589984849095344543e-03
-2.208481073379516602e+00 -6.948468685150146484e+00 8.907634764909744263e-03
-2.238415956497192383e+00 -6.895790100097656250e+00 8.857544511556625366e-03
-2.394650220870971680e+00 -6.939442157745361328e+00 8.968722075223922729e-03
-2.424568891525268555e+00 -6.888773441314697266e+00 8.922295644879341125e-03
-2.467129707336425781e+00 -6.874708175659179688e+00 8.923517540097236633e-03
-2.512357473373413086e+00 -6.867892742156982422e+00 8.934512734413146973e-03
-2.452187538146972656e+00 -6.339236736297607422e+00 8.304100483655929565e-03
-2.497635126113891602e+00 -6.340818881988525391e+00 8.326091803610324860e-03
-2.724079608917236328e+00 -6.793163776397705078e+00 8.941843174397945404e-03
-2.806143522262573242e+00 -6.875387668609619141e+00 9.072568267583847046e-03
-2.808387756347656250e+00 -6.761994361877441406e+00 8.945508860051631927e-03
-2.773928880691528320e+00 -6.565011501312255859e+00 8.707270957529544830e-03
-2.872203111648559570e+00 -6.682922363281250000e+00 8.886865340173244476e-03
-2.939186573028564453e+00 -6.724732398986816406e+00 8.966278284788131714e-03
-2.957651615142822266e+00 -6.655397415161132812e+00 8.897861465811729431e-03
-3.022311449050903320e+00 -6.689980506896972656e+00 8.968722075223922729e-03
-3.055792331695556641e+00 -6.654952049255371094e+00 8.946730755269527435e-03
-2.985780715942382812e+00 -6.398653507232666016e+00 8.626637049019336700e-03
-2.897748947143554688e+00 -6.111847877502441406e+00 8.263783529400825500e-03
-3.082302808761596680e+00 -6.399370670318603516e+00 8.677949197590351105e-03
-3.116676568984985352e+00 -6.370457172393798828e+00 8.664511144161224365e-03
-3.205542564392089844e+00 -6.451514720916748047e+00 8.801344782114028931e-03
-3.230203151702880859e+00 -6.402262210845947266e+00 8.761027827858924866e-03
-3.225656986236572266e+00 -6.296879291534423828e+00 8.643741719424724579e-03
-3.266540288925170898e+00 -6.281404972076416016e+00 8.649850264191627502e-03
-3.240600824356079102e+00 -6.139202117919921875e+00 8.481251075863838196e-03
-3.279153585433959961e+00 -6.120965480804443359e+00 8.483694866299629211e-03
-3.325724363327026367e+00 -6.117422580718994141e+00 8.506907150149345398e-03
-3.399906396865844727e+00 -6.163447856903076172e+00 8.599759079515933990e-03
-3.463056087493896484e+00 -6.187847614288330078e+00 8.663289248943328857e-03
-3.502933502197265625e+00 -6.169960498809814453e+00 8.668175898492336273e-03
-3.520763874053955078e+00 -6.113687515258789062e+00 8.619306609034538269e-03
-3.541566848754882812e+00 -6.063474178314208984e+00 8.578989654779434204e-03
-3.575647115707397461e+00 -6.036467075347900391e+00 8.571659214794635773e-03
-3.676467895507812500e+00 -6.120711803436279297e+00 8.723153732717037201e-03
-3.720196723937988281e+00 -6.108286857604980469e+00 8.737814612686634064e-03
-3.774419069290161133e+00 -6.112572669982910156e+00 8.776910603046417236e-03
-3.789037942886352539e+00 -6.052850723266601562e+00 8.724375627934932709e-03
-3.813783168792724609e+00 -6.010067939758300781e+00 8.696275763213634491e-03
-3.853834152221679688e+00 -5.991600036621093750e+00 8.703606203198432922e-03
-3.874141931533813477e+00 -5.942708969116210938e+00 8.666954003274440765e-03
-3.934236288070678711e+00 -5.954702854156494141e+00 8.719488978385925293e-03
-3.975706815719604492e+00 -5.937929153442382812e+00 8.730484172701835632e-03
-3.964343786239624023e+00 -5.843083858489990234e+00 8.626637049019336700e-03
-3.904947996139526367e+00 -5.680207729339599609e+00 8.421386592090129852e-03
-4.012886524200439453e+00 -5.761172771453857422e+00 8.577767759561538696e-03
-4.053349971771240234e+00 -5.743794918060302734e+00 8.588762953877449036e-03
-4.117596149444580078e+00 -5.759490489959716797e+00 8.649850264191627502e-03
-3.993900060653686523e+00 -5.514633178710937500e+00 8.318761363625526428e-03
-3.972650766372680664e+00 -5.415038585662841797e+00 8.205140940845012665e-03
-4.246770381927490234e+00 -5.714828968048095703e+00 8.698719553649425507e-03
-4.258302688598632812e+00 -5.657504081726074219e+00 8.651072159409523010e-03
-4.191690444946289062e+00 -5.498459815979003906e+00 8.447042666375637054e-03
-5.701147079467773438e+00 -6.857013702392578125e+00 9.494376927614212036e-02
-4.225960731506347656e+00 -5.473428249359130859e+00 8.448264561593532562e-03
-2.954326629638671875e+00 -3.034521818161010742e+00 1.256958693265914917e-01
-4.142430305480957031e+00 -5.297719955444335938e+00 8.216136135160923004e-03
-2.959559440612792969e+00 -3.002811431884765625e+00 1.251322329044342041e-01
-4.184170246124267578e+00 -5.283962249755859375e+00 8.234461769461631775e-03
-2.941922426223754883e+00 -2.948508501052856445e+00 1.236192509531974792e-01
-4.328495025634765625e+00 -5.397835254669189453e+00 8.453151211142539978e-03
-2.954986333847045898e+00 -2.925478935241699219e+00 1.234115883708000183e-01
-4.477521896362304688e+00 -5.514012336730957031e+00 8.677949197590351105e-03
-4.518892765045166016e+00 -5.495704174041748047e+00 8.692610077559947968e-03
-4.497501373291015625e+00 -5.401782035827636719e+00 8.587541989982128143e-03
-2.955013513565063477e+00 -3.031056880950927734e+00 8.571494370698928833e-02
-4.461594581604003906e+00 -5.292276859283447266e+00 8.456816896796226501e-03
-2.996433734893798828e+00 -3.038168907165527344e+00 2.408154606819152832e-01
-2.967937707901000977e+00 -3.007175683975219727e+00 8.555299043655395508e-02
-4.477752208709716797e+00 -5.245786666870117188e+00 8.426273241639137268e-03
-2.988918066024780273e+00 -2.993584156036376953e+00 2.387307137250900269e-01
-2.967960357666015625e+00 -2.970519065856933594e+00 8.502663671970367432e-02
-4.507239818572998047e+00 -5.215186119079589844e+00 8.421386592090129852e-03
-2.978839874267578125e+00 -2.947100400924682617e+00 2.364769428968429565e-01
-2.991819143295288086e+00 -2.957875490188598633e+00 8.518858999013900757e-02
-4.561544895172119141e+00 -5.213019847869873047e+00 8.462925441563129425e-03
-3.007766246795654297e+00 -2.937366724014282227e+00 8.512786030769348145e-02
-4.499281883239746094e+00 -5.078643798828125000e+00 8.289439603686332703e-03
-4.508992671966552734e+00 -5.027119159698486328e+00 8.250344544649124146e-03
-2.955438852310180664e+00 -3.027328252792358398e+00 4.504453018307685852e-02
-4.680255413055419922e+00 -5.154084205627441406e+00 8.505686186254024506e-03
-2.974889755249023438e+00 -3.013233423233032227e+00 1.989452391862869263e-01
-2.967632293701171875e+00 -3.002735853195190430e+00 4.494871199131011963e-02
-4.720590591430664062e+00 -5.134840011596679688e+00 8.521568030118942261e-03
-2.982024192810058594e+00 -2.983618497848510742e+00 1.981943100690841675e-01
-2.979635715484619141e+00 -2.978108644485473633e+00 4.485289752483367920e-02
-4.473360061645507812e+00 -4.806385993957519531e+00 8.021880872547626495e-03
-2.973278045654296875e+00 -2.938582897186279297e+00 1.964109092950820923e-01
-2.995718002319335938e+00 -2.957661867141723633e+00 4.482095316052436829e-02
-4.618662357330322266e+00 -4.901848316192626953e+00 8.228353224694728851e-03
-3.018820762634277344e+00 -2.944112062454223633e+00 4.489547759294509888e-02
-4.674190998077392578e+00 -4.900189399719238281e+00 8.273556828498840332e-03
-2.938369512557983398e+00 -3.042837142944335938e+00 5.167918745428323746e-03
-2.967118024826049805e+00 -3.037235975265502930e+00 1.594045162200927734e-01
-2.940207719802856445e+00 -3.007588863372802734e+00 5.138597451150417328e-03
-2.966725826263427734e+00 -2.999789237976074219e+00 1.583915948867797852e-01
-7.270686626434326172e+00 -6.834198951721191406e+00 1.062395051121711731e-01
-2.954385995864868164e+00 -2.985226869583129883e+00 5.131267011165618896e-03
-2.984369277954101562e+00 -2.980823040008544922e+00 1.583540886640548706e-01
-7.472231388092041016e+00 -6.937780380249023438e+00 1.085603982210159302e-01
-2.986802816390991211e+00 -2.981171607971191406e+00 5.155701655894517899e-03
-2.997623682022094727e+00 -2.957542419433593750e+00 1.580914705991744995e-01
-3.005038738250732422e+00 -2.962788820266723633e+00 5.155701655894517899e-03
-7.552359580993652344e+00 -6.841534137725830078e+00 1.084965243935585022e-01
-3.023161411285400391e+00 -2.944294452667236328e+00 5.155701655894517899e-03
-4.889654159545898438e+00 -4.703981399536132812e+00 8.289439603686332703e-03
-7.783351898193359375e+00 -6.878790378570556641e+00 1.105938479304313660e-01
-4.894503593444824219e+00 -4.651158332824707031e+00 8.249122649431228638e-03
-7.833698749542236328e+00 -6.838136196136474609e+00 1.107109487056732178e-01
-4.878475189208984375e+00 -4.579290390014648438e+00 8.174597285687923431e-03
-4.946812152862548828e+00 -4.586665630340576172e+00 8.241792209446430206e-03
-5.637598514556884766e+00 -4.137442111968994141e+00 2.075450569391250610e-01
-8.070050239562988281e+00 -6.871794700622558594e+00 1.128508597612380981e-01
-4.827371597290039062e+00 -4.421146869659423828e+00 7.997446693480014801e-03
-5.653165817260742188e+00 -4.095735073089599609e+00 2.071890532970428467e-01
-8.110531806945800781e+00 -6.820861339569091797e+00 1.128295734524726868e-01
-4.970095634460449219e+00 -4.496097087860107422e+00 8.188035339117050171e-03
-5.658678054809570312e+00 -4.047015666961669922e+00 2.064770758152008057e-01
-7.330700874328613281e+00 -6.088632106781005859e+00 1.014593169093132019e-01
-4.874551296234130859e+00 -4.355577945709228516e+00 7.986450567841529846e-03
-8.454941749572753906e+00 -6.935164928436279297e+00 1.164280250668525696e-01
-5.138858795166015625e+00 -4.535347461700439453e+00 8.373738266527652740e-03
-5.150006771087646484e+00 -4.489274978637695312e+00 8.346861228346824646e-03
-8.644824981689453125e+00 -6.915211677551269531e+00 1.178652718663215637e-01
-5.175940036773681641e+00 -4.456285476684570312e+00 8.344417437911033630e-03
-5.683701992034912109e+00 -4.165270805358886719e+00 1.426827907562255859e-01
-8.676893234252929688e+00 -6.853980541229248047e+00 1.177268698811531067e-01
-5.179569244384765625e+00 -4.404360771179199219e+00 8.306543342769145966e-03
-5.682421684265136719e+00 -4.110978603363037109e+00 1.420147269964218140e-01
-8.691188812255859375e+00 -6.779086112976074219e+00 1.173542514443397522e-01
-5.090098857879638672e+00 -4.274744510650634766e+00 8.120840415358543396e-03
-5.692893981933593750e+00 -4.065576076507568359e+00 1.416503190994262695e-01
-8.749257087707519531e+00 -6.738443374633789062e+00 1.175778210163116455e-01
-5.226300716400146484e+00 -4.334722518920898438e+00 8.295548148453235626e-03
-8.487182617187500000e+00 -6.454022884368896484e+00 1.135215759277343750e-01
-5.238874435424804688e+00 -4.291166782379150391e+00 8.273556828498840332e-03
-8.749725341796875000e+00 -6.569330692291259766e+00 1.164918988943099976e-01
-5.214569568634033203e+00 -4.218062400817871094e+00 8.194144815206527710e-03
-8.642863273620605469e+00 -6.406550884246826172e+00 1.145436316728591919e-01
-5.248947620391845703e+00 -4.192852497100830078e+00 8.207583799958229065e-03
-5.647058963775634766e+00 -4.132454872131347656e+00 7.450286298990249634e-02
-5.327965259552001953e+00 -4.202679634094238281e+00 8.290661498904228210e-03
-5.669066905975341797e+00 -4.095385074615478516e+00 7.446027547121047974e-02
-5.323672771453857422e+00 -4.146558284759521484e+00 8.244235068559646606e-03
-5.695716857910156250e+00 -4.061684608459472656e+00 7.448156923055648804e-02
-5.355357170104980469e+00 -4.118692398071289062e+00 8.254009298980236053e-03
-9.449180603027343750e+00 -6.651240825653076172e+00 1.230287328362464905e-01
-4.406521797180175781e+00 -3.346133947372436523e+00 6.759833544492721558e-03
-9.527588844299316406e+00 -6.619380950927734375e+00 1.235184594988822937e-01
-4.579790115356445312e+00 -3.433606624603271484e+00 6.993183866143226624e-03
-9.331339836120605469e+00 -6.398500919342041016e+00 1.204629763960838318e-01
-5.373997688293457031e+00 -3.977773904800415039e+00 8.168488740921020508e-03
-9.305001258850097656e+00 -6.296851634979248047e+00 1.196219101548194885e-01
-5.485503196716308594e+00 -4.008444309234619141e+00 8.300434798002243042e-03
-5.715394496917724609e+00 -4.125912189483642578e+00 2.646362781524658203e-01
-9.790844917297363281e+00 -6.538403511047363281e+00 1.253496259450912476e-01
-5.354281425476074219e+00 -3.862384319305419922e+00 8.065862581133842468e-03
-9.489282608032226562e+00 -6.253168582916259766e+00 1.209952905774116516e-01
