-9.746305465698242188e+00 -5.614989280700683594e+00 3.338342607021331787e-01
-6.642525196075439453e+00 -4.495109081268310547e+00 8.539403229951858521e-02
-4.901749610900878906e+00 -3.581876039505004883e+00 7.417124230414628983e-03
-9.804910659790039062e+00 -5.568903446197509766e+00 3.346649110317230225e-01
-1.047354984283447266e+01 -6.459840297698974609e+00 2.491685301065444946e-01
-6.652518749237060547e+00 -4.442604541778564453e+00 8.517045527696609497e-02
-5.026633739471435547e+00 -3.626031398773193359e+00 7.572283968329429626e-03
-9.817092895507812500e+00 -5.496429443359375000e+00 3.339232504367828369e-01
-1.031311702728271484e+01 -6.273863792419433594e+00 2.444313317537307739e-01
-6.797382354736328125e+00 -4.479282379150390625e+00 8.667159825563430786e-02
-4.757167339324951172e+00 -3.387463808059692383e+00 7.134904619306325912e-03
-1.259661579132080078e+01 -6.954332828521728516e+00 9.481359124183654785e-01
-1.001078414916992188e+01 -5.524468898773193359e+00 3.393521606922149658e-01
-9.294328689575195312e+00 -5.576251029968261719e+00 2.194699496030807495e-01
-6.911923885345458984e+00 -4.494178295135498047e+00 8.777881413698196411e-02
-5.100204944610595703e+00 -3.584774971008300781e+00 7.616266142576932907e-03
-1.273362350463867188e+01 -6.942777156829833984e+00 2.562553167343139648e+00
-1.257709217071533203e+01 -6.854583740234375000e+00 1.995223283767700195e+00
-1.258499526977539062e+01 -6.853194236755371094e+00 1.468221902847290039e+00
-1.253825187683105469e+01 -6.822066783905029297e+00 9.405744075775146484e-01
-9.309438705444335938e+00 -5.507916927337646484e+00 2.190245538949966431e-01
-7.037841796875000000e+00 -4.514853954315185547e+00 8.902442455291748047e-02
-4.611044883728027344e+00 -3.198869943618774414e+00 6.856350228190422058e-03
-1.252441978454589844e+01 -6.729349613189697266e+00 2.512095689773559570e+00
-1.256481552124023438e+01 -6.748228073120117188e+00 1.986669540405273438e+00
-1.253678512573242188e+01 -6.721900939941406250e+00 9.373525977134704590e-01
-9.301608085632324219e+00 -5.426509380340576172e+00 2.180528342723846436e-01
-7.056962490081787109e+00 -4.466238021850585938e+00 8.891796320676803589e-02
-5.093479156494140625e+00 -3.487455606460571289e+00 7.541740778833627701e-03
-1.253762531280517578e+01 -6.637630462646484375e+00 2.506527900695800781e+00
-1.259022808074951172e+01 -6.662666320800781250e+00 1.984186291694641113e+00
-1.258020401000976562e+01 -6.651741504669189453e+00 1.458029389381408691e+00
-1.203695583343505859e+01 -6.359125137329101562e+00 8.970469832420349121e-01
-9.329528808593750000e+00 -5.366342067718505859e+00 2.179313600063323975e-01
-7.066421508789062500e+00 -4.411732673645019531e+00 8.869438618421554565e-02
-5.120582103729248047e+00 -3.460056066513061523e+00 7.550292648375034332e-03
-1.263923454284667969e+01 -6.592454433441162109e+00 2.518707275390625000e+00
-1.266073226928710938e+01 -6.600856304168701172e+00 1.988876938819885254e+00
-1.265077877044677734e+01 -6.590051651000976562e+00 1.461494803428649902e+00
-1.180844020843505859e+01 -6.146020889282226562e+00 8.771900534629821777e-01
-9.390110969543457031e+00 -5.324778079986572266e+00 2.185792028903961182e-01
-7.267903804779052734e+00 -4.475780963897705078e+00 9.087688475847244263e-02
-5.126739978790283203e+00 -3.418585300445556641e+00 7.528301328420639038e-03
-1.281521129608154297e+01 -6.584533214569091797e+00 2.545675992965698242e+00
-1.331155300140380859e+01 -6.836620807647705078e+00 2.084485530853271484e+00
-1.341673088073730469e+01 -6.884720802307128906e+00 1.545072913169860840e+00
-1.183971405029296875e+01 -6.070263385772705078e+00 8.767297863960266113e-01
-7.443937778472900391e+00 -4.521426200866699219e+00 9.272933751344680786e-02
-5.138430595397949219e+00 -3.381017684936523438e+00 7.514862809330224991e-03
-1.346514701843261719e+01 -6.814368724822998047e+00 2.666426420211791992e+00
-1.367760372161865234e+01 -6.918889522552490234e+00 2.135118007659912109e+00
-1.268247985839843750e+01 -6.999029159545898438e+00 1.346335530281066895e+00
-1.187584590911865234e+01 -5.997051715850830078e+00 8.766639828681945801e-01
-1.261356449127197266e+01 -6.955254554748535156e+00 8.128789663314819336e-01
-7.370318412780761719e+00 -4.415031433105468750e+00 9.147307276725769043e-02
-5.091979980468750000e+00 -3.305862426757812500e+00 7.417124230414628983e-03
-1.393592357635498047e+01 -6.945538043975830078e+00 2.751160383224487305e+00
-1.253474330902099609e+01 -6.828843593597412109e+00 2.378439426422119141e+00
-1.258029651641845703e+01 -6.847967147827148438e+00 1.855195164680480957e+00
-1.259223175048828125e+01 -6.848766803741455078e+00 1.332268834114074707e+00
-1.387712478637695312e+01 -6.901122093200683594e+00 1.021251440048217773e+00
-1.137873649597167969e+01 -6.183615207672119141e+00 7.308416962623596191e-01
-1.402045536041259766e+01 -6.969348430633544922e+00 4.646920561790466309e-01
-7.465285301208496094e+00 -4.409903049468994141e+00 9.231413900852203369e-02
-4.997648239135742188e+00 -3.201201438903808594e+00 7.250969298183917999e-03
-1.253208541870117188e+01 -6.728007793426513672e+00 2.370057106018066406e+00
-1.390397357940673828e+01 -6.808383464813232422e+00 1.020133614540100098e+00
-1.126947879791259766e+01 -6.034967422485351562e+00 7.214322090148925781e-01
-7.505164623260498047e+00 -4.371562957763671875e+00 9.247383475303649902e-02
-5.355339527130126953e+00 -3.384155988693237305e+00 7.739661261439323425e-03
-1.259144210815429688e+01 -6.660671710968017578e+00 2.373508691787719727e+00
-1.260200977325439453e+01 -6.660633087158203125e+00 1.846203804016113281e+00
-1.259696578979492188e+01 -6.652342796325683594e+00 1.324032425880432129e+00
-1.448748683929443359e+01 -6.984233379364013672e+00 1.059781789779663086e+00
-1.130364704132080078e+01 -5.964307308197021484e+00 7.212631702423095703e-01
-7.876962184906005859e+00 -4.523624897003173828e+00 9.671106189489364624e-02
-5.404007911682128906e+00 -3.368689775466918945e+00 7.779978215694427490e-03
-1.265481758117675781e+01 -6.595139503479003906e+00 2.377781867980957031e+00
-1.267518711090087891e+01 -6.600130081176757812e+00 1.850956439971923828e+00
-1.260751438140869141e+01 -6.559298992156982422e+00 1.320885896682739258e+00
-1.133117103576660156e+01 -5.890232086181640625e+00 7.206997275352478027e-01
-1.434504795074462891e+01 -6.804339885711669922e+00 4.712186455726623535e-01
-7.687899112701416016e+00 -4.352538108825683594e+00 9.406012296676635742e-02
-5.457798004150390625e+00 -3.355895519256591797e+00 7.827625609934329987e-03
-1.305921554565429688e+01 -6.704323768615722656e+00 2.445990800857543945e+00
-1.334107017517089844e+01 -6.843138694763183594e+00 1.942026972770690918e+00
-1.342110252380371094e+01 -6.878273963928222656e+00 1.401677131652832031e+00
-1.267079257965087891e+01 -6.488158702850341797e+00 8.033567667007446289e-01
-1.065325832366943359e+01 -5.952684402465820312e+00 5.733696222305297852e-01
-5.847357749938964844e+00 -2.729774475097656250e+00 1.915252804756164551e-01
-7.442904949188232422e+00 -4.153734207153320312e+00 9.074912220239639282e-02
-5.292741298675537109e+00 -3.209818601608276367e+00 7.562509737908840179e-03
-1.338003158569335938e+01 -6.765611171722412109e+00 2.498257160186767578e+00
-1.371297454833984375e+01 -6.927954673767089844e+00 1.989938616752624512e+00
-1.384971904754638672e+01 -6.990972042083740234e+00 1.441933870315551758e+00
-1.261632347106933594e+01 -6.954083919525146484e+00 1.202104210853576660e+00
-1.272641181945800781e+01 -6.418383121490478516e+00 8.043709993362426758e-01
-1.072720527648925781e+01 -5.907926082611083984e+00 5.753877162933349609e-01
-5.863088607788085938e+00 -2.693427085876464844e+00 1.914956122636795044e-01
-1.327396392822265625e+01 -6.688722133636474609e+00 3.009740412235260010e-01
-7.686411857604980469e+00 -4.227988719940185547e+00 9.340006113052368164e-02
-5.402448654174804688e+00 -3.231178283691406250e+00 7.690791506320238113e-03
-1.401642036437988281e+01 -6.979741096496582031e+00 2.609035015106201172e+00
-1.257114696502685547e+01 -6.848853588104248047e+00 2.246905565261840820e+00
-1.257566547393798828e+01 -6.837090492248535156e+00 1.719522118568420410e+00
-1.259483051300048828e+01 -6.841815471649169922e+00 1.196033835411071777e+00
-1.271279716491699219e+01 -6.313971519470214844e+00 8.010466694831848145e-01
-1.076588821411132812e+01 -5.843423843383789062e+00 5.755285024642944336e-01
-5.855823040008544922e+00 -2.646697521209716797e+00 1.907242983579635620e-01
-1.386017036437988281e+01 -6.877798557281494141e+00 3.133029043674468994e-01
-8.137685775756835938e+00 -4.411394596099853516e+00 9.855286777019500732e-02
-5.131899833679199219e+00 -3.026766777038574219e+00 7.279068697243928909e-03
-1.257898807525634766e+01 -6.753365039825439453e+00 2.240858316421508789e+00
-1.273963928222656250e+01 -6.230146408081054688e+00 8.003141880035400391e-01
-1.078480434417724609e+01 -5.768304347991943359e+00 5.746367573738098145e-01
-1.006972694396972656e+01 -4.477080821990966797e+00 3.270703554153442383e-01
-1.424166870117187500e+01 -6.958534240722656250e+00 3.209553062915802002e-01
-8.370105743408203125e+00 -4.471156120300292969e+00 1.010334640741348267e-01
-4.936856746673583984e+00 -2.871048688888549805e+00 6.977301556617021561e-03
-1.272398567199707031e+01 -6.147933483123779297e+00 2.890483140945434570e+00
-1.259661197662353516e+01 -6.663582324981689453e+00 2.236671924591064453e+00
-1.260857200622558594e+01 -6.655833244323730469e+00 1.712723731994628906e+00
-1.258176517486572266e+01 -6.636067867279052734e+00 1.186969876289367676e+00
-1.278212451934814453e+01 -6.154025554656982422e+00 8.005958795547485352e-01
-1.085445976257324219e+01 -5.720183849334716797e+00 5.764671564102172852e-01
-1.012539958953857422e+01 -4.427624702453613281e+00 3.279900252819061279e-01
-1.438680839538574219e+01 -6.920424461364746094e+00 3.232631683349609375e-01
-8.341635704040527344e+00 -4.390373229980468750e+00 1.003627404570579529e-01
-5.201622009277343750e+00 -2.982464313507080078e+00 7.325494661927223206e-03
-1.273581218719482422e+01 -6.057540893554687500e+00 2.884671688079833984e+00
-1.263328266143798828e+01 -6.586895465850830078e+00 2.774566173553466797e+00
-1.270822238922119141e+01 -6.623147964477539062e+00 2.249231338500976562e+00
-1.269674015045166016e+01 -6.603080749511718750e+00 1.719164371490478516e+00
-1.263551044464111328e+01 -6.565634727478027344e+00 1.188217163085937500e+00
-1.281784057617187500e+01 -6.074625015258789062e+00 8.004832267761230469e-01
-1.242661094665527344e+01 -6.451579093933105469e+00 6.578474044799804688e-01
-1.022237396240234375e+01 -5.782878398895263672e+00 4.409228861331939697e-01
-1.016523170471191406e+01 -4.370941162109375000e+00 3.284053504467010498e-01
-1.444165134429931641e+01 -6.838008403778076172e+00 3.235465884208679199e-01
-8.215731620788574219e+00 -4.259938240051269531e+00 9.853157401084899902e-02
-5.472283840179443359e+00 -3.093193769454956055e+00 7.679796312004327774e-03
-1.277096557617187500e+01 -5.978450775146484375e+00 2.884270906448364258e+00
-1.267346096038818359e+01 -6.509255409240722656e+00 2.774566173553466797e+00
-1.322232341766357422e+01 -6.788241863250732422e+00 2.332806348800659180e+00
-1.340064239501953125e+01 -6.865019798278808594e+00 1.808736443519592285e+00
-1.312264919281005859e+01 -6.716825008392333984e+00 1.230127811431884766e+00
-1.202259731292724609e+01 -5.084881782531738281e+00 8.601604104042053223e-01
-1.284220504760742188e+01 -5.989953517913818359e+00 7.996944189071655273e-01
-1.247485637664794922e+01 -6.379757881164550781e+00 6.583167314529418945e-01
-1.022973632812500000e+01 -5.704472064971923828e+00 4.397223889827728271e-01
-5.862389564514160156e+00 -2.731886625289916992e+00 1.309612691402435303e-01
-8.226576805114746094e+00 -4.201715469360351562e+00 9.835059940814971924e-02
-5.295484542846679688e+00 -2.950531721115112305e+00 7.406128570437431335e-03
-1.279317188262939453e+01 -5.893418312072753906e+00 2.881064653396606445e+00
-1.269389438629150391e+01 -6.421622276306152344e+00 2.770360946655273438e+00
-1.363576316833496094e+01 -6.895109176635742188e+00 2.398239612579345703e+00
-1.382367229461669922e+01 -6.974986553192138672e+00 1.860022664070129395e+00
-1.307996940612792969e+01 -6.594010353088378906e+00 1.222311139106750488e+00
-1.253173446655273438e+01 -6.896234512329101562e+00 1.057945132255554199e+00
-1.209134864807128906e+01 -5.026721477508544922e+00 8.628562688827514648e-01
-1.287508678436279297e+01 -5.909376621246337891e+00 7.994690537452697754e-01
-1.251912021636962891e+01 -6.305789947509765625e+00 6.585983633995056152e-01
-1.027242660522460938e+01 -5.645928382873535156e+00 4.400600492954254150e-01
-5.866318225860595703e+00 -2.690030097961425781e+00 1.306778490543365479e-01
-8.472846031188964844e+00 -4.262150287628173828e+00 1.009802296757698059e-01
-5.505447387695312500e+00 -3.023400545120239258e+00 7.673687301576137543e-03
-1.281749153137207031e+01 -5.809552192687988281e+00 2.878459453582763672e+00
-1.271460723876953125e+01 -6.334421634674072266e+00 2.766346693038940430e+00
-1.259215831756591797e+01 -6.846235275268554688e+00 2.113949537277221680e+00
-1.253520202636718750e+01 -6.806767940521240234e+00 1.577286720275878906e+00
-1.302199840545654297e+01 -6.464884281158447266e+00 1.213163971900939941e+00
-1.255978679656982422e+01 -6.811604499816894531e+00 1.056764960289001465e+00
-1.211642169952392578e+01 -4.950171470642089844e+00 8.624617457389831543e-01
-1.290291404724121094e+01 -5.826566696166992188e+00 7.989618778228759766e-01
-1.257994747161865234e+01 -6.239951610565185547e+00 6.597716212272644043e-01
-1.032181358337402344e+01 -5.590882778167724609e+00 4.406978189945220947e-01
-5.843525886535644531e+00 -2.636304616928100586e+00 1.298073232173919678e-01
-8.687004089355468750e+00 -4.303293704986572266e+00 1.032159551978111267e-01
-5.570506572723388672e+00 -3.014789342880249023e+00 7.738438900560140610e-03
-1.285737037658691406e+01 -5.732790946960449219e+00 2.879461526870727539e+00
-1.271974849700927734e+01 -6.239859104156494141e+00 2.759082794189453125e+00
-1.256933116912841797e+01 -6.745531082153320312e+00 2.638711690902709961e+00
-1.258509540557861328e+01 -6.742679119110107422e+00 2.105778455734252930e+00
-1.436986064910888672e+01 -6.389142513275146484e+00 1.461645841598510742e+00
-1.298979759216308594e+01 -6.349849224090576172e+00 1.206511497497558594e+00
-1.230213832855224609e+01 -4.938180923461914062e+00 8.735079765319824219e-01
-1.290831184387207031e+01 -5.733911037445068359e+00 7.971025705337524414e-01
-1.261261367797851562e+01 -6.160015106201171875e+00 6.594900488853454590e-01
-9.660284996032714844e+00 -4.287090778350830078e+00 2.140039354562759399e-01
-8.676397323608398438e+00 -4.231937408447265625e+00 1.027794554829597473e-01
-5.635665416717529297e+00 -3.005492448806762695e+00 7.803190499544143677e-03
-1.288153743743896484e+01 -5.649069786071777344e+00 2.877056837081909180e+00
-1.274011802673339844e+01 -6.153156757354736328e+00 2.755259752273559570e+00
-1.253746509552001953e+01 -6.629668712615966797e+00 2.623432636260986328e+00
-1.259910964965820312e+01 -6.651014328002929688e+00 2.101255416870117188e+00
-1.257558536529541016e+01 -6.630178451538085938e+00 1.572011113166809082e+00
-1.299708652496337891e+01 -6.254900932312011719e+00 1.203601002693176270e+00
-1.257713031768798828e+01 -6.622579574584960938e+00 1.051306724548339844e+00
-1.325770187377929688e+01 -5.227527141571044922e+00 9.390621781349182129e-01
-1.292952823638916016e+01 -5.648603916168212891e+00 7.962574362754821777e-01
-1.253584194183349609e+01 -6.027536392211914062e+00 6.535296440124511719e-01
-1.461134529113769531e+01 -5.758323669433593750e+00 4.661160409450531006e-01
-9.686408042907714844e+00 -4.227735519409179688e+00 2.140039354562759399e-01
-8.030651092529296875e+00 -3.856155872344970703e+00 9.484795480966567993e-02
-5.649574756622314453e+00 -2.968530654907226562e+00 7.797082420438528061e-03
-1.290516185760498047e+01 -5.565268516540527344e+00 2.874651908874511719e+00
-1.274749374389648438e+01 -6.060539722442626953e+00 2.748760700225830078e+00
-1.266511535644531250e+01 -6.598047256469726562e+00 2.641621828079223633e+00
-1.310250568389892578e+01 -5.086813926696777344e+00 2.483386993408203125e+00
-1.265986919403076172e+01 -6.584081172943115234e+00 2.104611158370971680e+00
-1.267424583435058594e+01 -6.583128929138183594e+00 1.579265117645263672e+00
-1.304152584075927734e+01 -6.178020954132080078e+00 1.204183101654052734e+00
-1.261929988861083984e+01 -6.546202182769775391e+00 1.051454305648803711e+00
-1.321322631835937500e+01 -5.116535186767578125e+00 9.336705803871154785e-01
-1.150811481475830078e+01 -4.943756103515625000e+00 7.068390250205993652e-01
-1.258071708679199219e+01 -5.954350948333740234e+00 6.539520621299743652e-01
-7.918553829193115234e+00 -3.742713451385498047e+00 9.325101226568222046e-02
-5.665906429290771484e+00 -2.932889938354492188e+00 7.794638630002737045e-03
-1.293094825744628906e+01 -5.482537269592285156e+00 2.872848510742187500e+00
-1.274354457855224609e+01 -5.963072299957275391e+00 2.739967584609985352e+00
-1.270361232757568359e+01 -6.519313335418701172e+00 2.641258239746093750e+00
-1.276632690429687500e+01 -4.866371631622314453e+00 2.413964033126831055e+00
-1.326881980895996094e+01 -6.797670841217041016e+00 2.198869228363037109e+00
-1.281410884857177734e+01 -4.882024288177490234e+00 1.910099983215332031e+00
-1.347891044616699219e+01 -6.896393775939941406e+00 1.674225449562072754e+00
-1.274571800231933594e+01 -4.850873947143554688e+00 1.397282481193542480e+00
-1.306744575500488281e+01 -6.092408657073974609e+00 1.203101992607116699e+00
-1.237949180603027344e+01 -6.325706958770751953e+00 1.028219699859619141e+00
-1.283678054809570312e+01 -4.880402088165283203e+00 9.049371480941772461e-01
-1.156306552886962891e+01 -4.883538246154785156e+00 7.083603143692016602e-01
-1.254819869995117188e+01 -5.844989776611328125e+00 6.503852009773254395e-01
-1.365134334564208984e+01 -6.966589450836181641e+00 5.753794312477111816e-01
-5.826148986816406250e+00 -2.710126638412475586e+00 6.841317564249038696e-02
-5.698050022125244141e+00 -2.905337333679199219e+00 7.814186625182628632e-03
-1.223394966125488281e+01 -4.580095291137695312e+00 2.805274009704589844e+00
-1.293721580505371094e+01 -5.391784667968750000e+00 2.866836786270141602e+00
-1.275225448608398438e+01 -5.872039794921875000e+00 2.734041929244995117e+00
-1.344368648529052734e+01 -6.795220851898193359e+00 2.786408185958862305e+00
-1.223980140686035156e+01 -4.579850673675537109e+00 2.309046983718872070e+00
-1.368565273284912109e+01 -6.905533313751220703e+00 2.260881185531616211e+00
-1.226401901245117188e+01 -4.586472511291503906e+00 1.823872923851013184e+00
-1.388666725158691406e+01 -6.997842311859130859e+00 1.719507455825805664e+00
-1.225618076324462891e+01 -4.578665256500244141e+00 1.340510487556457520e+00
-1.339872074127197266e+01 -5.567662715911865234e+00 1.348556637763977051e+00
-1.310548782348632812e+01 -6.012529373168945312e+00 1.203185200691223145e+00
-1.240649223327636719e+01 -6.243800640106201172e+00 1.027260899543762207e+00
-1.220273399353027344e+01 -4.553844928741455078e+00 8.582535982131958008e-01
-1.156976032257080078e+01 -4.802927017211914062e+00 7.069517374038696289e-01
-5.899633407592773438e+00 -2.704138517379760742e+00 3.049179315567016602e-01
-1.383043956756591797e+01 -6.951355934143066406e+00 5.811193585395812988e-01
-1.441704368591308594e+01 -5.377319812774658203e+00 4.566822052001953125e-01
-5.830848217010498047e+00 -2.668916940689086914e+00 6.827476620674133301e-02
-5.542401790618896484e+00 -2.783259153366088867e+00 7.577170617878437042e-03
-1.293197822570800781e+01 -5.296706199645996094e+00 2.858420133590698242e+00
-1.279698562622070312e+01 -5.797733783721923828e+00 2.735953569412231445e+00
-1.378002357482910156e+01 -6.859396457672119141e+00 2.847342014312744141e+00
-1.405822467803955078e+01 -6.985637187957763672e+00 2.315305709838867188e+00
-1.496881961822509766e+01 -5.493553161621093750e+00 2.221069097518920898e+00
-1.221772956848144531e+01 -4.479065418243408203e+00 1.333273887634277344e+00
-1.314939975738525391e+01 -5.935282230377197266e+00 1.203850388526916504e+00
-1.244099521636962891e+01 -6.165786743164062500e+00 1.026965737342834473e+00
-1.222107601165771484e+01 -4.475453376770019531e+00 8.575960993766784668e-01
-1.179129695892333984e+01 -4.810288906097412109e+00 7.186713218688964844e-01
-1.267452621459960938e+01 -5.715612411499023438e+00 6.532480716705322266e-01
-1.402866649627685547e+01 -6.943493366241455078e+00 5.876470804214477539e-01
-1.443474769592285156e+01 -5.283260345458984375e+00 4.562075138092041016e-01
-5.870820522308349609e+00 -2.643764495849609375e+00 6.855157762765884399e-02
-5.666941642761230469e+00 -2.802392482757568359e+00 7.723778951913118362e-03
-1.296150779724121094e+01 -5.216159820556640625e+00 2.857818841934204102e+00
-1.284935283660888672e+01 -5.726695537567138672e+00 2.739585399627685547e+00
-1.394635009765625000e+01 -6.835736751556396484e+00 2.872988939285278320e+00
-1.442794322967529297e+01 -5.189135074615478516e+00 1.570961713790893555e+00
-1.320560741424560547e+01 -5.863384246826171875e+00 1.205679893493652344e+00
-1.394397449493408203e+01 -6.804414272308349609e+00 1.147564053535461426e+00
-1.305964374542236328e+01 -5.234477043151855469e+00 7.940036654472351074e-01
-1.264087581634521484e+01 -5.607357501983642578e+00 6.497281789779663086e-01
-1.423809051513671875e+01 -6.938710212707519531e+00 5.946249961853027344e-01
-8.410294532775878906e+00 -3.725447893142700195e+00 9.793538600206375122e-02
-5.390927314758300781e+00 -2.624855518341064453e+00 7.325494661927223206e-03
-1.287975406646728516e+01 -5.645775318145751953e+00 2.738629579544067383e+00
-1.415629482269287109e+01 -6.831231594085693359e+00 2.907548427581787109e+00
-1.444767284393310547e+01 -5.102005004882812500e+00 2.134289979934692383e+00
-1.447921276092529297e+01 -5.107458591461181641e+00 1.573102116584777832e+00
-1.323859596252441406e+01 -5.781049251556396484e+00 1.205430388450622559e+00
-1.451313114166259766e+01 -6.972223758697509766e+00 1.190861344337463379e+00
-1.451683425903320312e+01 -5.115032196044921875e+00 1.014216065406799316e+00
-1.306271743774414062e+01 -5.142907619476318359e+00 7.922569513320922852e-01
-1.103618812561035156e+01 -4.814712047576904297e+00 5.657197237014770508e-01
-1.256404781341552734e+01 -6.027773857116699219e+00 5.231574773788452148e-01
-8.435745239257812500e+00 -3.674971342086791992e+00 9.796732664108276367e-02
-5.826248645782470703e+00 -2.792721033096313477e+00 7.893599569797515869e-03
-1.289973163604736328e+01 -5.560423851013183594e+00 2.735571146011352539e+00
-1.424679565429687500e+01 -6.767446994781494141e+00 2.917552471160888672e+00
-1.306645202636718750e+01 -5.067732810974121094e+00 2.335212945938110352e+00
-1.302674770355224609e+01 -5.047103404998779297e+00 1.809467196464538574e+00
-1.443412685394287109e+01 -4.992181777954101562e+00 1.564846277236938477e+00
-1.362975215911865234e+01 -5.275261402130126953e+00 1.358366370201110840e+00
-1.322620296478271484e+01 -5.679263591766357422e+00 1.201106309890747070e+00
-1.469898700714111328e+01 -6.950827598571777344e+00 1.202589273452758789e+00
-1.453285503387451172e+01 -5.020648956298828125e+00 1.013164043426513672e+00
-1.311544513702392578e+01 -5.070940494537353516e+00 7.935528755187988281e-01
-1.103431034088134766e+01 -4.733515262603759766e+00 5.641239881515502930e-01
-1.253754425048828125e+01 -5.920698642730712891e+00 5.205314159393310547e-01
-8.423207283020019531e+00 -3.608179569244384766e+00 9.756276756525039673e-02
-5.797150611877441406e+00 -2.735157489776611328e+00 7.831290364265441895e-03
-1.225704669952392578e+01 -4.672393321990966797e+00 2.683075428009033203e+00
-1.290016841888427734e+01 -5.466997146606445312e+00 2.728498697280883789e+00
-1.429784965515136719e+01 -6.684484004974365234e+00 2.919553279876708984e+00
-1.288159370422363281e+01 -4.905321598052978516e+00 2.296752929687500000e+00
-1.278217697143554688e+01 -4.862355709075927734e+00 1.771317720413208008e+00
-1.271899318695068359e+01 -4.833238601684570312e+00 1.264618992805480957e+00
-1.324703121185302734e+01 -5.592189311981201172e+00 1.199859023094177246e+00
-1.474407196044921875e+01 -6.861768245697021484e+00 1.202810645103454590e+00
-1.259559440612792969e+01 -4.781315803527832031e+00 7.603097558021545410e-01
-1.106867027282714844e+01 -4.668049812316894531e+00 5.644056200981140137e-01
-1.255370044708251953e+01 -5.834392547607421875e+00 5.197060108184814453e-01
-8.949282646179199219e+00 -3.768711328506469727e+00 1.033862978219985962e-01
-5.797498226165771484e+00 -2.691954612731933594e+00 7.809299509972333908e-03
-1.226805114746093750e+01 -4.590573787689208984e+00 2.679267883300781250e+00
-1.295068550109863281e+01 -5.394911289215087891e+00 2.732130289077758789e+00
-1.434127616882324219e+01 -6.597860813140869141e+00 2.920099020004272461e+00
-1.227299118041992188e+01 -4.587539196014404297e+00 2.183180809020996094e+00
-1.222924995422363281e+01 -4.566324234008789062e+00 1.690780043601989746e+00
-1.224556350708007812e+01 -4.567545890808105469e+00 1.214737415313720703e+00
-1.325624179840087891e+01 -5.500489711761474609e+00 1.197613716125488281e+00
-1.476413631439208984e+01 -6.761205196380615234e+00 1.201040387153625488e+00
-1.218871593475341797e+01 -4.541495800018310547e+00 7.340533137321472168e-01
-1.113401412963867188e+01 -4.615346431732177734e+00 5.662828683853149414e-01
-5.892498493194580078e+00 -2.694725990295410156e+00 2.432522773742675781e-01
-8.848432540893554688e+00 -3.662483692169189453e+00 1.019596904516220093e-01
-5.816635608673095703e+00 -2.657577991485595703e+00 7.812964729964733124e-03
-1.296265125274658203e+01 -5.306792736053466797e+00 2.727733850479125977e+00
-1.437073898315429688e+01 -6.504874229431152344e+00 2.917916059494018555e+00
-1.458921337127685547e+01 -5.351529121398925781e+00 2.589311838150024414e+00
-1.497792625427246094e+01 -5.488183975219726562e+00 2.066109180450439453e+00
-1.220977592468261719e+01 -4.469049930572509766e+00 1.208444476127624512e+00
-1.312641239166259766e+01 -5.352447509765625000e+00 1.182895064353942871e+00
-1.479261493682861328e+01 -6.664752006530761719e+00 1.200007677078247070e+00
-1.377762222290039062e+01 -5.037463188171386719e+00 8.278665542602539062e-01
-1.286058712005615234e+01 -5.238819122314453125e+00 6.524502038955688477e-01
-1.053289985656738281e+01 -4.738921642303466797e+00 4.336073398590087891e-01
-1.448591136932373047e+01 -5.290700912475585938e+00 3.122704625129699707e-01
-8.757736206054687500e+00 -3.562158584594726562e+00 1.006608456373214722e-01
-5.819150924682617188e+00 -2.615687847137451172e+00 7.794638630002737045e-03
-1.296582889556884766e+01 -5.215433597564697266e+00 2.721617221832275391e+00
-1.440229797363281250e+01 -6.412974834442138672e+00 2.916279315948486328e+00
-1.310905361175537109e+01 -5.251791954040527344e+00 1.178404688835144043e+00
-1.483870124816894531e+01 -6.576285362243652344e+00 1.200450301170349121e+00
-1.284797573089599609e+01 -5.141993999481201172e+00 6.501975059509277344e-01
-1.054076194763183594e+01 -4.664902687072753906e+00 4.327444732189178467e-01
-8.563075065612792969e+00 -3.421898126602172852e+00 9.818024933338165283e-02
-5.881735324859619141e+00 -2.600556373596191406e+00 7.856947369873523712e-03
-1.304870700836181641e+01 -5.155978202819824219e+00 2.732321500778198242e+00
-1.442786598205566406e+01 -6.318566799163818359e+00 2.913551092147827148e+00
-1.449326038360595703e+01 -5.109747886657714844e+00 1.990452408790588379e+00
-1.445290756225585938e+01 -5.089849472045898438e+00 1.424165487289428711e+00
-1.320779895782470703e+01 -5.197531700134277344e+00 1.184391975402832031e+00
-1.483123493194580078e+01 -6.464392185211181641e+00 1.196614742279052734e+00
-1.452500057220458984e+01 -5.109539985656738281e+00 8.689415454864501953e-01
-1.287928485870361328e+01 -5.063063621520996094e+00 6.501975059509277344e-01
-1.059484195709228516e+01 -4.611304283142089844e+00 4.337949156761169434e-01
-9.127502441406250000e+00 -3.582658529281616211e+00 1.043976992368698120e-01
-6.073655605316162109e+00 -2.640979528427124023e+00 8.091518655419349670e-03
-1.307735252380371094e+01 -5.074750423431396484e+00 2.731748104095458984e+00
-1.445913791656494141e+01 -6.226808071136474609e+00 2.912095546722412109e+00
-1.303790473937988281e+01 -5.043739795684814453e+00 1.679328083992004395e+00
-1.443210124969482422e+01 -4.983198165893554688e+00 1.419075489044189453e+00
-1.319203472137451172e+01 -5.098072052001953125e+00 1.180150985717773438e+00
-1.486970233917236328e+01 -6.372874736785888672e+00 1.196540832519531250e+00
-1.296788406372070312e+01 -5.006246566772460938e+00 6.531072854995727539e-01
-1.058159542083740234e+01 -4.528515815734863281e+00 4.321067035198211670e-01
-8.838614463806152344e+00 -3.406826972961425781e+00 1.008524745702743530e-01
-5.998717308044433594e+00 -2.564743041992187500e+00 7.970567792654037476e-03
-1.299083900451660156e+01 -4.949680805206298828e+00 2.707280874252319336e+00
-1.448349094390869141e+01 -6.132220745086669922e+00 2.909367322921752930e+00
-1.283749389648437500e+01 -4.888688564300537109e+00 2.156043291091918945e+00
-1.221098041534423828e+01 -4.637906551361083984e+00 1.569122195243835449e+00
-1.266123676300048828e+01 -4.803864002227783203e+00 1.130007863044738770e+00
-1.479548549652099609e+01 -6.233887672424316406e+00 1.187468409538269043e+00
-1.291242408752441406e+01 -4.894012928009033203e+00 6.487895250320434570e-01
-1.061194610595703125e+01 -4.464665889739990234e+00 4.322192668914794922e-01
-8.831295013427734375e+00 -3.341913223266601562e+00 1.005330905318260193e-01
-5.911090850830078125e+00 -2.484490156173706055e+00 7.833734154701232910e-03
-1.230018234252929688e+01 -4.600302696228027344e+00 2.557417869567871094e+00
-1.448816204071044922e+01 -6.029634475708007812e+00 2.902819156646728516e+00
-1.229629611968994141e+01 -4.596403121948242188e+00 2.060374259948730469e+00
-1.224385929107666016e+01 -4.564628124237060547e+00 1.569718360900878906e+00
-1.222820472717285156e+01 -4.553930759429931641e+00 1.088845610618591309e+00
-1.253182506561279297e+01 -5.189811229705810547e+00 1.003214955329895020e+00
-1.290944290161132812e+01 -4.802501678466796875e+00 6.471468806266784668e-01
-1.449180126190185547e+01 -5.992609500885009766e+00 5.887350440025329590e-01
-8.788829803466796875e+00 -3.264335632324218750e+00 9.981977939605712891e-02
-6.111996173858642578e+00 -2.524917840957641602e+00 8.079302497208118439e-03
-1.451578521728515625e+01 -5.936901092529296875e+00 2.901000261306762695e+00
-1.446858596801757812e+01 -5.307460784912109375e+00 2.418861865997314453e+00
-1.218758964538574219e+01 -4.453844547271728516e+00 1.082775235176086426e+00
-1.261516094207763672e+01 -5.133870601654052734e+00 1.007345557212829590e+00
-1.424013423919677734e+01 -5.198295116424560547e+00 7.122417688369750977e-01
-1.452644634246826172e+01 -5.902824401855468750e+00 5.886600613594055176e-01
-9.088663101196289062e+00 -3.312382459640502930e+00 1.029923856258392334e-01
-6.126447200775146484e+00 -2.486991643905639648e+00 8.078080601990222931e-03
-1.455285263061523438e+01 -5.848088741302490234e+00 2.901182174682617188e+00
-1.437353229522705078e+01 -5.172753334045410156e+00 2.397619247436523438e+00
-1.265012836456298828e+01 -5.057849884033203125e+00 1.007640600204467773e+00
-1.454847049713134766e+01 -5.808022975921630859e+00 5.880972743034362793e-01
-9.775453567504882812e+00 -3.494886875152587891e+00 1.105299741029739380e-01
-6.115583419799804688e+00 -2.438981294631958008e+00 8.043871261179447174e-03
-1.455919361114501953e+01 -5.747130870819091797e+00 2.895361661911010742e+00
-1.437798595428466797e+01 -5.074925899505615234e+00 2.393122673034667969e+00
-1.450326061248779297e+01 -5.104915142059326172e+00 1.847022294998168945e+00
-1.448633766174316406e+01 -5.093275547027587891e+00 1.281351923942565918e+00
-1.453847026824951172e+01 -5.105903625488281250e+00 7.239747643470764160e-01
-1.458011341094970703e+01 -5.717186450958251953e+00 5.879472494125366211e-01
-9.332449913024902344e+00 -3.272063732147216797e+00 1.052919849753379822e-01
-6.103431701660156250e+00 -2.390833616256713867e+00 8.008441887795925140e-03
-1.310707664489746094e+01 -5.081185817718505859e+00 2.600332260131835938e+00
-1.303891181945800781e+01 -5.036445617675781250e+00 1.545633316040039062e+00
-1.442687225341796875e+01 -4.973115921020507812e+00 1.273368954658508301e+00
-1.310483551025390625e+01 -5.054025173187255859e+00 1.038841247558593750e+00
-1.461025619506835938e+01 -5.625821590423583984e+00 5.877596735954284668e-01
-1.011075210571289062e+01 -3.475428819656372070e+00 1.138303205370903015e-01
-5.890254020690917969e+00 -2.265739202499389648e+00 7.710339501500129700e-03
-1.286322689056396484e+01 -4.896078109741210938e+00 2.545946598052978516e+00
-1.279783248901367188e+01 -4.860961437225341797e+00 2.019107580184936523e+00
-1.228983783721923828e+01 -4.660649299621582031e+00 1.453420639038085938e+00
-1.255548477172851562e+01 -4.753871917724609375e+00 9.929623007774353027e-01
-1.414348220825195312e+01 -5.346668720245361328e+00 5.676512122154235840e-01
-9.965106964111328125e+00 -3.357138872146606445e+00 1.119565740227699280e-01
-6.314737319946289062e+00 -2.384644746780395508e+00 8.246678858995437622e-03
-1.225376319885253906e+01 -4.578218936920166016e+00 2.419713258743286133e+00
-1.223879241943359375e+01 -4.562891006469726562e+00 1.926454663276672363e+00
-1.229864215850830078e+01 -4.577871322631835938e+00 1.451112627983093262e+00
-1.226284313201904297e+01 -4.557236671447753906e+00 9.675887227058410645e-01
-1.424441528320312500e+01 -5.285161018371582031e+00 5.703898072242736816e-01
-9.795607566833496094e+00 -3.233246803283691406e+00 1.098273172974586487e-01
-6.111711502075195312e+00 -2.265225410461425781e+00 7.963237352669239044e-03
-1.499803543090820312e+01 -5.487017631530761719e+00 2.355431318283081055e+00
-1.212286567687988281e+01 -4.420750617980957031e+00 9.543856382369995117e-01
-1.427000331878662109e+01 -5.195266723632812500e+00 5.701272487640380859e-01
-9.377590179443359375e+00 -3.031590461730957031e+00 1.049300134181976318e-01
-6.389574050903320312e+00 -2.323720693588256836e+00 8.306543342769145966e-03
-9.644834518432617188e+00 -3.052748918533325195e+00 1.077087000012397766e-01
-6.261490821838378906e+00 -2.233735084533691406e+00 8.122062310576438904e-03
-1.437182426452636719e+01 -5.058827877044677734e+00 2.247165679931640625e+00
-1.448789691925048828e+01 -5.091160297393798828e+00 1.698075413703918457e+00
-1.453258228302001953e+01 -5.098315715789794922e+00 1.139081597328186035e+00
-9.994825363159179688e+00 -3.096185445785522461e+00 1.114029660820960999e-01
-6.216557025909423828e+00 -2.174799919128417969e+00 8.046315051615238190e-03
-9.748557090759277344e+00 -2.954463481903076172e+00 1.084539368748664856e-01
-6.290322780609130859e+00 -2.157377481460571289e+00 8.124506101012229919e-03
-9.760749816894531250e+00 -2.892887115478515625e+00 1.083900630474090576e-01
-6.450364112854003906e+00 -2.168124437332153320e+00 8.313873782753944397e-03
-1.026622295379638672e+01 -2.974296569824218750e+00 1.137983798980712891e-01
-6.442649841308593750e+00 -2.121623754501342773e+00 8.286996744573116302e-03
-1.009762573242187500e+01 -2.858410835266113281e+00 1.117330044507980347e-01
-5.775063514709472656e+00 -1.862581968307495117e+00 7.413459010422229767e-03
-1.052458477020263672e+01 -2.909640550613403320e+00 1.162576749920845032e-01
-6.490132808685302734e+00 -2.049328088760375977e+00 8.315095677971839905e-03
-1.054610157012939453e+01 -2.846050262451171875e+00 1.163002699613571167e-01
-6.495897293090820312e+00 -2.007400035858154297e+00 8.306543342769145966e-03
-1.001701831817626953e+01 -2.637436151504516602e+00 1.102851033210754395e-01
-6.488947868347167969e+00 -1.961716532707214355e+00 8.282109163701534271e-03
-1.080299472808837891e+01 -2.773612022399902344e+00 1.187489181756973267e-01
-6.347427368164062500e+00 -1.876503825187683105e+00 8.086632937192916870e-03
-1.009662532806396484e+01 -1.763561844825744629e+00 3.041976988315582275e-01
-1.078488922119140625e+01 -2.698536157608032227e+00 1.183656528592109680e-01
-6.574017047882080078e+00 -1.899706721305847168e+00 8.360300213098526001e-03
-1.010429859161376953e+01 -1.701079130172729492e+00 3.041086792945861816e-01
-1.082844638824462891e+01 -2.638939857482910156e+00 1.186637505888938904e-01
-6.584587097167968750e+00 -1.859061837196350098e+00 8.359078317880630493e-03
-1.078605747222900391e+01 -2.558600187301635742e+00 1.180249676108360291e-01
-6.667208194732666016e+00 -1.838294029235839844e+00 8.449486456811428070e-03
-1.080447673797607422e+01 -2.493044614791870117e+00 1.180569082498550415e-01
-6.660015106201171875e+00 -1.792412400245666504e+00 8.426273241639137268e-03
-1.055710697174072266e+01 -2.367835044860839844e+00 1.151930540800094604e-01
-6.691199302673339844e+00 -1.756846547126770020e+00 8.451929315924644470e-03
-1.007054519653320312e+01 -1.815606355667114258e+00 2.072018235921859741e-01
-1.036919212341308594e+01 -2.258953809738159180e+00 1.129892691969871521e-01
-6.719290733337402344e+00 -1.720221281051635742e+00 8.473920635879039764e-03
-1.007854080200195312e+01 -1.753266453742980957e+00 2.071410715579986572e-01
-1.031144046783447266e+01 -2.180187225341796875e+00 1.122120916843414307e-01
-6.812191486358642578e+00 -1.699535608291625977e+00 8.577767759561538696e-03
-1.009206676483154297e+01 -1.691888570785522461e+00 2.072018235921859741e-01
-1.093391418457031250e+01 -2.241800069808959961e+00 1.188340857625007629e-01
-6.735035896301269531e+00 -1.636455178260803223e+00 8.467812091112136841e-03
-1.013635826110839844e+01 -2.013545989990234375e+00 1.100295856595039368e-01
-6.313841819763183594e+00 -1.493147134780883789e+00 7.926586084067821503e-03
-1.122965717315673828e+01 -2.159188270568847656e+00 1.217511817812919617e-01
-6.357968330383300781e+00 -1.462447881698608398e+00 7.970567792654037476e-03
-1.097922325134277344e+01 -2.041259288787841797e+00 1.188979595899581909e-01
-6.941631793975830078e+00 -1.551916837692260742e+00 8.690167218446731567e-03
-1.004671001434326172e+01 -1.804181337356567383e+00 1.086775064468383789e-01
-6.960795402526855469e+00 -1.511416435241699219e+00 8.702384307980537415e-03
-1.002113723754882812e+01 -1.736186146736145020e+00 1.082835942506790161e-01
-6.733139038085937500e+00 -1.418779850006103516e+00 8.406725712120532990e-03
-1.425561428070068359e+01 -1.331864476203918457e+00 4.249393045902252197e-01
-9.984258651733398438e+00 -1.666761517524719238e+00 1.077725738286972046e-01
-6.739758014678955078e+00 -1.377038955688476562e+00 8.404281921684741974e-03
-1.426650619506835938e+01 -1.244629263877868652e+00 4.250282943248748779e-01
-1.138341045379638672e+01 -1.828612685203552246e+00 1.227519288659095764e-01
-6.753966331481933594e+00 -1.336823701858520508e+00 8.411612361669540405e-03
-1.118886184692382812e+01 -1.727003574371337891e+00 1.205374971032142639e-01
-6.807219982147216797e+00 -1.304011464118957520e+00 8.467812091112136841e-03
-9.960822105407714844e+00 -1.474938869476318359e+00 1.072083190083503723e-01
-6.822959423065185547e+00 -1.263675451278686523e+00 8.477585390210151672e-03
-1.128148460388183594e+01 -1.599817991256713867e+00 1.213146746158599854e-01
-6.851256847381591797e+00 -1.225484490394592285e+00 8.503242395818233490e-03
-1.010779666900634766e+01 -1.747679591178894043e+00 3.850994110107421875e-01
-1.077484035491943359e+01 -1.460585713386535645e+00 1.157679483294487000e-01
-6.972958087921142578e+00 -1.203146576881408691e+00 8.644962683320045471e-03
-1.427680492401123047e+01 -1.323947906494140625e+00 2.903254628181457520e-01
-1.131613445281982422e+01 -1.463308095932006836e+00 1.214850172400474548e-01
-7.049261569976806641e+00 -1.171817421913146973e+00 8.730484172701835632e-03
-1.428167152404785156e+01 -1.236063599586486816e+00 2.902647256851196289e-01
-1.172287464141845703e+01 -1.442827939987182617e+00 1.257541775703430176e-01
-7.107666492462158203e+00 -1.136754035949707031e+00 8.794014342129230499e-03
-1.175832271575927734e+01 -1.374004125595092773e+00 1.260416358709335327e-01
-7.147124767303466797e+00 -1.098132371902465820e+00 8.834331296384334564e-03
-1.190070629119873047e+01 -1.316675424575805664e+00 1.274788975715637207e-01
-6.929153919219970703e+00 -1.021161794662475586e+00 8.556998334825038910e-03
-1.184689998626708984e+01 -1.237189769744873047e+00 1.268188208341598511e-01
-6.916475772857666016e+00 -9.759713411331176758e-01 8.533785119652748108e-03
-1.193089485168457031e+01 -1.172002553939819336e+00 1.276385784149169922e-01
-6.942154407501220703e+00 -9.361872076988220215e-01 8.558220230042934418e-03
-1.185422039031982422e+01 -1.091075420379638672e+00 1.267443001270294189e-01
-7.034057617187500000e+00 -9.046712517738342285e-01 8.664511144161224365e-03
-1.194836425781250000e+01 -1.025846004486083984e+00 1.276811808347702026e-01
-7.448424339294433594e+00 -9.115413427352905273e-01 9.167863056063652039e-03
-1.150887107849121094e+01 -9.170111417770385742e-01 1.229222714900970459e-01
-7.353552341461181641e+00 -8.541679978370666504e-01 9.044469334185123444e-03
-1.247064685821533203e+01 -9.166760444641113281e-01 1.331320852041244507e-01
-7.454080104827880859e+00 -8.195226788520812988e-01 9.161755442619323730e-03
-1.247503852844238281e+01 -8.400731086730957031e-01 1.331214308738708496e-01
-7.332645893096923828e+00 -7.606655955314636230e-01 9.006595239043235779e-03
-1.213362503051757812e+01 -7.423235774040222168e-01 1.294271647930145264e-01
-7.278453826904296875e+00 -7.099314332008361816e-01 8.934512734413146973e-03
-1.223280334472656250e+01 -6.730780601501464844e-01 1.304385662078857422e-01
-7.372299671173095703e+00 -6.734455823898315430e-01 9.044469334185123444e-03
-1.245343208312988281e+01 -6.085978150367736816e-01 1.327488124370574951e-01
-7.482906818389892578e+00 -6.372770071029663086e-01 9.175193496048450470e-03
-1.221616458892822266e+01 -5.218877196311950684e-01 1.301830559968948364e-01
-7.472720146179199219e+00 -5.902483463287353516e-01 9.158089756965637207e-03
-1.212720394134521484e+01 -4.435584247112274170e-01 1.292035877704620361e-01
-7.514100551605224609e+00 -5.471451878547668457e-01 9.204515255987644196e-03
-1.214868736267089844e+01 -3.697168827056884766e-01 1.294058710336685181e-01
-7.609112739562988281e+00 -5.071474909782409668e-01 9.316914714872837067e-03
-1.252059745788574219e+01 -3.041518926620483398e-01 1.333450078964233398e-01
-7.430413246154785156e+00 -4.494603276252746582e-01 9.094559587538242340e-03
-1.226728439331054688e+01 -2.226931303739547729e-01 1.306301951408386230e-01
-7.501929759979248047e+00 -4.076031744480133057e-01 9.178859181702136993e-03
-1.264837074279785156e+01 -1.519838273525238037e-01 1.346758008003234863e-01
-7.702060222625732422e+00 -3.710933327674865723e-01 9.420761838555335999e-03
-1.272305965423583984e+01 -7.480708509683609009e-02 1.354636251926422119e-01
-7.702193737030029297e+00 -3.237434029579162598e-01 9.418318979442119598e-03
-1.273327827453613281e+01 3.264115191996097565e-03 1.355700790882110596e-01
-7.766994476318359375e+00 -2.787369787693023682e-01 9.495287202298641205e-03
-1.296500110626220703e+01 8.287689089775085449e-02 1.380400210618972778e-01
-7.732574939727783203e+00 -2.300040125846862793e-01 9.451305493712425232e-03
-1.105250740051269531e+01 1.384751647710800171e-01 1.176842898130416870e-01
-7.715845584869384766e+00 -1.821287274360656738e-01 9.429314173758029938e-03
-1.370283699035644531e+01 2.557810246944427490e-01 1.459182947874069214e-01
-7.685822486877441406e+00 -1.342403888702392578e-01 9.391440078616142273e-03
-1.282532882690429688e+01 3.181338608264923096e-01 1.365921348333358765e-01
-7.389520645141601562e+00 -8.371412009000778198e-02 9.028586558997631073e-03
-1.282713317871093750e+01 3.969463109970092773e-01 1.366347074508666992e-01
-7.681890964508056641e+00 -3.988745808601379395e-02 9.385331533849239349e-03
-1.319717884063720703e+01 4.894685149192810059e-01 1.406057924032211304e-01
-7.864990711212158203e+00 7.421161048114299774e-03 9.608908556401729584e-03
-1.284926795959472656e+01 5.555344223976135254e-01 1.369328051805496216e-01
-7.917795658111572266e+00 5.605490878224372864e-02 9.673659689724445343e-03
-1.293250656127929688e+01 6.386565566062927246e-01 1.378590315580368042e-01
-7.959299564361572266e+00 1.051915660500526428e-01 9.724972769618034363e-03
-1.346848201751708984e+01 7.479943037033081055e-01 1.436186879873275757e-01
-8.030490875244140625e+00 1.554201394319534302e-01 9.812937118113040924e-03
-1.294964504241943359e+01 7.989110946655273438e-01 1.381358355283737183e-01
-7.949411392211914062e+00 2.026526182889938354e-01 9.715198539197444916e-03
-1.498525524139404297e+01 2.111874818801879883e+00 4.491469562053680420e-01
-1.387730121612548828e+01 9.416491985321044922e-01 1.480901390314102173e-01
-8.073955535888671875e+00 2.554093301296234131e-01 9.869136847555637360e-03
-1.347237586975097656e+01 9.972545504570007324e-01 1.438316106796264648e-01
-8.159173965454101562e+00 3.082296252250671387e-01 9.975426830351352692e-03
-1.366933917999267578e+01 1.096207141876220703e+00 1.460034698247909546e-01
-8.130155563354492188e+00 3.571028113365173340e-01 9.942440316081047058e-03
-1.364143466949462891e+01 1.178253054618835449e+00 1.457798928022384644e-01
-8.126811981201171875e+00 4.069317579269409180e-01 9.941218420863151550e-03
-1.057251071929931641e+01 1.755600214004516602e+00 3.180814683437347412e-01
-1.269103145599365234e+01 1.174658536911010742e+00 1.356978416442871094e-01
-8.194052696228027344e+00 4.607189297676086426e-01 1.002674084156751633e-02
-1.053691387176513672e+01 1.816194295883178711e+00 3.173398375511169434e-01
-1.314929389953613281e+01 1.298496007919311523e+00 1.406803131103515625e-01
-8.231991767883300781e+00 5.135407447814941406e-01 1.007683109492063522e-02
-1.496653747558593750e+01 2.119727611541748047e+00 3.060756325721740723e-01
-1.354583263397216797e+01 1.421632885932922363e+00 1.450133621692657471e-01
-8.217711448669433594e+00 5.632894039154052734e-01 1.006339211016893387e-02
-1.492357826232910156e+01 2.207132339477539062e+00 3.054683208465576172e-01
-1.350107765197753906e+01 1.500744938850402832e+00 1.446300894021987915e-01
-8.280914306640625000e+00 6.186936497688293457e-01 1.014524884521961212e-02
-1.348267650604248047e+01 1.582508563995361328e+00 1.445342749357223511e-01
-8.235098838806152344e+00 6.661065220832824707e-01 1.009393483400344849e-02
-1.288720226287841797e+01 1.592838644981384277e+00 1.382529586553573608e-01
-7.814432144165039062e+00 6.803674101829528809e-01 9.583251550793647766e-03
-1.051856327056884766e+01 1.754070878028869629e+00 2.159271687269210815e-01
-1.338192081451416016e+01 1.737414240837097168e+00 1.436719298362731934e-01
-8.328859329223632812e+00 7.766771316528320312e-01 1.021977420896291733e-02
-7.181340217590332031e+00 1.511914014816284180e+00 2.178095728158950806e-01
-1.051351356506347656e+01 1.819601655006408691e+00 2.160486429929733276e-01
-1.338983345031738281e+01 1.822053194046020508e+00 1.438742130994796753e-01
-8.450313568115234375e+00 8.403348326683044434e-01 1.037493348121643066e-02
-7.191464900970458984e+00 1.560187935829162598e+00 2.184029072523117065e-01
-1.333979225158691406e+01 1.898682117462158203e+00 1.434589922428131104e-01
-8.415164947509765625e+00 8.890174031257629395e-01 1.033828221261501312e-02
-7.202241897583007812e+00 1.608860731124877930e+00 2.190258949995040894e-01
-1.332492446899414062e+01 1.980056881904602051e+00 1.434270590543746948e-01
-8.519862174987792969e+00 9.529737830162048340e-01 1.047389302402734756e-02
-1.377992439270019531e+01 2.134168624877929688e+00 1.484627574682235718e-01
-8.486047744750976562e+00 1.001949548721313477e+00 1.043968461453914642e-02
-1.376953220367431641e+01 2.219157695770263672e+00 1.484947055578231812e-01
-8.494626045227050781e+00 1.055850386619567871e+00 1.045801118016242981e-02
-1.060471534729003906e+01 1.775928854942321777e+00 1.144797429442405701e-01
-8.580205917358398438e+00 1.119989991188049316e+00 1.057163253426551819e-02
-7.136013507843017578e+00 1.507493376731872559e+00 1.476831734180450439e-01
-1.057391548156738281e+01 1.837540745735168457e+00 1.142668277025222778e-01
-8.609830856323242188e+00 1.177630066871643066e+00 1.061683613806962967e-02
-7.132490158081054688e+00 1.552526473999023438e+00 1.478046327829360962e-01
