-5.534165859222412109e+00 -5.873484611511230469e+00 9.859363548457622528e-03
-5.639122962951660156e+00 -5.911776065826416016e+00 9.981535375118255615e-03
-5.526635646820068359e+00 -5.723123550415039062e+00 9.720085188746452332e-03
-5.609183311462402344e+00 -5.737730026245117188e+00 9.803162887692451477e-03
-5.682268619537353516e+00 -5.741586208343505859e+00 9.869136847555637360e-03
-5.681295394897460938e+00 -5.670584201812744141e+00 9.806828573346138000e-03
-5.863385677337646484e+00 -5.780948638916015625e+00 1.005972642451524734e-02
-4.650648117065429688e+00 -3.637775659561157227e+00 1.752385050058364868e-01
-5.850032329559326172e+00 -5.697419166564941406e+00 9.976648725569248199e-03
-4.644402980804443359e+00 -3.587175607681274414e+00 1.741705238819122314e-01
-5.931723117828369141e+00 -5.706480503082275391e+00 1.005606073886156082e-02
-4.648840427398681641e+00 -3.545275688171386719e+00 1.735178679227828979e-01
-5.997796535491943359e+00 -5.699597358703613281e+00 1.010859571397304535e-02
-6.118690967559814453e+00 -5.743447303771972656e+00 1.025275979191064835e-02
-6.057021617889404297e+00 -5.616047382354736328e+00 1.009149104356765747e-02
-5.882668018341064453e+00 -5.387639522552490234e+00 9.745742194354534149e-03
-4.636908054351806641e+00 -3.621894359588623047e+00 1.191385090351104736e-01
-6.181843757629394531e+00 -5.592280864715576172e+00 1.018434297293424606e-02
-4.649543762207031250e+00 -3.586047410964965820e+00 1.188955754041671753e-01
-6.219769477844238281e+00 -5.557576179504394531e+00 1.019045244902372360e-02
-4.659528732299804688e+00 -3.548364877700805664e+00 1.185919120907783508e-01
-6.262000083923339844e+00 -5.526586532592773438e+00 1.020389050245285034e-02
-6.316145896911621094e+00 -5.505801200866699219e+00 1.023687794804573059e-02
-6.341473579406738281e+00 -5.459764957427978516e+00 1.022343803197145462e-02
-6.323813438415527344e+00 -5.377349853515625000e+00 1.014158315956592560e-02
-4.612487792968750000e+00 -3.597718715667724609e+00 6.228090077638626099e-02
-6.145335674285888672e+00 -5.160948276519775391e+00 9.804385714232921600e-03
-4.636852741241455078e+00 -3.571179628372192383e+00 6.231283769011497498e-02
-6.467065811157226562e+00 -5.363820075988769531e+00 1.026497781276702881e-02
-4.653902053833007812e+00 -3.539029598236083984e+00 6.224896013736724854e-02
-6.539309501647949219e+00 -5.356354713439941406e+00 1.032728515565395355e-02
-6.599265098571777344e+00 -5.338141441345214844e+00 1.037004683166742325e-02
-6.716278076171875000e+00 -5.364953517913818359e+00 1.050199382007122040e-02
-4.575800418853759766e+00 -3.609374761581420898e+00 7.120243739336729050e-03
-4.625692844390869141e+00 -3.605503320693969727e+00 2.201800942420959473e-01
-4.611272811889648438e+00 -3.591676712036132812e+00 7.141013164073228836e-03
-4.654855728149414062e+00 -3.582537889480590820e+00 2.205177247524261475e-01
-4.629260540008544922e+00 -3.560266494750976562e+00 7.134904619306325912e-03
-4.655267715454101562e+00 -3.537584304809570312e+00 2.195048034191131592e-01
-4.639072895050048828e+00 -3.522723674774169922e+00 7.116578519344329834e-03
-4.643798351287841797e+00 -3.481595516204833984e+00 7.090922445058822632e-03
-6.952599525451660156e+00 -5.146237373352050781e+00 1.056796684861183167e-02
-7.005844593048095703e+00 -5.119410037994384766e+00 1.060095243155956268e-02
-7.050912380218505859e+00 -5.086272239685058594e+00 1.062172278761863708e-02
-7.117015361785888672e+00 -5.067854881286621094e+00 1.067425683140754700e-02
-6.525382518768310547e+00 -4.586487770080566406e+00 9.744520299136638641e-03
-7.204141139984130859e+00 -4.997807025909423828e+00 1.071213092654943466e-02
-7.244572639465332031e+00 -4.960288524627685547e+00 1.072679180651903152e-02
-7.099215030670166016e+00 -4.797048568725585938e+00 1.046778541058301926e-02
-7.035331726074218750e+00 -4.691262245178222656e+00 1.033095084130764008e-02
-6.876023292541503906e+00 -4.524330139160156250e+00 1.005606073886156082e-02
-7.192181110382080078e+00 -4.669374465942382812e+00 1.047633681446313858e-02
-1.405894374847412109e+01 -6.988480091094970703e+00 4.659677147865295410e-01
-6.843451976776123047e+00 -4.383515357971191406e+00 9.929002262651920319e-03
-1.409976387023925781e+01 -6.901206016540527344e+00 4.659083783626556396e-01
-7.075641632080078125e+00 -4.471252918243408203e+00 1.022588275372982025e-02
-1.414004230499267578e+01 -6.813693523406982422e+00 4.658490717411041260e-01
-7.209021091461181641e+00 -4.493878841400146484e+00 1.037859916687011719e-02
-1.416171550750732422e+01 -6.717379093170166016e+00 4.651964008808135986e-01
-7.281607151031494141e+00 -4.477320671081542969e+00 1.044335030019283295e-02
-1.479812526702880859e+01 -6.911487579345703125e+00 1.076219677925109863e+00
-1.418636322021484375e+01 -6.622747421264648438e+00 4.646624028682708740e-01
-7.340578556060791016e+00 -4.451743602752685547e+00 1.048855390399694443e-02
-1.482030868530273438e+01 -6.811390876770019531e+00 1.074773192405700684e+00
-1.420130062103271484e+01 -6.523893356323242188e+00 4.638317525386810303e-01
-6.886298656463623047e+00 -4.118661403656005859e+00 9.803162887692451477e-03
-1.484000301361083984e+01 -6.710459709167480469e+00 1.073195099830627441e+00
-7.846019268035888672e+00 -3.546220302581787109e+00 2.555450499057769775e-01
-7.384319305419921875e+00 -4.355231761932373047e+00 1.047389302402734756e-02
-1.474961280822753906e+01 -6.560878753662109375e+00 1.063726902008056641e+00
-1.418724441528320312e+01 -6.938077449798583984e+00 8.912538886070251465e-01
-7.844797134399414062e+00 -3.487859487533569336e+00 2.548033893108367920e-01
-1.416621112823486328e+01 -6.921665191650390625e+00 3.192547559738159180e-01
-7.579471588134765625e+00 -4.407871723175048828e+00 1.071213092654943466e-02
-1.495140171051025391e+01 -6.541043281555175781e+00 1.075364947319030762e+00
-1.417287540435791016e+01 -6.823609828948974609e+00 8.877041935920715332e-01
-1.427593326568603516e+01 -6.242566108703613281e+00 4.624374210834503174e-01
-1.420300960540771484e+01 -6.832012653350830078e+00 3.191333115100860596e-01
-7.546515941619873047e+00 -4.326960563659667969e+00 1.062783133238554001e-02
-1.418921470642089844e+01 -6.724546432495117188e+00 8.861265778541564941e-01
-1.430570411682128906e+01 -6.151299476623535156e+00 4.621704220771789551e-01
-1.414707183837890625e+01 -6.698527336120605469e+00 3.169469237327575684e-01
-7.579017639160156250e+00 -4.284018993377685547e+00 1.063638366758823395e-02
-1.421935081481933594e+01 -6.632291793823242188e+00 8.854504227638244629e-01
-1.440946769714355469e+01 -6.091428756713867188e+00 4.643064141273498535e-01
-1.417884445190429688e+01 -6.607373237609863281e+00 3.167444765567779541e-01
-7.632241249084472656e+00 -4.252522945404052734e+00 1.067425683140754700e-02
-1.424979591369628906e+01 -6.540337085723876953e+00 8.848305940628051758e-01
-1.449087810516357422e+01 -6.021308898925781250e+00 4.657303690910339355e-01
-1.420639610290527344e+01 -6.514414787292480469e+00 3.164610564708709717e-01
-7.661696434020996094e+00 -4.207537651062011719e+00 1.067914348095655441e-02
-1.426782035827636719e+01 -6.442917346954345703e+00 8.834783434867858887e-01
-1.407436466217041016e+01 -6.981217861175537109e+00 7.381482720375061035e-01
-1.458400058746337891e+01 -5.955332279205322266e+00 4.675400555133819580e-01
-7.840276718139648438e+00 -3.537138223648071289e+00 1.741628944873809814e-01
-7.668900966644287109e+00 -4.150452136993408203e+00 1.065348740667104721e-02
-1.430617237091064453e+01 -6.354845046997070312e+00 8.834220170974731445e-01
-1.402538394927978516e+01 -6.850013732910156250e+00 7.333611845970153809e-01
-1.497278594970703125e+01 -6.007166862487792969e+00 4.788132309913635254e-01
-7.837158203125000000e+00 -3.478014469146728516e+00 1.736162900924682617e-01
-7.699517726898193359e+00 -4.106142044067382812e+00 1.066081877797842026e-02
-1.436776828765869141e+01 -6.276937007904052734e+00 8.848305940628051758e-01
-1.420308685302734375e+01 -6.829188346862792969e+00 7.404479384422302246e-01
-1.430282402038574219e+01 -6.242619514465332031e+00 3.159954249858856201e-01
-7.326210975646972656e+00 -3.849507570266723633e+00 1.011103857308626175e-02
-1.443628501892089844e+01 -6.201664447784423828e+00 8.866899609565734863e-01
-1.419506454467773438e+01 -6.718408584594726562e+00 7.378666996955871582e-01
-1.435004520416259766e+01 -6.158684253692626953e+00 3.161978721618652344e-01
-7.864775657653808594e+00 -4.071108818054199219e+00 1.081964280456304550e-02
-1.451545429229736328e+01 -6.130448341369628906e+00 8.892254233360290527e-01
-1.422787094116210938e+01 -6.627386569976806641e+00 7.374442815780639648e-01
-1.444836044311523438e+01 -6.096169948577880859e+00 3.175339996814727783e-01
-7.776465892791748047e+00 -3.965085744857788086e+00 1.066448260098695755e-02
-1.462195491790771484e+01 -6.069977283477783203e+00 8.934512734413146973e-01
-1.422195720672607422e+01 -6.518734455108642578e+00 7.350507378578186035e-01
-1.450673580169677734e+01 -6.016211032867431641e+00 3.179996311664581299e-01
-7.786350727081298828e+00 -3.910115480422973633e+00 1.064493507146835327e-02
-1.487339591979980469e+01 -6.067638874053955078e+00 9.065231680870056152e-01
-1.419339370727539062e+01 -6.400549888610839844e+00 7.315308451652526855e-01
-1.406896877288818359e+01 -6.963440895080566406e+00 5.893353223800659180e-01
-1.469336605072021484e+01 -5.988213539123535156e+00 3.212792277336120605e-01
-7.807398319244384766e+00 -3.515849590301513672e+00 9.116433560848236084e-02
-7.925829410552978516e+00 -3.919448375701904297e+00 1.080253813415765762e-02
-1.423605155944824219e+01 -6.314960479736328125e+00 7.317185401916503906e-01
-1.404675292968750000e+01 -6.845464706420898438e+00 5.866341590881347656e-01
-1.499992656707763672e+01 -6.006091594696044922e+00 3.271703720092773438e-01
-7.831566333770751953e+00 -3.469092845916748047e+00 9.119626879692077637e-02
-8.086391448974609375e+00 -3.937283277511596680e+00 1.098824199289083481e-02
-1.438897705078125000e+01 -6.277419090270996094e+00 7.375850677490234375e-01
-1.418939971923828125e+01 -6.807558536529541016e+00 5.908359289169311523e-01
-7.833453655242919922e+00 -3.412587404251098633e+00 9.097269922494888306e-02
-8.054488182067871094e+00 -3.860792875289916992e+00 1.091249380260705948e-02
-1.443548488616943359e+01 -6.192556381225585938e+00 7.380074858665466309e-01
-1.411614513397216797e+01 -6.666172981262207031e+00 5.860714316368103027e-01
-8.073504447937011719e+00 -3.809165239334106445e+00 1.090638525784015656e-02
-1.441706657409667969e+01 -6.080187320709228516e+00 7.351446151733398438e-01
-1.414318943023681641e+01 -6.573114871978759766e+00 5.855087041854858398e-01
-7.838232040405273438e+00 -3.639529466629028320e+00 1.055819261819124222e-02
-1.453622817993164062e+01 -6.025654792785644531e+00 7.393215894699096680e-01
-1.415599155426025391e+01 -6.473742485046386719e+00 5.843832492828369141e-01
-1.471073818206787109e+01 -6.088969707489013672e+00 1.695105135440826416e-01
-7.840406417846679688e+00 -3.582224130630493164e+00 1.053131464868783951e-02
-1.471076488494873047e+01 -5.992497444152832031e+00 7.463144659996032715e-01
-1.420273780822753906e+01 -6.390041351318359375e+00 5.846833586692810059e-01
-1.473114967346191406e+01 -5.991810321807861328e+00 1.693188697099685669e-01
-7.747314929962158203e+00 -3.482390880584716797e+00 1.037737634032964706e-02
-1.423162651062011719e+01 -6.298326015472412109e+00 5.842706561088562012e-01
-7.808778285980224609e+00 -3.452581167221069336e+00 1.043113227933645248e-02
-1.428741359710693359e+01 -6.218461036682128906e+00 5.849834680557250977e-01
-7.817894935607910156e+00 -3.399418830871582031e+00 1.041525043547153473e-02
-1.434367561340332031e+01 -6.138541221618652344e+00 5.857337713241577148e-01
-7.908486843109130859e+00 -3.381262540817260742e+00 1.050810236483812332e-02
-1.443909931182861328e+01 -6.074828624725341797e+00 5.880972743034362793e-01
-8.368821144104003906e+00 -3.517498731613159180e+00 1.109086629003286362e-02
-1.454443836212158203e+01 -6.014375686645507812e+00 5.908734798431396484e-01
-8.444776535034179688e+00 -3.488609313964843750e+00 1.116294879466295242e-02
-1.476807594299316406e+01 -6.001010417938232422e+00 5.984516143798828125e-01
-8.413209915161132812e+00 -3.415288209915161133e+00 1.109331101179122925e-02
-8.471161842346191406e+00 -3.378418922424316406e+00 1.114218030124902725e-02
-8.504767417907714844e+00 -3.331483602523803711e+00 1.115928404033184052e-02
-8.508248329162597656e+00 -3.272774219512939453e+00 1.113729272037744522e-02
-8.581493377685546875e+00 -3.240643978118896484e+00 1.120693143457174301e-02
-8.615282058715820312e+00 -3.193140983581542969e+00 1.122525800019502640e-02
-1.102938270568847656e+01 -2.703973770141601562e+00 3.370382189750671387e-01
-8.466491699218750000e+00 -3.079041004180908203e+00 1.100656762719154358e-02
-8.631213188171386719e+00 -3.079113721847534180e+00 1.119593624025583267e-02
-8.658438682556152344e+00 -3.029067516326904297e+00 1.120693143457174301e-02
-8.691050529479980469e+00 -2.980749607086181641e+00 1.122525800019502640e-02
-8.655146598815917969e+00 -2.909205675125122070e+00 1.115561928600072861e-02
-1.100737953186035156e+01 -2.762246131896972656e+00 2.297946065664291382e-01
-8.693731307983398438e+00 -2.862925291061401367e+00 1.118249725550413132e-02
-1.101829338073730469e+01 -2.693229675292968750e+00 2.296731323003768921e-01
-9.040430068969726562e+00 -2.915732860565185547e+00 1.160521525889635086e-02
-8.767305374145507812e+00 -2.768369436264038086e+00 1.123258750885725021e-02
-8.842407226562500000e+00 -2.732532262802124023e+00 1.130711287260055542e-02
-8.836034774780273438e+00 -2.671279907226562500e+00 1.127779204398393631e-02
-8.868560791015625000e+00 -2.621832132339477539e+00 1.129856053739786148e-02
-1.097501564025878906e+01 -2.746108770370483398e+00 1.204523220658302307e-01
-8.864307403564453125e+00 -2.561536312103271484e+00 1.127290446311235428e-02
-1.099554634094238281e+01 -2.679662704467773438e+00 1.204949170351028442e-01
-8.779769897460937500e+00 -2.478839635848999023e+00 1.114584412425756454e-02
-9.049317359924316406e+00 -2.495093345642089844e+00 1.146838162094354630e-02
-9.037419319152832031e+00 -2.432244062423706055e+00 1.143417321145534515e-02
-9.069582939147949219e+00 -2.381316900253295898e+00 1.145616453140974045e-02
-8.204393386840820312e+00 -2.100425958633422852e+00 1.034683361649513245e-02
-8.670238494873046875e+00 -2.163089513778686523e+00 1.091738138347864151e-02
-8.966119766235351562e+00 -2.178555965423583984e+00 1.127290446311235428e-02
-8.469384193420410156e+00 -2.002906560897827148e+00 1.063271798193454742e-02
-8.465921401977539062e+00 -1.947315216064453125e+00 1.061317045241594315e-02
-8.412324905395507812e+00 -1.880714654922485352e+00 1.053131464868783951e-02
-8.981702804565429688e+00 -1.950221538543701172e+00 1.122892182320356369e-02
-9.031662940979003906e+00 -1.903115510940551758e+00 1.127657014876604080e-02
-8.966749191284179688e+00 -1.832048416137695312e+00 1.118127536028623581e-02
-9.158319473266601562e+00 -1.812721252441406250e+00 1.140607334673404694e-02
-9.201680183410644531e+00 -1.762701392173767090e+00 1.144639030098915100e-02
-9.193640708923339844e+00 -1.702747702598571777e+00 1.142317801713943481e-02
-9.316134452819824219e+00 -1.666377186775207520e+00 1.156245544552803040e-02
-9.287751197814941406e+00 -1.602551698684692383e+00 1.151480711996555328e-02
-9.735399246215820312e+00 -1.618341088294982910e+00 1.205725595355033875e-02
-9.395587921142578125e+00 -1.502669453620910645e+00 1.162476278841495514e-02
-9.386840820312500000e+00 -1.442257404327392578e+00 1.160277239978313446e-02
-9.157089233398437500e+00 -1.349496603012084961e+00 1.130833476781845093e-02
-9.183019638061523438e+00 -1.295799374580383301e+00 1.133032608777284622e-02
-9.555496215820312500e+00 -1.288610577583312988e+00 1.177992299199104309e-02
-9.621741294860839844e+00 -1.237480998039245605e+00 1.185200456529855728e-02
-9.578531265258789062e+00 -1.172224760055541992e+00 1.178969722241163254e-02
-9.405753135681152344e+00 -1.092545866966247559e+00 1.156856399029493332e-02
-9.687619209289550781e+00 -1.065084457397460938e+00 1.190698239952325821e-02
-9.709886550903320312e+00 -1.007273197174072266e+00 1.192652992904186249e-02
-9.768634796142578125e+00 -9.528205990791320801e-01 1.199128199368715286e-02
-9.897782325744628906e+00 -9.041436314582824707e-01 1.214277651160955429e-02
-9.829411506652832031e+00 -8.371155858039855957e-01 1.205236930400133133e-02
-1.009355545043945312e+01 -7.972605228424072266e-01 1.237001921981573105e-02
-1.019101142883300781e+01 -7.420666217803955078e-01 1.248363964259624481e-02
-1.018539428710937500e+01 -6.788567304611206055e-01 1.247142162173986435e-02
-9.986739158630371094e+00 -6.040906310081481934e-01 1.222341042011976242e-02
-9.916367530822753906e+00 -5.387870669364929199e-01 1.213300321251153946e-02
-1.016919612884521484e+01 -4.899625480175018311e-01 1.243843603879213333e-02
-1.017400932312011719e+01 -4.276402890682220459e-01 1.244087889790534973e-02
-1.028037548065185547e+01 -3.689355850219726562e-01 1.256793923676013947e-02
-1.071703529357910156e+01 8.446252346038818359e-01 3.190604448318481445e-01
-1.021647453308105469e+01 -3.038871288299560547e-01 1.248730532824993134e-02
-7.904013156890869141e+00 6.717507243156433105e-01 2.354313284158706665e-01
-9.461358070373535156e+00 -2.233306914567947388e-01 1.156245544552803040e-02
-7.857934474945068359e+00 7.164245247840881348e-01 2.341853529214859009e-01
-9.896484375000000000e+00 -1.728517562150955200e-01 1.209268625825643539e-02
-1.046032142639160156e+01 -1.185024976730346680e-01 1.278052013367414474e-02
-1.050585079193115234e+01 -5.455059185624122620e-02 1.283549796789884567e-02
-1.056898784637451172e+01 9.972567670047283173e-03 1.291246619075536728e-02
-1.079272556304931641e+01 8.580540418624877930e-01 2.192270159721374512e-01
-1.058972644805908203e+01 7.497113943099975586e-02 1.293812226504087448e-02
-7.857594490051269531e+00 6.732449531555175781e-01 1.596881300210952759e-01
-9.295182228088378906e+00 1.228468343615531921e-01 1.135720405727624893e-02
-7.852320194244384766e+00 7.213541269302368164e-01 1.596678793430328369e-01
-1.035605335235595703e+01 2.004285156726837158e-01 1.265468169003725052e-02
-1.103940582275390625e+01 2.814251482486724854e-01 1.349156629294157028e-02
-4.876641273498535156e+00 6.872659921646118164e-01 1.461655795574188232e-01
-1.085656166076660156e+01 3.434335291385650635e-01 1.327043399214744568e-02
-4.877277374267578125e+00 7.179033756256103516e-01 1.463139206171035767e-01
-1.085025310516357422e+01 4.098906815052032471e-01 1.326554734259843826e-02
-4.928108215332031250e+00 7.563073039054870605e-01 1.479752361774444580e-01
-1.373002624511718750e+01 1.601976037025451660e+00 2.798995673656463623e-01
-1.078077697753906250e+01 8.645601272583007812e-01 1.151504665613174438e-01
-1.083954143524169922e+01 4.761078059673309326e-01 1.325577311217784882e-02
-7.877223968505859375e+00 6.803802847862243652e-01 8.418035507202148438e-02
-1.082942485809326172e+01 5.422589778900146484e-01 1.324722077697515488e-02
-7.893810272216796875e+00 7.306365370750427246e-01 8.440393209457397461e-02
-1.081890487670898438e+01 6.083039045333862305e-01 1.323866844177246094e-02
-1.134992790222167969e+01 7.080487012863159180e-01 1.389351673424243927e-02
-4.837718486785888672e+00 6.851715445518493652e-01 9.893456101417541504e-02
-1.077670478820800781e+01 7.386975884437561035e-01 1.319712959229946136e-02
-4.836390972137451172e+00 7.152811884880065918e-01 9.899529814720153809e-02
-1.077196884155273438e+01 8.048082590103149414e-01 1.319712959229946136e-02
-4.854637622833251953e+00 7.484470605850219727e-01 9.946091473102569580e-02
-1.375082111358642578e+01 1.613981604576110840e+00 1.474087834358215332e-01
-7.910160064697265625e+00 6.398234367370605469e-01 9.695651009678840637e-03
-1.370790958404541016e+01 1.694276928901672363e+00 1.470574438571929932e-01
-7.899111747741699219e+00 6.877400875091552734e-01 9.687098674476146698e-03
-7.887773513793945312e+00 7.355452179908752441e-01 9.678547270596027374e-03
-4.840116500854492188e+00 6.586303114891052246e-01 5.200721323490142822e-02
-7.865200042724609375e+00 7.821486592292785645e-01 9.656555950641632080e-03
-4.861723423004150391e+00 6.919798254966735840e-01 5.228401720523834229e-02
-1.066464519500732422e+01 1.126662969589233398e+00 1.310183573514223099e-02
-4.864309310913085938e+00 7.228266000747680664e-01 5.235854163765907288e-02
-1.010895252227783203e+01 1.130718588829040527e+00 1.242744084447622299e-02
-4.869664669036865234e+00 7.541902661323547363e-01 5.246500670909881592e-02
-1.361541557312011719e+01 1.607575178146362305e+00 1.674992218613624573e-02
-1.289277839660644531e+01 1.602524280548095703e+00 1.587271876633167267e-02
-4.847870826721191406e+00 6.328014135360717773e-01 5.973039194941520691e-03
-4.873619556427001953e+00 6.666009426116943359e-01 6.009690929204225540e-03
-4.912752151489257812e+00 7.009378671646118164e-01 1.863033324480056763e-01
-4.877357006072998047e+00 6.976250410079956055e-01 6.019464693963527679e-03
-4.898475170135498047e+00 7.295966744422912598e-01 1.859281808137893677e-01
-4.857160568237304688e+00 7.251762747764587402e-01 5.999917164444923401e-03
-4.878310203552246094e+00 7.589625120162963867e-01 6.031682249158620834e-03
-4.879484653472900391e+00 7.898397445678710938e-01 6.039012689143419266e-03
-1.376797008514404297e+01 2.402353763580322266e+00 1.707490161061286926e-02
-1.421350193023681641e+01 2.570059537887573242e+00 1.764667034149169922e-02
-1.333641719818115234e+01 2.496068477630615234e+00 1.657643541693687439e-02
-1.466977787017822266e+01 2.932392358779907227e+00 1.827708445489406586e-02
-1.248903942108154297e+01 2.576269865036010742e+00 1.557950396090745926e-02
-1.495129776000976562e+01 3.275973320007324219e+00 1.869980245828628540e-02
-2.392359256744384766e+00 1.039265632629394531e+00 1.718742847442626953e-01
-2.378635406494140625e+00 1.050699830055236816e+00 1.713482737541198730e-01
-2.345076084136962891e+00 1.036365151405334473e+00 7.609391957521438599e-02
-2.325720310211181641e+00 1.044427394866943359e+00 1.679949462413787842e-01
-2.334114313125610352e+00 1.048686504364013672e+00 7.594559341669082642e-02
-2.310190677642822266e+00 1.054534554481506348e+00 1.673374325037002563e-01
-2.336728096008300781e+00 1.067140936851501465e+00 7.624225318431854248e-02
-2.350989580154418945e+00 1.091137170791625977e+00 7.692457735538482666e-02
-2.422497272491455078e+00 1.036204218864440918e+00 1.486925631761550903e-01
-2.397783041000366211e+00 1.043083429336547852e+00 1.475656777620315552e-01
-2.379467725753784180e+00 1.052525758743286133e+00 1.468331962823867798e-01
-2.333030462265014648e+00 1.032958745956420898e+00 5.166380107402801514e-02
-2.353842496871948242e+00 1.058506965637207031e+00 1.456499695777893066e-01
-2.328471899032592773e+00 1.048075318336486816e+00 5.170429125428199768e-02
-2.345487356185913086e+00 1.072099804878234863e+00 1.455372869968414307e-01
-2.336543798446655273e+00 1.068998098373413086e+00 5.202820524573326111e-02
-2.332660436630249023e+00 1.084579229354858398e+00 5.208893865346908569e-02
-2.381827116012573242e+00 1.020252704620361328e+00 1.217418983578681946e-01
-2.413069009780883789e+00 1.051204681396484375e+00 1.236661225557327271e-01
-2.402006864547729492e+00 1.063968420028686523e+00 1.234314590692520142e-01
-2.366486072540283203e+00 1.049717068672180176e+00 2.756329253315925598e-02
-2.373573780059814453e+00 1.068843245506286621e+00 1.223050877451896667e-01
-2.352708101272583008e+00 1.060929298400878906e+00 2.747811935842037201e-02
-2.353346586227416992e+00 1.077151179313659668e+00 1.216011047363281250e-01
-2.269797325134277344e+00 1.040347695350646973e+00 2.658383175730705261e-02
-2.445474147796630859e+00 1.015653014183044434e+00 3.235141746699810028e-03
-2.375637054443359375e+00 1.003783226013183594e+00 3.150842385366559029e-03
-2.396076679229736328e+00 1.029791831970214844e+00 3.186272224411368370e-03
-2.375575304031372070e+00 1.037307977676391602e+00 9.731592237949371338e-02
-2.389712810516357422e+00 1.044474482536315918e+00 3.186272224411368370e-03
-2.424878835678100586e+00 1.076600193977355957e+00 9.960438311100006104e-02
-2.380517482757568359e+00 1.057899475097656250e+00 3.182607237249612808e-03
-2.379449605941772461e+00 1.074956417083740234e+00 3.189937444403767586e-03
-2.390984296798706055e+00 1.097881913185119629e+00 3.214372089132666588e-03
-2.305363893508911133e+00 1.075743675231933594e+00 3.108081640675663948e-03
-8.145577430725097656e+00 6.586601257324218750e+00 3.109022378921508789e-01
-8.142131805419921875e+00 6.666853904724121094e+00 3.123262524604797363e-01
-8.082604408264160156e+00 6.701375961303710938e+00 3.116142451763153076e-01
-8.024490356445312500e+00 6.736704349517822266e+00 3.109615743160247803e-01
-3.871029376983642578e+00 3.364886283874511719e+00 1.101449489593505859e+00
-3.837428808212280273e+00 3.378427267074584961e+00 1.298458695411682129e+00
-3.852511644363403320e+00 3.390512704849243164e+00 1.102079272270202637e+00
-3.813862562179565430e+00 3.357679843902587891e+00 8.977984189987182617e-01
-8.144875526428222656e+00 6.678455352783203125e+00 2.132751494646072388e-01
-3.828203678131103516e+00 3.412228584289550781e+00 1.302397131919860840e+00
-3.836015224456787109e+00 3.417989969253540039e+00 1.103339076042175293e+00
-3.779221296310424805e+00 3.368568658828735352e+00 8.944925665855407715e-01
-8.099127769470214844e+00 6.724473476409912109e+00 2.131536751985549927e-01
-3.806474924087524414e+00 3.435004472732543945e+00 1.302151083946228027e+00
-3.810614824295043945e+00 3.437533617019653320e+00 1.102079272270202637e+00
-3.784799575805664062e+00 3.415444374084472656e+00 9.007562398910522461e-01
-3.794307231903076172e+00 3.425225734710693359e+00 7.120279073715209961e-01
-3.832673072814941406e+00 3.462288618087768555e+00 5.291917920112609863e-01
-3.854290962219238281e+00 3.484261512756347656e+00 3.423677980899810791e-01
-8.027869224548339844e+00 6.748950958251953125e+00 2.123641520738601685e-01
-3.782464265823364258e+00 3.455680847167968750e+00 1.301166415214538574e+00
-3.776456117630004883e+00 3.448982715606689453e+00 1.098300099372863770e+00
-3.761590719223022461e+00 3.436610698699951172e+00 9.002342820167541504e-01
-3.749092817306518555e+00 3.426393032073974609e+00 7.074751257896423340e-01
-3.801813602447509766e+00 3.477012395858764648e+00 5.278667807579040527e-01
-3.833575487136840820e+00 3.508518934249877930e+00 3.424335420131683350e-01
-3.900776386260986328e+00 3.571273088455200195e+00 1.569641083478927612e-01
-3.778047800064086914e+00 3.495640993118286133e+00 1.516841053962707520e+00
-3.770439386367797852e+00 3.487380027770996094e+00 1.304366350173950195e+00
-3.733685970306396484e+00 3.452177047729492188e+00 1.092001318931579590e+00
-3.720914125442504883e+00 3.441572904586791992e+00 8.955365419387817383e-01
-3.707642555236816406e+00 3.430498600006103516e+00 7.036121487617492676e-01
-3.732960700988769531e+00 3.456343650817871094e+00 5.212417244911193848e-01
-3.796604633331298828e+00 3.517733573913574219e+00 3.410527706146240234e-01
-3.861195564270019531e+00 3.578832864761352539e+00 1.562521159648895264e-01
-3.748826980590820312e+00 3.511543512344360352e+00 1.513731598854064941e+00
-3.753922462463378906e+00 3.515086650848388672e+00 1.306089401245117188e+00
-3.862416505813598633e+00 3.356142282485961914e+00 1.244510769844055176e+00
-3.698871374130249023e+00 3.462326526641845703e+00 1.088011980056762695e+00
-3.842191219329833984e+00 3.340922594070434570e+00 1.041447639465332031e+00
-3.689663648605346680e+00 3.454916238784790039e+00 8.931006193161010742e-01
-3.686523675918579102e+00 3.453183650970458984e+00 7.036121487617492676e-01
-3.713134288787841797e+00 3.480544090270996094e+00 5.214455127716064453e-01
-3.758937835693359375e+00 3.525944232940673828e+00 3.396062254905700684e-01
-3.832603693008422852e+00 3.596301794052124023e+00 1.559851169586181641e-01
-3.691017150878906250e+00 3.500158309936523438e+00 1.499032616615295410e+00
-3.728063344955444336e+00 3.534053325653076172e+00 1.304612517356872559e+00
-3.852693796157836914e+00 3.389405488967895508e+00 1.248055696487426758e+00
-3.676847696304321289e+00 3.484284877777099609e+00 1.087802052497863770e+00
-3.847356796264648438e+00 3.387093305587768555e+00 1.048461437225341797e+00
-3.648384332656860352e+00 3.458520889282226562e+00 8.882288336753845215e-01
-3.668859004974365234e+00 3.479146003723144531e+00 7.043018937110900879e-01
-3.708305120468139648e+00 3.519011735916137695e+00 5.237898230552673340e-01
-3.745914697647094727e+00 3.557187557220458984e+00 3.403952419757843018e-01
-3.825683593750000000e+00 3.634207248687744141e+00 1.566081047058105469e-01
-8.141490936279296875e+00 6.685042381286621094e+00 1.121588572859764099e-01
-3.663934946060180664e+00 3.517425537109375000e+00 1.496771097183227539e+00
-3.704210758209228516e+00 3.554848670959472656e+00 1.303874135017395020e+00
-3.828922271728515625e+00 3.410396575927734375e+00 1.247110366821289062e+00
-3.665276765823364258e+00 3.516255855560302734e+00 1.090741515159606934e+00
-3.836740732192993164e+00 3.419762849807739258e+00 1.051267027854919434e+00
-3.622831821441650391e+00 3.476751089096069336e+00 8.871849179267883301e-01
-3.775592088699340820e+00 3.367625713348388672e+00 8.429973721504211426e-01
-3.666018962860107422e+00 3.519426107406616211e+00 7.078889608383178711e-01
-3.724664449691772461e+00 3.578225612640380859e+00 5.291917920112609863e-01
-3.757923364639282227e+00 3.613962411880493164e+00 1.547391265630722046e-01
-8.071868896484375000e+00 6.711217880249023438e+00 1.117649376392364502e-01
-3.645035266876220703e+00 3.542515039443969727e+00 1.497901797294616699e+00
-3.695537090301513672e+00 3.590342521667480469e+00 1.308551073074340820e+00
-3.797821760177612305e+00 3.424715995788574219e+00 1.243801832199096680e+00
-3.655555963516235352e+00 3.550259351730346680e+00 1.094310879707336426e+00
-3.817139863967895508e+00 3.444552898406982422e+00 1.051667690277099609e+00
-3.607787370681762695e+00 3.505090475082397461e+00 8.887508511543273926e-01
-3.755589723587036133e+00 3.391389846801757812e+00 8.431617617607116699e-01
-3.640093803405761719e+00 3.537712574005126953e+00 7.070612311363220215e-01
-3.782731056213378906e+00 3.418297052383422852e+00 6.603585481643676758e-01
-3.685523033142089844e+00 3.584366559982299805e+00 5.267456173896789551e-01
-3.846242666244506836e+00 3.478129625320434570e+00 4.819711148738861084e-01
-3.879895448684692383e+00 3.511024236679077148e+00 2.953003942966461182e-01
-8.035128593444824219e+00 6.764483451843261719e+00 1.118288189172744751e-01
-3.634170055389404297e+00 3.575577497482299805e+00 1.502424597740173340e+00
-3.677583456039428711e+00 3.617027997970581055e+00 1.310027837753295898e+00
-3.773148536682128906e+00 3.444678783416748047e+00 1.242620110511779785e+00
-3.631611347198486328e+00 3.570566177368164062e+00 1.093680977821350098e+00
-3.782912969589233398e+00 3.456014871597290039e+00 1.048060655593872070e+00
-3.606572628021240234e+00 3.547186374664306641e+00 8.937965631484985352e-01
-3.757278442382812500e+00 3.435002565383911133e+00 8.482568860054016113e-01
-3.611963987350463867e+00 3.553729295730590820e+00 7.058195471763610840e-01
-3.749246597290039062e+00 3.430063009262084961e+00 6.581748723983764648e-01
-3.617383718490600586e+00 3.561547517776489258e+00 5.201205015182495117e-01
-3.793983697891235352e+00 3.473425149917602539e+00 4.780842661857604980e-01
-3.565365552902221680e+00 3.512784242630004883e+00 3.298092484474182129e-01
-3.852389812469482422e+00 3.529369354248046875e+00 2.948496341705322266e-01
-3.519653797149658203e+00 3.468957185745239258e+00 1.466699242591857910e-01
-3.908082008361816406e+00 3.582901477813720703e+00 1.073562577366828918e-01
-3.619638204574584961e+00 3.605255126953125000e+00 1.505534052848815918e+00
-3.658068180084228516e+00 3.642260551452636719e+00 1.311012506484985352e+00
-3.749087095260620117e+00 3.465127468109130859e+00 1.241674780845642090e+00
-3.605476617813110352e+00 3.588643550872802734e+00 1.092421174049377441e+00
-3.724954843521118164e+00 3.445234775543212891e+00 1.037840604782104492e+00
-3.581250667572021484e+00 3.565775394439697266e+00 8.929266333580017090e-01
-3.710793972015380859e+00 3.434541463851928711e+00 8.425043225288391113e-01
-3.595704555511474609e+00 3.581416606903076172e+00 7.069232463836669922e-01
-3.699026346206665039e+00 3.426048040390014648e+00 6.530368924140930176e-01
-3.546142101287841797e+00 3.534517765045166016e+00 5.129858255386352539e-01
-3.744118928909301758e+00 3.470241785049438477e+00 4.744750261306762695e-01
-3.536679506301879883e+00 3.527547836303710938e+00 3.291517198085784912e-01
-3.811629056930541992e+00 3.535287857055664062e+00 2.933846712112426758e-01
-3.503962993621826172e+00 3.496136188507080078e+00 1.469072401523590088e-01
-3.868436813354492188e+00 3.590490102767944336e+00 1.068703830242156982e-01
-3.581913471221923828e+00 3.611732482910156250e+00 1.499032616615295410e+00
-3.642477035522460938e+00 3.671518325805664062e+00 1.313474059104919434e+00
-3.724207162857055664e+00 3.484746694564819336e+00 1.240493059158325195e+00
-3.882173538208007812e+00 3.372046232223510742e+00 1.198513984680175781e+00
-3.587521553039550781e+00 3.614862680435180664e+00 1.093680977821350098e+00
-3.698739051818847656e+00 3.463338375091552734e+00 1.036437869071960449e+00
-3.857766866683959961e+00 3.355574607849121094e+00 9.957088828086853027e-01
-3.569707393646240234e+00 3.598168373107910156e+00 8.955365419387817383e-01
-3.678853034973144531e+00 3.447128772735595703e+00 8.400388956069946289e-01
-3.579241514205932617e+00 3.609038114547729492e+00 7.080270051956176758e-01
-3.689509868621826172e+00 3.459533929824829102e+00 6.550921201705932617e-01
-3.513183593750000000e+00 3.544904470443725586e+00 5.113550424575805664e-01
-3.726386070251464844e+00 3.496556758880615234e+00 4.749377667903900146e-01
-3.505840301513671875e+00 3.539965391159057617e+00 3.282969594001770020e-01
-3.786953687667846680e+00 3.555875301361083984e+00 2.931592762470245361e-01
-3.481038570404052734e+00 3.516149520874023438e+00 1.468479186296463013e-01
-3.836132764816284180e+00 3.604573965072631836e+00 1.065869629383087158e-01
-8.078109741210937500e+00 6.559636116027832031e+00 1.271332427859306335e-02
-3.686439990997314453e+00 3.489636659622192383e+00 1.438322544097900391e+00
-3.623950958251953125e+00 3.697952508926391602e+00 1.314951062202453613e+00
-3.706282377243041992e+00 3.510873556137084961e+00 1.241674780845642090e+00
-3.860678672790527344e+00 3.395160198211669922e+00 1.198287010192871094e+00
-3.577593803405761719e+00 3.649374485015869141e+00 1.097460269927978516e+00
-3.672441720962524414e+00 3.481250286102294922e+00 1.035035133361816406e+00
-3.839314699172973633e+00 3.381128787994384766e+00 9.962823987007141113e-01
-3.576510429382324219e+00 3.649543523788452148e+00 9.028441309928894043e-01
-3.642604112625122070e+00 3.455380916595458984e+00 8.365873694419860840e-01
-3.570891618728637695e+00 3.645082235336303711e+00 7.107862234115600586e-01
-3.681159496307373047e+00 3.494396686553955078e+00 6.574041843414306641e-01
-3.499717235565185547e+00 3.574924707412719727e+00 5.125781297683715820e-01
-3.713524103164672852e+00 3.527584552764892578e+00 4.760482609272003174e-01
-3.474982261657714844e+00 3.552137613296508789e+00 3.274421989917755127e-01
-3.774471282958984375e+00 3.587987184524536133e+00 2.938917577266693115e-01
-3.460796117782592773e+00 3.538871765136718750e+00 1.469072401523590088e-01
-3.818289756774902344e+00 3.632178783416748047e+00 1.067084297537803650e-01
-8.132715225219726562e+00 6.687198638916015625e+00 1.286359690129756927e-02
-3.667042732238769531e+00 3.514187812805175781e+00 1.439140558242797852e+00
-3.613326549530029297e+00 3.732653856277465820e+00 1.319381713867187500e+00
-3.688878059387207031e+00 3.537584066390991211e+00 1.243092775344848633e+00
-3.827408313751220703e+00 3.407775402069091797e+00 1.194428086280822754e+00
-3.586421251296997070e+00 3.703566312789916992e+00 1.107118368148803711e+00
-3.648891210556030273e+00 3.501683235168457031e+00 1.034433841705322266e+00
-3.825089931488037109e+00 3.410501480102539062e+00 9.980027079582214355e-01
-3.611583471298217773e+00 3.730853080749511719e+00 9.174594879150390625e-01
-3.624179840087890625e+00 3.480399608612060547e+00 8.372448682785034180e-01
-3.780653238296508789e+00 3.372065782546997070e+00 7.951233386993408203e-01
-3.549147367477416992e+00 3.667635917663574219e+00 7.109242081642150879e-01
-3.653928756713867188e+00 3.511420965194702148e+00 6.563766002655029297e-01
-3.488089084625244141e+00 3.607057809829711914e+00 5.141069889068603516e-01
-3.695398092269897461e+00 3.553754806518554688e+00 4.765110015869140625e-01
-3.453121185302734375e+00 3.573392629623413086e+00 3.274421989917755127e-01
-8.119685173034667969e+00 6.755618572235107422e+00 3.965417444705963135e-01
-3.437628030776977539e+00 3.558602571487426758e+00 1.468479186296463013e-01
-3.748400926589965820e+00 3.609766721725463867e+00 1.053723022341728210e-01
-8.080002784729003906e+00 6.727376937866210938e+00 1.284527219831943512e-02
-3.647482395172119141e+00 3.538631916046142578e+00 1.439958333969116211e+00
-3.560212373733520508e+00 3.723231315612792969e+00 1.308304786682128906e+00
-3.662919282913208008e+00 3.556091070175170898e+00 1.241674780845642090e+00
-3.804256439208984375e+00 3.429239749908447266e+00 1.193747162818908691e+00
-3.593365430831909180e+00 3.756589651107788086e+00 1.116356611251831055e+00
-3.632958173751831055e+00 3.529467821121215820e+00 1.036036968231201172e+00
-3.844893932342529297e+00 3.470739603042602539e+00 1.008707284927368164e+00
-3.581136941909790039e+00 3.745114088058471680e+00 9.155455231666564941e-01
-3.616901397705078125e+00 3.516323328018188477e+00 8.405320048332214355e-01
-3.764290571212768555e+00 3.399172544479370117e+00 7.960536479949951172e-01
-3.513573169708251953e+00 3.675740718841552734e+00 7.083029150962829590e-01
-3.636579275131225586e+00 3.537924051284790039e+00 6.571472883224487305e-01
-3.778719663619995117e+00 3.418193101882934570e+00 6.120960116386413574e-01
-3.427411556243896484e+00 3.588109254837036133e+00 5.083992481231689453e-01
-3.847656011581420898e+00 3.482995033264160156e+00 4.330768287181854248e-01
-3.888128995895385742e+00 3.522102355957031250e+00 2.464874684810638428e-01
-5.811553955078125000e+00 5.665752887725830078e+00 1.643443405628204346e-01
-8.038572311401367188e+00 6.776828289031982422e+00 1.284527219831943512e-02
-3.626387834548950195e+00 3.561620235443115234e+00 1.440231084823608398e+00
-3.506685495376586914e+00 3.712594270706176758e+00 1.296981692314147949e+00
-3.645881652832031250e+00 3.583266973495483398e+00 1.243329048156738281e+00
-3.778827190399169922e+00 3.448578596115112305e+00 1.192385196685791016e+00
-3.546745777130126953e+00 3.753694057464599609e+00 1.109007954597473145e+00
-3.619615316390991211e+00 3.559936523437500000e+00 1.038441777229309082e+00
-3.782949686050415039e+00 3.457184553146362305e+00 9.980027079582214355e-01
-3.545242309570312500e+00 3.753415107727050781e+00 9.122396707534790039e-01
-3.610723733901977539e+00 3.553672075271606445e+00 8.441479206085205078e-01
-3.755757808685302734e+00 3.433537483215332031e+00 7.986895442008972168e-01
-3.470553874969482422e+00 3.675625801086425781e+00 7.041639685630798340e-01
-3.620455026626586914e+00 3.565738201141357422e+00 6.581748723983764648e-01
-3.738637685775756836e+00 3.423880100250244141e+00 6.089949607849121094e-01
-3.579174757003784180e+00 3.527544021606445312e+00 4.670714735984802246e-01
-3.813722848892211914e+00 3.495092391967773438e+00 4.316631853580474854e-01
-3.574860095977783203e+00 3.525752305984497070e+00 2.833553850650787354e-01
-3.866444587707519531e+00 3.545893192291259766e+00 2.464874684810638428e-01
-3.543002128601074219e+00 3.496772527694702148e+00 1.007970497012138367e-01
-3.550566196441650391e+00 3.530213594436645508e+00 1.418694376945495605e+00
-3.630026102066040039e+00 3.611738443374633789e+00 1.245456099510192871e+00
-3.736136198043823242e+00 3.451873064041137695e+00 1.185575485229492188e+00
-3.533653736114501953e+00 3.786107540130615234e+00 1.112157464027404785e+00
-3.598398208618164062e+00 3.582770347595214844e+00 1.038642168045043945e+00
-3.714113473892211914e+00 3.436335325241088867e+00 9.853867292404174805e-01
-3.514084100723266602e+00 3.766457557678222656e+00 9.101518392562866211e-01
-3.597236156463623047e+00 3.584114789962768555e+00 8.461202383041381836e-01
-3.738244533538818359e+00 3.459872961044311523e+00 7.994648218154907227e-01
-3.454690933227539062e+00 3.704094886779785156e+00 7.055436372756958008e-01
-3.590782880783081055e+00 3.580183744430541992e+00 6.567620038986206055e-01
-3.729207754135131836e+00 3.457556009292602539e+00 6.109032630920410156e-01
-3.529972791671752930e+00 3.522011041641235352e+00 4.634622633457183838e-01
-3.762253284454345703e+00 3.490637302398681641e+00 4.282537698745727539e-01
-3.543974161148071289e+00 3.538450241088867188e+00 2.826229333877563477e-01
-3.827045679092407227e+00 3.553238630294799805e+00 2.453610897064208984e-01
-3.510163545608520508e+00 3.507139921188354492e+00 1.004731431603431702e-01
-3.868738889694213867e+00 3.595722675323486328e+00 5.623379722237586975e-02
-3.766354322433471680e+00 3.519178628921508789e+00 1.406275510787963867e+00
-3.598896741867065430e+00 3.624979734420776367e+00 1.242383837699890137e+00
-3.701371908187866211e+00 3.462092638015747070e+00 1.181262731552124023e+00
-3.898512840270996094e+00 3.387357950210571289e+00 1.154414057731628418e+00
-3.583937168121337891e+00 3.612432956695556641e+00 1.040846467018127441e+00
-3.688660383224487305e+00 3.455034017562866211e+00 9.842398166656494141e-01
-3.853896856307983398e+00 3.354498386383056641e+00 9.451123476028442383e-01
-3.584899425506591797e+00 3.615926265716552734e+00 8.484212160110473633e-01
-3.713340282440185547e+00 3.479367733001708984e+00 7.986895442008972168e-01
-3.551996231079101562e+00 3.585240602493286133e+00 6.536791920661926270e-01
-3.714437484741210938e+00 3.486488103866577148e+00 6.119766831398010254e-01
-3.508295774459838867e+00 3.543604373931884766e+00 4.634622633457183838e-01
-3.725510835647583008e+00 3.499328851699829102e+00 4.265075027942657471e-01
-3.510960578918457031e+00 3.548772811889648438e+00 2.817214131355285645e-01
-3.797165393829345703e+00 3.569128751754760742e+00 2.448448389768600464e-01
-3.482251882553100586e+00 3.522212982177734375e+00 1.002909466624259949e-01
-3.839320898056030273e+00 3.612540960311889648e+00 5.612733587622642517e-02
-3.749596118927001953e+00 3.546862840652465820e+00 1.408117890357971191e+00
-3.584070205688476562e+00 3.654624938964843750e+00 1.244983315467834473e+00
-3.680766344070434570e+00 3.485408067703247070e+00 1.181489706039428711e+00
-3.860801696777343750e+00 3.396389007568359375e+00 1.149396777153015137e+00
-3.567875623703002930e+00 3.640652894973754883e+00 1.042649984359741211e+00
-3.665254592895507812e+00 3.475576162338256836e+00 9.836664199829101562e-01
-3.832503795623779297e+00 3.377432107925415039e+00 9.449304938316345215e-01
-3.575067996978759766e+00 3.650540113449096680e+00 8.513796925544738770e-01
-3.691921472549438477e+00 3.502086877822875977e+00 7.986895442008972168e-01
-3.540335178375244141e+00 3.617599248886108398e+00 6.556059122085571289e-01
-3.690096139907836914e+00 3.506478309631347656e+00 6.114996075630187988e-01
-3.488574981689453125e+00 3.567199468612670898e+00 4.637398719787597656e-01
-3.710468530654907227e+00 3.528302669525146484e+00 4.272558987140655518e-01
-3.480746030807495117e+00 3.561680555343627930e+00 2.810452878475189209e-01
-3.786772012710571289e+00 3.603377819061279297e+00 2.455957531929016113e-01
-3.459177017211914062e+00 3.542082548141479492e+00 1.002504527568817139e-01
-3.806222200393676758e+00 3.625685453414916992e+00 5.596764385700225830e-02
-3.708949565887451172e+00 3.551787376403808594e+00 1.401011586189270020e+00
-3.593353986740112305e+00 3.709348917007446289e+00 1.256090879440307617e+00
-3.669153451919555664e+00 3.517362594604492188e+00 1.184667587280273438e+00
-3.842804431915283203e+00 3.422610998153686523e+00 1.150269389152526855e+00
-3.611568450927734375e+00 3.730756521224975586e+00 1.062088251113891602e+00
-3.645983934402465820e+00 3.500039339065551758e+00 9.842398166656494141e-01
-3.807305574417114258e+00 3.396956443786621094e+00 9.438391327857971191e-01
-3.560145854949951172e+00 3.680206298828125000e+00 8.531876802444458008e-01
-3.677489280700683594e+00 3.531517028808593750e+00 8.002401590347290039e-01
-3.524275064468383789e+00 3.645671606063842773e+00 6.567620038986206055e-01
-3.675666570663452148e+00 3.535937547683715820e+00 6.126922965049743652e-01
-3.479074001312255859e+00 3.601428270339965820e+00 4.654056727886199951e-01
-3.684442281723022461e+00 3.546856641769409180e+00 4.267569780349731445e-01
-3.444264173507690430e+00 3.567885875701904297e+00 2.798620462417602539e-01
-5.811534404754638672e+00 5.604298114776611328e+00 8.595828711986541748e-02
-3.679466724395751953e+00 3.567091464996337891e+00 1.398116350173950195e+00
-3.834167242050170898e+00 3.451277494430541992e+00 1.356246232986450195e+00
-3.573885202407836914e+00 3.734837770462036133e+00 1.257272481918334961e+00
-3.656587839126586914e+00 3.548627138137817383e+00 1.187618374824523926e+00
-3.834777355194091797e+00 3.457889318466186523e+00 1.154196023941040039e+00
-3.584546566009521484e+00 3.748597860336303711e+00 1.060885906219482422e+00
-3.624439477920532227e+00 3.522344827651977539e+00 9.842398166656494141e-01
-3.796606302261352539e+00 3.429481744766235352e+00 9.463856220245361328e-01
-3.566118955612182617e+00 3.731934070587158203e+00 8.600907325744628906e-01
-3.664251089096069336e+00 3.562278747558593750e+00 8.021008372306823730e-01
-3.782067060470581055e+00 3.421145915985107422e+00 7.521679401397705078e-01
-3.504578590393066406e+00 3.670096397399902344e+00 6.572757363319396973e-01
-3.670261144638061523e+00 3.574356794357299805e+00 6.154355406761169434e-01
-3.776654481887817383e+00 3.419847249984741211e+00 5.633873939514160156e-01
-3.449348926544189453e+00 3.614783763885498047e+00 4.643876850605010986e-01
-3.880625724792480469e+00 3.517695426940917969e+00 3.873895406723022461e-01
-5.784193038940429688e+00 5.646836757659912109e+00 8.606475591659545898e-02
-3.656821727752685547e+00 3.588925361633300781e+00 1.397853136062622070e+00
-3.811488866806030273e+00 3.473435640335083008e+00 1.355737686157226562e+00
-3.552903890609741211e+00 3.758815050125122070e+00 1.257981538772583008e+00
-3.640997409820556641e+00 3.577139377593994141e+00 1.189661264419555664e+00
-3.779612779617309570e+00 3.450429201126098633e+00 1.143943309783935547e+00
-3.556768894195556641e+00 3.765536069869995117e+00 1.059483170509338379e+00
-3.598560333251953125e+00 3.540387392044067383e+00 9.830929040908813477e-01
-3.763156414031982422e+00 3.441431522369384766e+00 9.432935118675231934e-01
-3.541121721267700195e+00 3.751592874526977539e+00 8.595976233482360840e-01
-3.633875131607055664e+00 3.576379537582397461e+00 8.002401590347290039e-01
-3.734739065170288086e+00 3.420234918594360352e+00 7.469152212142944336e-01
-3.482673883438110352e+00 3.692252397537231445e+00 6.574041843414306641e-01
-3.625635147094726562e+00 3.574503898620605469e+00 6.116188764572143555e-01
-3.757797479629516602e+00 3.444970846176147461e+00 5.637170672416687012e-01
-3.580340385437011719e+00 3.532313346862792969e+00 4.196887016296386719e-01
-3.833986759185791016e+00 3.518513917922973633e+00 3.848817050457000732e-01
-3.584034442901611328e+00 3.538427591323852539e+00 2.366317212581634521e-01
-3.864190578460693359e+00 3.549961805343627930e+00 1.969953328371047974e-01
-3.525476694107055664e+00 3.484261989593505859e+00 5.277374759316444397e-02
-3.694272518157958984e+00 3.670452594757080078e+00 1.420751452445983887e+00
-3.797212839126586914e+00 3.503315210342407227e+00 1.358280420303344727e+00
-3.481365919113159180e+00 3.728697776794433594e+00 1.240729570388793945e+00
-3.612765312194824219e+00 3.593231916427612305e+00 1.187618374824523926e+00
-3.746186256408691406e+00 3.462294816970825195e+00 1.140234827995300293e+00
-3.511541366577148438e+00 3.763649940490722656e+00 1.052870154380798340e+00
-3.573987483978271484e+00 3.559630632400512695e+00 9.823283553123474121e-01
