-5.904881954193115234e+00 -6.040205001831054688e+00 1.031995564699172974e-02
-6.140902042388916016e+00 -6.205007076263427734e+00 1.066570542752742767e-02
-6.180275440216064453e+00 -6.168623447418212891e+00 1.066814828664064407e-02
-5.866946220397949219e+00 -5.784459114074707031e+00 1.006583496928215027e-02
-5.991161346435546875e+00 -5.834866523742675781e+00 1.021733041852712631e-02
-6.186115264892578125e+00 -5.951212406158447266e+00 1.048733294010162354e-02
-6.210191726684570312e+00 -5.901432514190673828e+00 1.046656258404254913e-02
-6.292218685150146484e+00 -5.906333446502685547e+00 1.054353173822164536e-02
-6.329074859619140625e+00 -5.868293762207031250e+00 1.054475363343954086e-02
-6.398885250091552734e+00 -5.860416889190673828e+00 1.060095243155956268e-02
-6.331643581390380859e+00 -5.727794170379638672e+00 1.043113227933645248e-02
-6.343553066253662109e+00 -5.668180942535400391e+00 1.039325818419456482e-02
-6.378212928771972656e+00 -5.629150867462158203e+00 1.039325818419456482e-02
-7.376003742218017578e+00 -5.139593124389648438e+00 2.668182253837585449e-01
-6.426201820373535156e+00 -5.601737022399902344e+00 1.041525043547153473e-02
-7.373633384704589844e+00 -5.071015357971191406e+00 2.656018733978271484e-01
-6.446810722351074219e+00 -5.550456523895263672e+00 1.039325818419456482e-02
-6.377902507781982422e+00 -5.423343181610107422e+00 1.022832561284303665e-02
-6.401103973388671875e+00 -5.375746726989746094e+00 1.021244283765554428e-02
-6.424731731414794922e+00 -5.328708171844482422e+00 1.019778195768594742e-02
-6.432551860809326172e+00 -5.268909454345703125e+00 1.015868689864873886e-02
-7.356650352478027344e+00 -5.118600845336914062e+00 1.814711391925811768e-01
-6.482642173767089844e+00 -5.243805408477783203e+00 1.018678676337003708e-02
-7.385446071624755859e+00 -5.071666717529296875e+00 1.814104020595550537e-01
-6.530322551727294922e+00 -5.216412544250488281e+00 1.021122187376022339e-02
-6.564561843872070312e+00 -5.178102493286132812e+00 1.021488569676876068e-02
-6.610411643981933594e+00 -5.148787021636962891e+00 1.023687794804573059e-02
-9.794906616210937500e+00 -6.984866142272949219e+00 1.280857175588607788e-01
-6.572916030883789062e+00 -5.055091381072998047e+00 1.013058796525001526e-02
-7.332190990447998047e+00 -5.161099910736083984e+00 9.546543657779693604e-02
-6.571953773498535156e+00 -4.990475177764892578e+00 1.008171867579221725e-02
-7.357151508331298828e+00 -5.111449241638183594e+00 9.538027644157409668e-02
-6.584047794342041016e+00 -4.936259269714355469e+00 1.005361787974834442e-02
-7.385901927947998047e+00 -5.064514160156250000e+00 9.534832835197448730e-02
-6.637521743774414062e+00 -4.913020610809326172e+00 1.008904818445444107e-02
-9.859028816223144531e+00 -6.671771049499511719e+00 1.267443001270294189e-01
-6.594876289367675781e+00 -4.819101333618164062e+00 9.979092516005039215e-03
-9.876496315002441406e+00 -6.595602512359619141e+00 1.264462023973464966e-01
-6.633243083953857422e+00 -4.784980773925781250e+00 9.992532432079315186e-03
-9.885051727294921875e+00 -6.513969421386718750e+00 1.260416358709335327e-01
-6.695061683654785156e+00 -4.767391681671142578e+00 1.004140172153711319e-02
-9.929864883422851562e+00 -6.456463336944580078e+00 1.261055171489715576e-01
-6.742186069488525391e+00 -4.738872051239013672e+00 1.006827875971794128e-02
-1.011321544647216797e+01 -6.487740516662597656e+00 1.279260367155075073e-01
-6.817147731781005859e+00 -4.729333877563476562e+00 1.013669557869434357e-02
-9.852878570556640625e+00 -6.235728263854980469e+00 1.241465955972671509e-01
-6.596026420593261719e+00 -4.516235351562500000e+00 9.766511619091033936e-03
-9.988498687744140625e+00 -6.236053943634033203e+00 1.253709197044372559e-01
-6.829927921295166016e+00 -4.615087509155273438e+00 1.007072161883115768e-02
-1.001380252838134766e+01 -6.166783332824707031e+00 1.252112239599227905e-01
-6.880581378936767578e+00 -4.588072299957275391e+00 1.010370906442403793e-02
-9.964279174804687500e+00 -6.052274227142333984e+00 1.241253018379211426e-01
-6.888554096221923828e+00 -4.532575607299804688e+00 1.007438730448484421e-02
-9.891427040100097656e+00 -5.925247192382812500e+00 1.227625682950019836e-01
-6.838233947753906250e+00 -4.439581394195556641e+00 9.960766881704330444e-03
-1.001972007751464844e+01 -5.918861389160156250e+00 1.239017322659492493e-01
-6.893975257873535156e+00 -4.415877819061279297e+00 1.000230479985475540e-02
-1.150605392456054688e+01 -5.631700515747070312e+00 3.802026212215423584e-01
-1.005412006378173828e+01 -5.856263637542724609e+00 1.238804385066032410e-01
-6.924322128295898438e+00 -4.375630378723144531e+00 1.000719144940376282e-02
-1.008899688720703125e+01 -5.793964385986328125e+00 1.238697916269302368e-01
-6.899274349212646484e+00 -4.300792217254638672e+00 9.932666085660457611e-03
-1.011652660369873047e+01 -5.727516651153564453e+00 1.237739697098731995e-01
-6.955348491668701172e+00 -4.276710510253906250e+00 9.975426830351352692e-03
-1.010170936584472656e+01 -5.637558937072753906e+00 1.231671348214149475e-01
-6.964358329772949219e+00 -4.223582267761230469e+00 9.950992651283740997e-03
-9.695410728454589844e+00 -5.333058357238769531e+00 1.178120449185371399e-01
-6.969545364379882812e+00 -4.168450832366943359e+00 9.921670891344547272e-03
-1.148237609863281250e+01 -5.697871685028076172e+00 2.595539391040802002e-01
-1.008222198486328125e+01 -5.465516567230224609e+00 1.221025064587593079e-01
-6.993268966674804688e+00 -4.124592304229736328e+00 9.919228032231330872e-03
-1.151442623138427734e+01 -5.625992774963378906e+00 2.594932019710540771e-01
-1.010321998596191406e+01 -5.396954059600830078e+00 1.219534575939178467e-01
-7.018445014953613281e+00 -4.081604957580566406e+00 9.919228032231330872e-03
-1.019897079467773438e+01 -5.367927074432373047e+00 1.227093487977981567e-01
-6.956605434417724609e+00 -3.988722562789916992e+00 9.797054342925548553e-03
-1.022106266021728516e+01 -5.299722671508789062e+00 1.225815936923027039e-01
-7.011418819427490234e+00 -3.963185548782348633e+00 9.839816018939018250e-03
-1.022756385803222656e+01 -5.223717212677001953e+00 1.222728490829467773e-01
-7.130821228027343750e+00 -3.973142385482788086e+00 9.972983971238136292e-03
-1.014686870574951172e+01 -5.104244709014892578e+00 1.209314092993736267e-01
-7.154189586639404297e+00 -3.928832530975341797e+00 9.971762076020240784e-03
-1.014126014709472656e+01 -5.023690223693847656e+00 1.204949170351028442e-01
-7.172884464263916016e+00 -3.882005214691162109e+00 9.964431636035442352e-03
-9.960690498352050781e+00 -4.858355045318603516e+00 1.179930269718170166e-01
-7.183334350585937500e+00 -3.830862045288085938e+00 9.946106001734733582e-03
-1.000744056701660156e+01 -4.805369853973388672e+00 1.181953027844429016e-01
-7.096050262451171875e+00 -3.728571176528930664e+00 9.793389588594436646e-03
-9.865871429443359375e+00 -4.663115501403808594e+00 1.161831542849540710e-01
-7.120570659637451172e+00 -3.685879707336425781e+00 9.795833379030227661e-03
-1.028234577178955078e+01 -4.782998561859130859e+00 1.207397803664207458e-01
-7.131471157073974609e+00 -3.636214017868041992e+00 9.779950603842735291e-03
-1.017784404754638672e+01 -4.658639430999755859e+00 1.191747635602951050e-01
-7.093773841857910156e+00 -3.562320232391357422e+00 9.698094800114631653e-03
-1.015153217315673828e+01 -4.571466922760009766e+00 1.185359954833984375e-01
-7.113705635070800781e+00 -3.517840147018432617e+00 9.695651009678840637e-03
-1.016567707061767578e+01 -4.503017425537109375e+00 1.183762922883033752e-01
-7.171120166778564453e+00 -3.491635799407958984e+00 9.744520299136638641e-03
-1.020778369903564453e+01 -4.446946620941162109e+00 1.185466349124908447e-01
-7.215855598449707031e+00 -3.458807468414306641e+00 9.776285849511623383e-03
-1.033598518371582031e+01 -4.427540302276611328e+00 1.197177320718765259e-01
-7.159164428710937500e+00 -3.377770185470581055e+00 9.671216830611228943e-03
-1.025789928436279297e+01 -4.319794654846191406e+00 1.185040548443794250e-01
-7.172499656677246094e+00 -3.330409526824951172e+00 9.661442600190639496e-03
-1.024448299407958984e+01 -4.240327358245849609e+00 1.180462613701820374e-01
-7.191890239715576172e+00 -3.285921812057495117e+00 9.660220704972743988e-03
-1.009895229339599609e+01 -4.107690334320068359e+00 1.160767003893852234e-01
-7.223773956298828125e+00 -3.247061014175415039e+00 9.676103480160236359e-03
-1.026139163970947266e+01 -4.100563526153564453e+00 1.176523491740226746e-01
-7.281059741973876953e+00 -3.219255208969116211e+00 9.726194664835929871e-03
-9.685987472534179688e+00 -3.801870346069335938e+00 1.107854768633842468e-01
-7.286920070648193359e+00 -3.168537378311157227e+00 9.707869030535221100e-03
-1.027081775665283203e+01 -3.958867311477661133e+00 1.171945556998252869e-01
-7.221632003784179688e+00 -3.087598562240600586e+00 9.595469571650028229e-03
-1.033700084686279297e+01 -3.911698102951049805e+00 1.176736429333686829e-01
-7.210940837860107422e+00 -3.030830144882202148e+00 9.556373581290245056e-03
-1.005616188049316406e+01 -3.735046148300170898e+00 1.142135933041572571e-01
-7.195204734802246094e+00 -2.972400665283203125e+00 9.511169977486133575e-03
-1.021981334686279297e+01 -3.724632501602172852e+00 1.158105358481407166e-01
-7.206821918487548828e+00 -2.925562858581542969e+00 9.502617642283439636e-03
-1.019068908691406250e+01 -3.643340349197387695e+00 1.152249947190284729e-01
-7.221850872039794922e+00 -2.880176305770874023e+00 9.498952887952327728e-03
-1.036855030059814453e+01 -3.635332345962524414e+00 1.169816330075263977e-01
-7.277562618255615234e+00 -2.850763559341430664e+00 9.549043141305446625e-03
-9.965124130249023438e+00 -3.425371170043945312e+00 1.121907904744148254e-01
-7.193184375762939453e+00 -2.766922950744628906e+00 9.415875189006328583e-03
-1.050809001922607422e+01 -3.540063858032226562e+00 1.180569082498550415e-01
-7.243705272674560547e+00 -2.735452651977539062e+00 9.459856897592544556e-03
-1.029981994628906250e+01 -3.399672746658325195e+00 1.154804974794387817e-01
-7.276293277740478516e+00 -2.696862459182739258e+00 9.480626322329044342e-03
-1.031192398071289062e+01 -3.333642005920410156e+00 1.153846830129623413e-01
-7.336873531341552734e+00 -2.668228626251220703e+00 9.538047946989536285e-03
-1.033123111724853516e+01 -3.270004987716674805e+00 1.153740435838699341e-01
-7.351223945617675781e+00 -2.622488260269165039e+00 9.535604156553745270e-03
-1.012281703948974609e+01 -3.135834455490112305e+00 1.128295734524726868e-01
-7.353962421417236328e+00 -2.572709560394287109e+00 9.518500417470932007e-03
-1.035814094543457031e+01 -3.139208316802978516e+00 1.152356341481208801e-01
-7.355421066284179688e+00 -2.522671937942504883e+00 9.500174783170223236e-03
-1.016053676605224609e+01 -3.011375904083251953e+00 1.128295734524726868e-01
-7.366022109985351562e+00 -2.475899219512939453e+00 9.494065307080745697e-03
-1.011735343933105469e+01 -2.931166887283325195e+00 1.121482029557228088e-01
-7.342132568359375000e+00 -2.417831420898437500e+00 9.443975053727626801e-03
-1.020153617858886719e+01 -2.887825489044189453e+00 1.128828004002571106e-01
-7.234056949615478516e+00 -2.333138704299926758e+00 9.286371059715747833e-03
-1.020653438568115234e+01 -2.821711778640747070e+00 1.127443984150886536e-01
-7.305452346801757812e+00 -2.306773662567138672e+00 9.359675459563732147e-03
-1.015800762176513672e+01 -2.741316318511962891e+00 1.120204478502273560e-01
-7.342399120330810547e+00 -2.268990993499755859e+00 9.388997219502925873e-03
-1.018334007263183594e+01 -2.681227922439575195e+00 1.121162623167037964e-01
-7.337996006011962891e+00 -2.218397855758666992e+00 9.365784004330635071e-03
-1.022962474822998047e+01 -2.626402139663696289e+00 1.124463006854057312e-01
-7.343798160552978516e+00 -2.171062946319580078e+00 9.356009773910045624e-03
-1.007094097137451172e+01 -2.519896030426025391e+00 1.105299741029739380e-01
-7.342570304870605469e+00 -2.121797084808349609e+00 9.337684139609336853e-03
-1.028731536865234375e+01 -2.507063865661621094e+00 1.127337589859962463e-01
-7.412231445312500000e+00 -2.092735052108764648e+00 9.409765712916851044e-03
-1.033947658538818359e+01 -2.452665090560913086e+00 1.131383180618286133e-01
-7.428789138793945312e+00 -2.048278331756591797e+00 9.414653293788433075e-03
-1.027540969848632812e+01 -2.370966434478759766e+00 1.122759655117988586e-01
-7.409351348876953125e+00 -1.994081497192382812e+00 9.374336339533329010e-03
-1.026634693145751953e+01 -2.302621126174926758e+00 1.120204478502273560e-01
-7.440791606903076172e+00 -1.953660130500793457e+00 9.398770518600940704e-03
-1.024804019927978516e+01 -2.232560634613037109e+00 1.116691231727600098e-01
-7.417763710021972656e+00 -1.899039030075073242e+00 9.354788810014724731e-03
-9.948485374450683594e+00 -2.103446245193481445e+00 1.082623079419136047e-01
-7.438978672027587891e+00 -1.855909347534179688e+00 9.367005899548530579e-03
-9.789780616760253906e+00 -2.007216453552246094e+00 1.063992008566856384e-01
-7.401640415191650391e+00 -1.798424482345581055e+00 9.305919520556926727e-03
-1.029622554779052734e+01 -2.045302867889404297e+00 1.117649376392364502e-01
-7.395992279052734375e+00 -1.749062538146972656e+00 9.285150095820426941e-03
-1.030465316772460938e+01 -1.981332659721374512e+00 1.117223501205444336e-01
-7.386119365692138672e+00 -1.698941230773925781e+00 9.259493090212345123e-03
-1.032644748687744141e+01 -1.919895052909851074e+00 1.118288189172744751e-01
-7.303693294525146484e+00 -1.632861733436584473e+00 9.143428876996040344e-03
-1.034197044372558594e+01 -1.857203960418701172e+00 1.118713989853858948e-01
-7.383935451507568359e+00 -1.603293895721435547e+00 9.231393225491046906e-03
-1.037090682983398438e+01 -1.796784520149230957e+00 1.120630428194999695e-01
-7.229244232177734375e+00 -1.523317217826843262e+00 9.026142768561840057e-03
-1.036496925354003906e+01 -1.730316996574401855e+00 1.118820533156394958e-01
-7.214941024780273438e+00 -1.474126338958740234e+00 8.996821008622646332e-03
-1.037341690063476562e+01 -1.666368961334228516e+00 1.118607595562934875e-01
-7.200306892395019531e+00 -1.425168633460998535e+00 8.967499248683452606e-03
-1.037356281280517578e+01 -1.601162075996398926e+00 1.117542982101440430e-01
-7.247219562530517578e+00 -1.388298988342285156e+00 9.015147574245929718e-03
-1.039308452606201172e+01 -1.538945674896240234e+00 1.118607595562934875e-01
-7.273300647735595703e+00 -1.347082853317260742e+00 9.037138894200325012e-03
-1.042312240600585938e+01 -1.478094220161437988e+00 1.120843291282653809e-01
-7.255835533142089844e+00 -1.297851443290710449e+00 9.005373343825340271e-03
-1.044091320037841797e+01 -1.415320158004760742e+00 1.121801435947418213e-01
-7.256763935089111328e+00 -1.252115726470947266e+00 8.996821008622646332e-03
-1.047815990447998047e+01 -1.354948282241821289e+00 1.124888956546783447e-01
-7.249513626098632812e+00 -1.205105781555175781e+00 8.978495374321937561e-03
-1.117697143554687500e+01 -5.616172552108764648e-01 3.321432769298553467e-01
-1.023121452331542969e+01 -1.259237408638000488e+00 1.097527816891670227e-01
-7.250846862792968750e+00 -1.159653425216674805e+00 8.971164934337139130e-03
-1.042149448394775391e+01 -1.217790722846984863e+00 1.117117032408714294e-01
-7.351723670959472656e+00 -1.129568338394165039e+00 9.087229147553443909e-03
-1.045163059234619141e+01 -1.156351923942565918e+00 1.119565740227699280e-01
-7.233862876892089844e+00 -1.066067337989807129e+00 8.933291770517826080e-03
-1.043267154693603516e+01 -1.089499831199645996e+00 1.116797700524330139e-01
-7.229375362396240234e+00 -1.020124077796936035e+00 8.919851854443550110e-03
-1.045707225799560547e+01 -1.027225136756896973e+00 1.118713989853858948e-01
-7.265229701995849609e+00 -9.797556996345520020e-01 8.956504054367542267e-03
-7.900014877319335938e+00 -1.542742699384689331e-01 2.345116585493087769e-01
-1.120133113861083984e+01 -6.240454316139221191e-01 2.271628379821777344e-01
-1.039745998382568359e+01 -9.569936394691467285e-01 1.111687421798706055e-01
-7.234406948089599609e+00 -9.304388165473937988e-01 8.911300450563430786e-03
-7.907808780670166016e+00 -1.058914735913276672e-01 2.347193211317062378e-01
-1.120195388793945312e+01 -5.551550984382629395e-01 2.271021008491516113e-01
-1.052169418334960938e+01 -9.033569693565368652e-01 1.124356612563133240e-01
-7.214172363281250000e+00 -8.828734755516052246e-01 8.879534900188446045e-03
-1.118217563629150391e+01 -4.854134917259216309e-01 2.266364842653274536e-01
-1.052604198455810547e+01 -8.387005925178527832e-01 1.124250069260597229e-01
-7.142968177795410156e+00 -8.297072052955627441e-01 8.785462006926536560e-03
-1.052600288391113281e+01 -7.737317085266113281e-01 1.123717799782752991e-01
-7.114128589630126953e+00 -7.821474671363830566e-01 8.743923157453536987e-03
-1.045971679687500000e+01 -7.043607234954833984e-01 1.116158887743949890e-01
-7.065081596374511719e+00 -7.329093813896179199e-01 8.677949197590351105e-03
-1.050675964355468750e+01 -6.427934765815734863e-01 1.120736822485923767e-01
-7.091341972351074219e+00 -6.916807889938354492e-01 8.704828098416328430e-03
-7.907975673675537109e+00 -1.489931941032409668e-01 1.601537466049194336e-01
-1.057540416717529297e+01 -5.818840265274047852e-01 1.127656996250152588e-01
-7.079518795013427734e+00 -6.467005610466003418e-01 8.685279637575149536e-03
-7.897744178771972656e+00 -1.003282666206359863e-01 1.599310636520385742e-01
-1.058676528930664062e+01 -5.173740386962890625e-01 1.128508597612380981e-01
-7.137158870697021484e+00 -6.078315973281860352e-01 8.751253597438335419e-03
-7.869217395782470703e+00 -5.167632922530174255e-02 1.593439579010009766e-01
-1.036595726013183594e+01 -4.428448677062988281e-01 1.104660853743553162e-01
-7.116828918457031250e+00 -5.621375441551208496e-01 8.721931837499141693e-03
-1.042144107818603516e+01 -3.811693191528320312e-01 1.110303476452827454e-01
-7.105183601379394531e+00 -5.173696279525756836e-01 8.703606203198432922e-03
-1.047755622863769531e+01 -3.188599050045013428e-01 1.116052493453025818e-01
-7.091261863708496094e+00 -4.726327359676361084e-01 8.682836778461933136e-03
-1.037335205078125000e+01 -2.519907653331756592e-01 1.104767397046089172e-01
-7.066079616546630859e+00 -4.274220466613769531e-01 8.648628368973731995e-03
-7.889253139495849609e+00 -1.432169079780578613e-01 8.401001244783401489e-02
-6.993679523468017578e+00 -3.799883723258972168e-01 8.556998334825038910e-03
-1.121189785003662109e+01 -5.441238284111022949e-01 4.214147031307220459e-01
-7.865986824035644531e+00 -9.451831877231597900e-02 8.375450223684310913e-02
-6.983893394470214844e+00 -3.364912867546081543e-01 8.542337454855442047e-03
-7.868418693542480469e+00 -4.626351222395896912e-02 8.377579599618911743e-02
-6.908895015716552734e+00 -2.903989553451538086e-01 8.448264561593532562e-03
-1.017742347717285156e+01 2.608933951705694199e-03 1.083581224083900452e-01
-6.921539306640625000e+00 -2.483958005905151367e-01 8.461703546345233917e-03
-1.003522682189941406e+01 6.414873152971267700e-02 1.068463400006294250e-01
-6.874954700469970703e+00 -2.044942528009414673e-01 8.403060026466846466e-03
-1.030660724639892578e+01 1.291299015283584595e-01 1.097421422600746155e-01
-6.935063362121582031e+00 -1.636987477540969849e-01 8.475142531096935272e-03
-7.917165756225585938e+00 -1.410455107688903809e-01 2.972750067710876465e-01
-1.005667781829833984e+01 1.877207905054092407e-01 1.070912033319473267e-01
-6.888944625854492188e+00 -1.203221455216407776e-01 8.417720906436443329e-03
-7.919880867004394531e+00 -9.248737245798110962e-02 2.973500490188598633e-01
-9.936380386352539062e+00 2.464731484651565552e-01 1.058242991566658020e-01
-6.832556724548339844e+00 -7.740440964698791504e-02 8.348082192242145538e-03
-1.392337322235107422e+01 1.441910862922668457e+00 4.154461026191711426e-01
-1.010359096527099609e+01 3.126640319824218750e-01 1.076235249638557434e-01
-6.777904033660888672e+00 -3.519359603524208069e-02 8.280887268483638763e-03
-1.020840263366699219e+01 3.786181807518005371e-01 1.087626814842224121e-01
-6.767992019653320312e+00 6.386066786944866180e-03 8.268670178949832916e-03
-9.789299964904785156e+00 4.232376217842102051e-01 1.043231710791587830e-01
-6.802824974060058594e+00 4.816134646534919739e-02 8.311430923640727997e-03
-9.789514541625976562e+00 4.834435880184173584e-01 1.043551042675971985e-01
-6.799401283264160156e+00 8.986213803291320801e-02 8.307765237987041473e-03
-1.008888149261474609e+01 5.603026151657104492e-01 1.075809374451637268e-01
-6.790723323822021484e+00 1.314259916543960571e-01 8.297991938889026642e-03
-1.398305702209472656e+01 1.371127724647521973e+00 2.844950854778289795e-01
-1.007926559448242188e+01 6.218268871307373047e-01 1.075170710682868958e-01
-6.769795894622802734e+00 1.725809276103973389e-01 8.273556828498840332e-03
-1.393659305572509766e+01 1.452960848808288574e+00 2.837257683277130127e-01
-9.859766960144042969e+00 6.690380573272705078e-01 1.052174568176269531e-01
-6.710638523101806641e+00 2.122825235128402710e-01 8.202696219086647034e-03
-1.389561653137207031e+01 1.534934163093566895e+00 2.830779552459716797e-01
-9.847498893737792969e+00 7.289332747459411621e-01 1.051322817802429199e-01
-6.766169071197509766e+00 2.556059956550598145e-01 8.272335864603519440e-03
-9.755127906799316406e+00 7.823085784912109375e-01 1.041954159736633301e-01
-6.757480144500732422e+00 2.968104481697082520e-01 8.263783529400825500e-03
-9.818884849548339844e+00 8.480874896049499512e-01 1.049300134181976318e-01
-6.737554073333740234e+00 3.373678028583526611e-01 8.241792209446430206e-03
-9.754750251770019531e+00 9.028816819190979004e-01 1.043018847703933716e-01
-6.727369785308837891e+00 3.782531917095184326e-01 8.232017979025840759e-03
-9.813708305358886719e+00 9.691060185432434082e-01 1.049938872456550598e-01
-6.737896919250488281e+00 4.203338623046875000e-01 8.247900754213333130e-03
-9.823488235473632812e+00 1.030973434448242188e+00 1.051642298698425293e-01
-6.735191345214843750e+00 4.616689085960388184e-01 8.247900754213333130e-03
-9.855736732482910156e+00 1.095538258552551270e+00 1.055794358253479004e-01
-6.711289882659912109e+00 5.014219880104064941e-01 8.222244679927825928e-03
-9.701846122741699219e+00 1.138739347457885742e+00 1.040037795901298523e-01
-6.649279117584228516e+00 5.378354787826538086e-01 8.150162175297737122e-03
-9.426731109619140625e+00 1.165129661560058594e+00 1.011292785406112671e-01
-6.629913806915283203e+00 5.772367119789123535e-01 8.130614645779132843e-03
-9.552281379699707031e+00 1.240200877189636230e+00 1.025558859109878540e-01
-6.590403079986572266e+00 6.145637631416320801e-01 8.086632937192916870e-03
-9.571244239807128906e+00 1.302429676055908203e+00 1.028433367609977722e-01
-6.527797698974609375e+00 6.491517424583435059e-01 8.014550432562828064e-03
-9.581881523132324219e+00 1.363810420036315918e+00 1.030456200242042542e-01
-6.540597438812255859e+00 6.909793019294738770e-01 8.035319857299327850e-03
-9.522889137268066406e+00 1.415082216262817383e+00 1.025026515126228333e-01
-6.498470306396484375e+00 7.268745899200439453e-01 7.988894358277320862e-03
-9.508098602294921875e+00 1.472568750381469727e+00 1.024387776851654053e-01
-6.478991031646728516e+00 7.649759054183959961e-01 7.970567792654037476e-03
-9.485063552856445312e+00 1.528654217720031738e+00 1.022897288203239441e-01
-6.544633388519287109e+00 8.134735226631164551e-01 8.057311177253723145e-03
-9.475505828857421875e+00 1.586824655532836914e+00 1.022897288203239441e-01
-6.520678520202636719e+00 8.511560559272766113e-01 8.034097962081432343e-03
-9.446871757507324219e+00 1.641682505607604980e+00 1.020874455571174622e-01
-6.517314910888671875e+00 8.914212584495544434e-01 8.036541752517223358e-03
-9.443510055541992188e+00 1.700857162475585938e+00 1.021619737148284912e-01
-6.454307079315185547e+00 9.231815934181213379e-01 7.965681143105030060e-03
-9.308054924011230469e+00 1.735492706298828125e+00 1.008098945021629333e-01
-6.447532176971435547e+00 9.626194238662719727e-01 7.964459247887134552e-03
-9.250101089477539062e+00 1.783486247062683105e+00 1.002988666296005249e-01
-6.440515518188476562e+00 1.002008795738220215e+00 7.963237352669239044e-03
-9.250751495361328125e+00 1.842554211616516113e+00 1.004266217350959778e-01
-6.436220645904541016e+00 1.041827917098999023e+00 7.965681143105030060e-03
-9.220662117004394531e+00 1.895455598831176758e+00 1.002243459224700928e-01
-6.407025337219238281e+00 1.077485680580139160e+00 7.937581278383731842e-03
-9.172664642333984375e+00 1.944324851036071777e+00 9.983043372631072998e-02
-6.374680519104003906e+00 1.112308979034423828e+00 7.905815728008747101e-03
-9.183031082153320312e+00 2.005477666854858398e+00 1.000752970576286316e-01
-6.362814903259277344e+00 1.150512695312500000e+00 7.899707183241844177e-03
-3.823544740676879883e+00 1.155192732810974121e+00 1.185463219881057739e-01
-9.181283950805664062e+00 2.064198732376098633e+00 1.001923978328704834e-01
-6.350721359252929688e+00 1.188612818717956543e+00 7.893599569797515869e-03
-3.807789087295532227e+00 1.175977230072021484e+00 1.182793229818344116e-01
-9.204492568969726562e+00 2.128832101821899414e+00 1.005863174796104431e-01
-6.306000709533691406e+00 1.220337867736816406e+00 7.847173139452934265e-03
-3.780483961105346680e+00 1.193002223968505859e+00 1.176563277840614319e-01
-8.995718955993652344e+00 2.138779401779174805e+00 9.844641387462615967e-02
-6.268976211547851562e+00 1.253127336502075195e+00 7.810520939528942108e-03
-3.801633596420288086e+00 1.225376009941101074e+00 1.185463219881057739e-01
-9.106762886047363281e+00 2.224304914474487305e+00 9.980913251638412476e-02
-6.294468402862548828e+00 1.298438429832458496e+00 7.852060720324516296e-03
-8.992073059082031250e+00 2.254847049713134766e+00 9.870192408561706543e-02
-6.261929512023925781e+00 1.331835269927978516e+00 7.821517065167427063e-03
-8.944173812866210938e+00 2.301257848739624023e+00 9.832929819822311401e-02
-6.229218959808349609e+00 1.364881873130798340e+00 7.790973875671625137e-03
-3.837045669555664062e+00 1.162149906158447266e+00 8.118019253015518188e-02
-8.944388389587402344e+00 2.359921693801879883e+00 9.848899394273757935e-02
-6.191462039947509766e+00 1.396477222442626953e+00 7.754321675747632980e-03
-3.858340024948120117e+00 1.193018436431884766e+00 2.279126197099685669e-01
-3.809785842895507812e+00 1.179462313652038574e+00 8.075505495071411133e-02
-8.968350410461425781e+00 2.425199985504150391e+00 9.891484677791595459e-02
-6.174009799957275391e+00 1.432407021522521973e+00 7.743326015770435333e-03
-3.857611417770385742e+00 1.218775749206542969e+00 2.283070236444473267e-01
-3.787225484848022461e+00 1.197992086410522461e+00 8.043114840984344482e-02
-9.003410339355468750e+00 2.494064331054687500e+00 9.946845471858978271e-02
-6.118413925170898438e+00 1.459128260612487793e+00 7.684683427214622498e-03
-3.832957983016967773e+00 1.236903667449951172e+00 2.272928506135940552e-01
-3.771240949630737305e+00 1.218441128730773926e+00 8.024895191192626953e-02
-8.999482154846191406e+00 2.552535533905029297e+00 9.959620982408523560e-02
-6.013189315795898438e+00 1.473086714744567871e+00 7.563732098788022995e-03
-3.772239208221435547e+00 1.244377017021179199e+00 8.043114840984344482e-02
-8.913548469543457031e+00 2.587358474731445312e+00 9.881903231143951416e-02
-6.132050991058349609e+00 1.542149305343627930e+00 7.725000381469726562e-03
-3.795003414154052734e+00 1.126878499984741211e+00 4.214873164892196655e-02
-6.135060787200927734e+00 1.582993745803833008e+00 7.740882690995931625e-03
-3.871259927749633789e+00 1.175417661666870117e+00 4.307495802640914917e-02
-6.117497920989990234e+00 1.618561744689941406e+00 7.731108460575342178e-03
-3.873921394348144531e+00 1.200012564659118652e+00 1.905443966388702393e-01
-3.839144468307495117e+00 1.191443324089050293e+00 4.279815405607223511e-02
-6.085253715515136719e+00 1.650048375129699707e+00 7.703009061515331268e-03
-3.868389844894409180e+00 1.224362730979919434e+00 1.906382441520690918e-01
-3.817464351654052734e+00 1.210443973541259766e+00 4.263846203684806824e-02
-6.054780483245849609e+00 1.681735634803771973e+00 7.677352987229824066e-03
-3.848448276519775391e+00 1.244081258773803711e+00 1.900281310081481934e-01
-3.810916423797607422e+00 1.234152674674987793e+00 4.264910891652107239e-02
-6.041461944580078125e+00 1.718034744262695312e+00 7.673687301576137543e-03
-3.789031267166137695e+00 1.252804279327392578e+00 4.248941317200660706e-02
-6.072093963623046875e+00 1.767087578773498535e+00 7.726222276687622070e-03
-8.702328681945800781e+00 2.936690807342529297e+00 9.778633713722229004e-02
-3.828943729400634766e+00 1.139820694923400879e+00 4.880812019109725952e-03
-8.686036109924316406e+00 2.990683078765869141e+00 9.780763089656829834e-02
-3.849621295928955078e+00 1.171737670898437500e+00 4.916242323815822601e-03
-3.822896480560302734e+00 1.187818288803100586e+00 1.502881944179534912e-01
-8.574119567871093750e+00 3.011121749877929688e+00 9.675364196300506592e-02
-3.835675239562988281e+00 1.193257093429565430e+00 4.907690454274415970e-03
-3.784105539321899414e+00 1.201274871826171875e+00 1.490501761436462402e-01
-8.539478302001953125e+00 3.057943820953369141e+00 9.657265245914459229e-02
-3.835905313491821289e+00 1.219193100929260254e+00 4.917464219033718109e-03
-3.789971351623535156e+00 1.228785872459411621e+00 1.495753973722457886e-01
-8.703722000122070312e+00 3.177145719528198242e+00 9.864868968725204468e-02
-3.818841218948364258e+00 1.239619374275207520e+00 4.905247129499912262e-03
-8.599716186523437500e+00 3.199113368988037109e+00 9.769052267074584961e-02
-3.801670551300048828e+00 1.259882211685180664e+00 4.893029574304819107e-03
-8.668753623962402344e+00 3.285486459732055664e+00 9.870192408561706543e-02
-3.795763015747070312e+00 1.283825755119323730e+00 4.895472899079322815e-03
-8.620445251464843750e+00 3.327811479568481445e+00 9.838252514600753784e-02
-5.920409679412841797e+00 2.043004274368286133e+00 7.651696447283029556e-03
-8.443519592285156250e+00 3.319183349609375000e+00 9.659394621849060059e-02
-5.917195320129394531e+00 2.082612514495849609e+00 7.663913536816835403e-03
-8.535326004028320312e+00 3.415884971618652344e+00 9.788215160369873047e-02
-5.911834716796875000e+00 2.121582746505737305e+00 7.673687301576137543e-03
-8.535505294799804688e+00 3.476868629455566406e+00 9.812701493501663208e-02
-5.910914421081542969e+00 2.162283420562744141e+00 7.689570076763629913e-03
-8.609155654907226562e+00 3.568614721298217773e+00 9.922359138727188110e-02
-5.906906127929687500e+00 2.202004432678222656e+00 7.701787631958723068e-03
-8.632243156433105469e+00 3.640411615371704102e+00 9.974525868892669678e-02
-5.887674331665039062e+00 2.236076831817626953e+00 7.694457191973924637e-03
-8.835807800292968750e+00 3.790284156799316406e+00 1.023642495274543762e-01
-5.892496109008789062e+00 2.279376268386840820e+00 7.718891836702823639e-03
-8.629080772399902344e+00 3.764461040496826172e+00 1.002349928021430969e-01
-5.865373611450195312e+00 2.310358047485351562e+00 7.701787631958723068e-03
-8.728302955627441406e+00 3.871667861938476562e+00 1.016615927219390869e-01
-5.874290943145751953e+00 2.355608701705932617e+00 7.732330821454524994e-03
-8.710762977600097656e+00 3.928028106689453125e+00 1.017361208796501160e-01
-5.875465869903564453e+00 2.398032188415527344e+00 7.753099780529737473e-03
-8.656499862670898438e+00 3.967653512954711914e+00 1.013847887516021729e-01
-5.825547695159912109e+00 2.419463157653808594e+00 7.706673815846443176e-03
-8.825061798095703125e+00 4.110624313354492188e+00 1.036524474620819092e-01
-5.771904468536376953e+00 2.438815593719482422e+00 7.655361667275428772e-03
-8.642407417297363281e+00 4.090265750885009766e+00 1.017999947071075439e-01
-5.762343883514404297e+00 2.476554632186889648e+00 7.662692107260227203e-03
-8.755028724670410156e+00 4.209512710571289062e+00 1.034288778901100159e-01
-5.757119178771972656e+00 2.516270399093627930e+00 7.676131092011928558e-03
-8.709268569946289062e+00 4.253499507904052734e+00 1.031946688890457153e-01
-5.790003776550292969e+00 2.573071718215942383e+00 7.740882690995931625e-03
-8.665089607238769531e+00 4.297971725463867188e+00 1.029817312955856323e-01
-5.784131050109863281e+00 2.613078594207763672e+00 7.754321675747632980e-03
-8.651950836181640625e+00 4.357806205749511719e+00 1.031414344906806946e-01
-5.768897533416748047e+00 2.648937702178955078e+00 7.755543570965528488e-03
-8.844057083129882812e+00 4.522811412811279297e+00 1.057604178786277771e-01
-5.790595531463623047e+00 2.702044963836669922e+00 7.806856185197830200e-03
-8.634207725524902344e+00 4.482540607452392578e+00 1.035779267549514771e-01
-5.808243274688720703e+00 2.753803968429565430e+00 7.853281684219837189e-03
-8.600348472595214844e+00 4.532171726226806641e+00 1.035033985972404480e-01
-5.799345493316650391e+00 2.793296337127685547e+00 7.864277809858322144e-03
-8.686123847961425781e+00 4.645693302154541016e+00 1.048767790198326111e-01
-5.757843971252441406e+00 2.816962242126464844e+00 7.831290364265441895e-03
-8.572207450866699219e+00 4.652634143829345703e+00 1.038440912961959839e-01
-5.732391357421875000e+00 2.848234176635742188e+00 7.820295169949531555e-03
-8.719553947448730469e+00 4.802103042602539062e+00 1.059839949011802673e-01
-5.712128162384033203e+00 2.882002353668212891e+00 7.816629484295845032e-03
-8.740552902221679688e+00 4.883803844451904297e+00 1.066014766693115234e-01
-5.699676990509033203e+00 2.919732570648193359e+00 7.823959924280643463e-03
-8.626911163330078125e+00 4.890006542205810547e+00 1.055794358253479004e-01
-5.722465991973876953e+00 2.975873470306396484e+00 7.880159653723239899e-03
-8.864606857299804688e+00 5.096860408782958984e+00 1.088691502809524536e-01
-5.739472866058349609e+00 3.029602289199829102e+00 7.929028943181037903e-03
-8.941140174865722656e+00 5.214122772216796875e+00 1.101999357342720032e-01
-5.732234954833984375e+00 3.070900917053222656e+00 7.944911718368530273e-03
-8.746309280395507812e+00 5.172681331634521484e+00 1.081877797842025757e-01
-5.674627304077148438e+00 3.084999799728393555e+00 7.891155779361724854e-03
-8.738416671752929688e+00 5.240650653839111328e+00 1.084858775138854980e-01
-5.622318267822265625e+00 3.101406335830688477e+00 7.844730280339717865e-03
-8.687299728393554688e+00 5.282739639282226562e+00 1.082516536116600037e-01
-5.662521839141845703e+00 3.169055223464965820e+00 7.927807047963142395e-03
-8.790058135986328125e+00 5.419384479522705078e+00 1.099444255232810974e-01
-5.686451435089111328e+00 3.228426218032836914e+00 7.988894358277320862e-03
-8.583661079406738281e+00 5.365098953247070312e+00 1.077725738286972046e-01
-5.661335468292236328e+00 3.260262489318847656e+00 7.981563918292522430e-03
-8.763436317443847656e+00 5.552532672882080078e+00 1.104554459452629089e-01
-5.606684684753417969e+00 3.274764299392700195e+00 7.932694628834724426e-03
-8.894950866699218750e+00 5.712649822235107422e+00 1.125527694821357727e-01
-5.589926719665527344e+00 3.311142921447753906e+00 7.937581278383731842e-03
-8.872303009033203125e+00 5.775303363800048828e+00 1.127124652266502380e-01
-5.655229091644287109e+00 3.396870851516723633e+00 8.059754036366939545e-03
-8.264946937561035156e+00 5.452445030212402344e+00 1.054197400808334351e-01
-5.649652957916259766e+00 3.440869808197021484e+00 8.081745356321334839e-03
-8.809074401855468750e+00 5.889302730560302734e+00 1.128189191222190857e-01
-5.645451068878173828e+00 3.485978603363037109e+00 8.106179535388946533e-03
-8.961524009704589844e+00 6.071115493774414062e+00 1.152462884783744812e-01
-5.601916790008544922e+00 3.506757020950317383e+00 8.074414916336536407e-03
-8.729545593261718750e+00 5.992433071136474609e+00 1.127337589859962463e-01
-5.543143272399902344e+00 3.517488956451416016e+00 8.020658977329730988e-03
-9.076798439025878906e+00 6.313092231750488281e+00 1.177162230014801025e-01
-5.595468044281005859e+00 3.599039554595947266e+00 8.128170855343341827e-03
-8.882586479187011719e+00 6.259230613708496094e+00 1.156934276223182678e-01
-5.553174018859863281e+00 3.620198249816894531e+00 8.098849095404148102e-03
-9.000271797180175781e+00 6.425165653228759766e+00 1.177375242114067078e-01
-5.582585811614990234e+00 3.688380956649780273e+00 8.174597285687923431e-03
-8.967969894409179688e+00 6.485542774200439453e+00 1.178333386778831482e-01
-5.572313308715820312e+00 3.730911016464233398e+00 8.192922919988632202e-03
-9.109502792358398438e+00 6.673406600952148438e+00 1.202287524938583374e-01
-5.550143718719482422e+00 3.765593051910400391e+00 8.194144815206527710e-03
-9.016991615295410156e+00 6.691040039062500000e+00 1.195473894476890564e-01
-5.539294719696044922e+00 3.808074951171875000e+00 8.212470449507236481e-03
-9.074884414672851562e+00 6.820739269256591797e+00 1.208675354719161987e-01
-5.585572242736816406e+00 3.890573740005493164e+00 8.316317573189735413e-03
-9.001832008361816406e+00 6.852671623229980469e+00 1.204523220658302307e-01
-5.587740421295166016e+00 3.943223476409912109e+00 8.355412632226943970e-03
-5.556118965148925781e+00 3.972200870513916016e+00 8.344417437911033630e-03
-5.510583877563476562e+00 3.990967273712158203e+00 8.312652818858623505e-03
-5.475510120391845703e+00 4.017014503479003906e+00 8.296770043671131134e-03
-5.470022678375244141e+00 4.064851284027099609e+00 8.326091803610324860e-03
-5.489720344543457031e+00 4.132014751434326172e+00 8.394508622586727142e-03
-5.473011493682861328e+00 4.172290325164794922e+00 8.407947607338428497e-03
-5.412480354309082031e+00 4.178903579711914062e+00 8.354191668331623077e-03
-5.497024059295654297e+00 4.298271656036376953e+00 8.525233715772628784e-03
-5.473682880401611328e+00 4.334403038024902344e+00 8.530120365321636200e-03
-5.393154144287109375e+00 4.324741363525390625e+00 8.445820771157741547e-03
-5.415423393249511719e+00 4.397465229034423828e+00 8.522789925336837769e-03
-5.333497524261474609e+00 4.385517120361328125e+00 8.436047472059726715e-03
-5.399477005004882812e+00 4.495582103729248047e+00 8.583877235651016235e-03
-5.384023666381835938e+00 4.538940906524658203e+00 8.603423833847045898e-03
-5.404749870300292969e+00 4.613441944122314453e+00 8.681614883244037628e-03
-5.353642463684082031e+00 4.626901149749755859e+00 8.644962683320045471e-03
-5.347728729248046875e+00 4.679419040679931641e+00 8.681614883244037628e-03
-5.290472030639648438e+00 4.686945438385009766e+00 8.635189384222030640e-03
-5.312234878540039062e+00 4.764722347259521484e+00 8.718267083168029785e-03
-5.326578140258789062e+00 4.836891174316406250e+00 8.790348656475543976e-03
-5.392502307891845703e+00 4.957466125488281250e+00 8.949173614382743835e-03
-5.358322143554687500e+00 4.987053871154785156e+00 8.943065069615840912e-03
-5.337810516357421875e+00 5.029438972473144531e+00 8.960168808698654175e-03
-5.298167228698730469e+00 5.053813934326171875e+00 8.945508860051631927e-03
-5.269215583801269531e+00 5.088311672210693359e+00 8.949173614382743835e-03
-5.289380550384521484e+00 5.170878887176513672e+00 9.037138894200325012e-03
-5.288115978240966797e+00 5.233483791351318359e+00 9.089672937989234924e-03
-5.274271965026855469e+00 5.284234523773193359e+00 9.121438488364219666e-03
-5.234728336334228516e+00 5.309376239776611328e+00 9.109220467507839203e-03
-5.223680973052978516e+00 5.363604545593261719e+00 9.147094562649726868e-03
-5.211470603942871094e+00 5.417174816131591797e+00 9.183745831251144409e-03
-5.198799133300781250e+00 5.470796585083007812e+00 9.220398031175136566e-03
-5.197299480438232422e+00 5.536860942840576172e+00 9.277819655835628510e-03
-5.227139472961425781e+00 5.637576580047607422e+00 9.392661973834037781e-03
-5.206633090972900391e+00 5.685030460357666016e+00 9.418318979442119598e-03
-5.137438774108886719e+00 5.679049968719482422e+00 9.356009773910045624e-03
-5.127148628234863281e+00 5.738055706024169922e+00 9.401214309036731720e-03
-5.109710693359375000e+00 5.789651393890380859e+00 9.434200823307037354e-03
-5.087231636047363281e+00 5.835970878601074219e+00 9.458635933697223663e-03
-5.115920066833496094e+00 5.942100524902343750e+00 9.579586796462535858e-03
-5.094263076782226562e+00 5.990900993347167969e+00 9.607686661183834076e-03
-5.077987194061279297e+00 6.046550750732421875e+00 9.646781720221042633e-03
-5.089947223663330078e+00 6.136862277984619141e+00 9.740855544805526733e-03
-5.099720954895019531e+00 6.225998401641845703e+00 9.832484647631645203e-03
-5.118024826049804688e+00 6.327146053314208984e+00 9.942440316081047058e-03
-5.114056587219238281e+00 6.402184486389160156e+00 1.001085713505744934e-02
-5.044950008392333984e+00 6.395757198333740234e+00 9.952215477824211121e-03
-5.063373088836669922e+00 6.500751018524169922e+00 1.006705779582262039e-02
-5.081914901733398438e+00 6.607793807983398438e+00 1.018434297293424606e-02
-5.017688751220703125e+00 6.607791423797607422e+00 1.013669557869434357e-02
-5.004043579101562500e+00 6.674459457397460938e+00 1.019167341291904449e-02
-4.955856323242187500e+00 6.695393085479736328e+00 1.017701253294944763e-02
-4.919991016387939453e+00 6.732942581176757812e+00 1.018800865858793259e-02
-4.966340541839599609e+00 6.884655475616455078e+00 1.037126779556274414e-02
-9.080253839492797852e-01 6.031401634216308594e+00 1.549042701721191406e+00
-8.643713593482971191e-01 5.748252391815185547e+00 8.097058534622192383e-01
-8.715540170669555664e-01 6.040697097778320312e+00 1.550027370452880859e+00
-8.289432525634765625e-01 5.752467632293701172e+00 8.095678687095642090e-01
-8.347375988960266113e-01 6.047851562500000000e+00 1.550519704818725586e+00
-8.143276572227478027e-01 5.892384052276611328e+00 1.277395844459533691e+00
-7.972065806388854980e-01 5.775931358337402344e+00 1.030206322669982910e+00
-7.978237867355346680e-01 5.787861347198486328e+00 8.138446807861328125e-01
-8.136651515960693359e-01 5.918054103851318359e+00 6.120563745498657227e-01
-7.940674424171447754e-01 6.025953769683837891e+00 1.543627381324768066e+00
-7.661345601081848145e-01 5.806154727935791016e+00 1.257659673690795898e+00
-7.554471492767333984e-01 5.732874870300292969e+00 1.021680593490600586e+00
-7.739253044128417969e-01 5.881025314331054688e+00 8.262614011764526367e-01
-7.753956317901611328e-01 5.908140182495117188e+00 6.105275154113769531e-01
-7.491099834442138672e-01 5.967241287231445312e+00 1.527381300926208496e+00
-7.282990813255310059e-01 5.793284893035888672e+00 1.253880262374877930e+00
-7.190300822257995605e-01 5.727631568908691406e+00 1.019940733909606934e+00
-7.305568456649780273e-01 5.827681064605712891e+00 8.181215524673461914e-01
-7.365381121635437012e-01 5.892057418823242188e+00 6.083871126174926758e-01
-7.135149836540222168e-01 5.980387210845947266e+00 1.529596567153930664e+00
-6.925064325332641602e-01 5.795702934265136719e+00 1.253460407257080078e+00
-6.837557554244995117e-01 5.730957508087158203e+00 1.019766688346862793e+00
-6.959567666053771973e-01 5.841888427734375000e+00 8.195011615753173828e-01
-6.982592344284057617e-01 5.878684520721435547e+00 6.065524816513061523e-01
-9.057550430297851562e-01 5.987480163574218750e+00 1.715845823287963867e+00
-6.740836501121520996e-01 5.960575103759765625e+00 1.523442745208740234e+00
-6.564914584159851074e-01 5.795957088470458984e+00 1.252620577812194824e+00
-6.545540690422058105e-01 5.787885189056396484e+00 1.029162287712097168e+00
-6.597651243209838867e-01 5.843096733093261719e+00 8.190873265266418457e-01
-6.630653142929077148e-01 5.890766620635986328e+00 6.073678135871887207e-01
-8.707944154739379883e-01 6.005303382873535156e+00 1.719389796257019043e+00
-6.354374885559082031e-01 5.945324420928955078e+00 1.518519759178161621e+00
-8.493612408638000488e-01 5.871924400329589844e+00 1.443027496337890625e+00
-6.229972839355468750e-01 5.819319248199462891e+00 1.256819725036621094e+00
-6.211210489273071289e-01 5.811375617980957031e+00 1.032642126083374023e+00
-6.206424236297607422e-01 5.816504478454589844e+00 8.148103952407836914e-01
-8.297381401062011719e-01 5.778969764709472656e+00 7.561818361282348633e-01
-6.342720389366149902e-01 5.963969230651855469e+00 6.145025491714477539e-01
-8.331368565559387207e-01 6.004815101623535156e+00 1.717754125595092773e+00
-8.238385915756225586e-01 5.953063011169433594e+00 1.461697459220886230e+00
-5.894373059272766113e-01 5.844433784484863281e+00 1.261438965797424316e+00
-8.155676722526550293e-01 5.908485412597656250e+00 1.219998717308044434e+00
-5.867337584495544434e-01 5.827815055847167969e+00 1.034904122352600098e+00
-7.877092957496643066e-01 5.721405506134033203e+00 9.623220562934875488e-01
-5.845451951026916504e-01 5.816261768341064453e+00 8.142586350440979004e-01
-7.929143309593200684e-01 5.774127483367919922e+00 7.548973560333251953e-01
-6.079756021499633789e-01 6.070692539215087891e+00 6.251026988029479980e-01
-7.909686565399169922e-01 5.969755172729492188e+00 1.706304311752319336e+00
-7.745666503906250000e-01 5.861676216125488281e+00 1.438064575195312500e+00
-5.671097636222839355e-01 5.991024017333984375e+00 1.292302966117858887e+00
-7.717462182044982910e-01 5.856070518493652344e+00 1.208175539970397949e+00
-5.528165102005004883e-01 5.850913047790527344e+00 1.038383960723876953e+00
-7.510461211204528809e-01 5.714395046234130859e+00 9.603497385978698730e-01
-5.544258952140808105e-01 5.878902435302734375e+00 8.225364089012145996e-01
-7.658476829528808594e-01 5.842799186706542969e+00 7.632465362548828125e-01
-5.729483962059020996e-01 6.098078727722167969e+00 6.275488734245300293e-01
-7.587832212448120117e-01 6.009814739227294922e+00 1.716391205787658691e+00
-7.353082299232482910e-01 5.840288639068603516e+00 1.431683540344238281e+00
-5.400753617286682129e-01 6.104442119598388672e+00 1.316028475761413574e+00
-7.226188182830810547e-01 5.755711078643798828e+00 1.186532974243164062e+00
-5.227952599525451660e-01 5.920897960662841797e+00 1.050215363502502441e+00
-7.167043089866638184e-01 5.724768638610839844e+00 9.613358974456787109e-01
-5.227771997451782227e-01 5.932511329650878906e+00 8.295725584030151367e-01
-7.285082936286926270e-01 5.835579395294189453e+00 7.617051601409912109e-01
-5.457838773727416992e-01 6.218415260314941406e+00 6.395759582519531250e-01
-7.163897156715393066e-01 5.968503952026367188e+00 1.703305482864379883e+00
-7.001518607139587402e-01 5.850479125976562500e+00 1.433101534843444824e+00
-5.002034306526184082e-01 6.078408718109130859e+00 1.309729695320129395e+00
-6.887978315353393555e-01 5.772683143615722656e+00 1.189138054847717285e+00
-4.906462728977203369e-01 5.975029468536376953e+00 1.059262871742248535e+00
-6.843609213829040527e-01 5.752565860748291016e+00 9.652804732322692871e-01
-4.913001656532287598e-01 5.995821952819824219e+00 8.379882574081420898e-01
-6.971269845962524414e-01 5.877362251281738281e+00 7.665862441062927246e-01
-5.083461999893188477e-01 6.230570793151855469e+00 6.404933333396911621e-01
-6.826916933059692383e-01 5.998598098754882812e+00 1.710666060447692871e+00
-9.197831153869628906e-01 6.065447807312011719e+00 1.673686265945434570e+00
-6.659934520721435547e-01 5.870112895965576172e+00 1.436882972717285156e+00
-6.531441211700439453e-01 5.774853229522705078e+00 1.188737273216247559e+00
-6.546872258186340332e-01 5.806646347045898438e+00 9.736627936363220215e-01
-4.613105356693267822e-01 6.088595867156982422e+00 8.505429029464721680e-01
-6.600540876388549805e-01 5.872659206390380859e+00 7.654301524162292480e-01
-4.698821008205413818e-01 6.230596542358398438e+00 6.401875019073486328e-01
-9.959864616394042969e-02 6.726274490356445312e-01 7.239488884806632996e-03
-8.807446360588073730e-01 6.058566093444824219e+00 1.670264720916748047e+00
-6.312059164047241211e-01 5.885682582855224609e+00 1.439718842506408691e+00
-6.198847293853759766e-01 5.799209594726562500e+00 1.192945480346679688e+00
-6.213449239730834961e-01 5.832132816314697266e+00 9.772787094116210938e-01
-8.246813416481018066e-01 5.729089736938476562e+00 9.084686636924743652e-01
-6.262068152427673340e-01 5.897308826446533203e+00 7.681276798248291016e-01
-8.383692502975463867e-01 6.026589870452880859e+00 1.659999847412109375e+00
-6.061182618141174316e-01 5.998687267303466797e+00 1.466424107551574707e+00
-8.190768361091613770e-01 5.910583019256591797e+00 1.390775561332702637e+00
-5.883139371871948242e-01 5.842870712280273438e+00 1.201161742210388184e+00
-8.143923282623291016e-01 5.907105922698974609e+00 1.161246299743652344e+00
