-7.889764785766601562e+00 7.357308864593505859e-01 9.680990129709243774e-03
-4.865877628326416016e+00 6.621357798576354980e-01 5.228401720523834229e-02
-7.901023387908935547e+00 7.857110500335693359e-01 9.700538590550422668e-03
-4.867663383483886719e+00 6.928252577781677246e-01 5.234789475798606873e-02
-1.077204704284667969e+01 1.138009428977966309e+00 1.323378179222345352e-02
-4.855407714843750000e+00 7.215037941932678223e-01 5.226272717118263245e-02
-1.028783607482910156e+01 1.150727272033691406e+00 1.264735125005245209e-02
-4.842983722686767578e+00 7.500580549240112305e-01 5.217755213379859924e-02
-1.354291915893554688e+01 1.599015474319458008e+00 1.666073501110076904e-02
-1.341376876831054688e+01 1.667281389236450195e+00 1.651412621140480042e-02
-4.832996845245361328e+00 6.308598518371582031e-01 5.954713094979524612e-03
-4.857767581939697266e+00 6.644327044486999512e-01 5.990143399685621262e-03
-4.898902416229248047e+00 6.989617943763732910e-01 1.857781112194061279e-01
-4.874387741088867188e+00 6.972002983093261719e-01 6.015799473971128464e-03
-4.890568256378173828e+00 7.284189462661743164e-01 1.856280565261840820e-01
-4.875952243804931641e+00 7.279818654060363770e-01 6.023129913955926895e-03
-4.865464687347412109e+00 7.569640278816223145e-01 6.015799473971128464e-03
-4.852831363677978516e+00 7.855254411697387695e-01 6.006026174873113632e-03
-1.421350193023681641e+01 2.570059537887573242e+00 1.764667034149169922e-02
-1.324205589294433594e+01 2.478407621383666992e+00 1.645915023982524872e-02
-1.465408706665039062e+01 2.929256200790405273e+00 1.825753599405288696e-02
-1.468382835388183594e+01 3.029016256332397461e+00 1.831740140914916992e-02
-1.435152626037597656e+01 3.144557714462280273e+00 1.794965937733650208e-02
-2.406087398529052734e+00 1.045229315757751465e+00 1.728605628013610840e-01
-2.335806846618652344e+00 1.015183329582214355e+00 7.558958977460861206e-02
-2.378635406494140625e+00 1.050699830055236816e+00 1.713482737541198730e-01
-2.397189140319824219e+00 1.059395551681518555e+00 7.778489589691162109e-02
-2.352117776870727539e+00 1.056281924247741699e+00 1.699017435312271118e-01
-2.340496540069580078e+00 1.051554083824157715e+00 7.615325599908828735e-02
-2.350131034851074219e+00 1.072766184806823730e+00 1.702305078506469727e-01
-2.333091259002685547e+00 1.065480113029479980e+00 7.612358778715133667e-02
-2.253976106643676758e+00 1.046111464500427246e+00 7.375028729438781738e-02
-2.387614727020263672e+00 1.021283507347106934e+00 1.465514749288558960e-01
-2.394120693206787109e+00 1.041490197181701660e+00 1.473402976989746094e-01
-2.380380630493164062e+00 1.052929639816284180e+00 1.468895375728607178e-01
-2.360456466674804688e+00 1.045101642608642578e+00 5.227113515138626099e-02
-2.367501258850097656e+00 1.064649224281311035e+00 1.464951336383819580e-01
-2.311149597167968750e+00 1.040278315544128418e+00 5.131964758038520813e-02
-2.351843595504760742e+00 1.075005292892456055e+00 1.459316909313201904e-01
-2.317451238632202148e+00 1.060263037681579590e+00 5.160306766629219055e-02
-2.309995412826538086e+00 1.074041128158569336e+00 5.158282443881034851e-02
-2.392845630645751953e+00 1.024972438812255859e+00 1.223050877451896667e-01
-2.399332284927368164e+00 1.045220494270324707e+00 1.229621395468711853e-01
-2.384653806686401367e+00 1.056281924247741699e+00 1.225397437810897827e-01
-2.324439525604248047e+00 1.031066298484802246e+00 2.707356214523315430e-02
-2.362643957138061523e+00 1.063921451568603516e+00 1.217418983578681946e-01
-2.314423084259033203e+00 1.043665051460266113e+00 2.703097462654113770e-02
-2.336997747421264648e+00 1.069668173789978027e+00 1.207563281059265137e-01
-2.313429832458496094e+00 1.060346245765686035e+00 2.709485217928886414e-02
-2.387292385101318359e+00 9.914889931678771973e-01 3.158172592520713806e-03
-2.394059896469116211e+00 1.011567473411560059e+00 3.175277030095458031e-03
-2.374945402145385742e+00 1.020710110664367676e+00 3.158172592520713806e-03
-2.364056348800659180e+00 1.033260822296142578e+00 3.152064047753810883e-03
-2.360413551330566406e+00 1.048965334892272949e+00 3.155729267746210098e-03
-2.358489274978637695e+00 1.065487265586853027e+00 3.161837812513113022e-03
-2.327370166778564453e+00 1.068671822547912598e+00 3.128851065412163734e-03
-2.312613248825073242e+00 1.079126477241516113e+00 3.117855405434966087e-03
-8.177445411682128906e+00 6.612369537353515625e+00 3.121185898780822754e-01
-8.134398460388183594e+00 6.660521030426025391e+00 3.120295703411102295e-01
-8.101840972900390625e+00 6.717325210571289062e+00 3.123559057712554932e-01
-7.996165752410888672e+00 6.712924480438232422e+00 3.098639249801635742e-01
-8.151060104370117188e+00 6.683526515960693359e+00 2.134370952844619751e-01
-8.102973937988281250e+00 6.727666854858398438e+00 2.132548987865447998e-01
-8.025572776794433594e+00 6.747020721435546875e+00 2.123034149408340454e-01
-8.150764465332031250e+00 6.692656993865966797e+00 1.122866123914718628e-01
-8.084940910339355469e+00 6.722085475921630859e+00 1.119459271430969238e-01
-8.020593643188476562e+00 6.752247810363769531e+00 1.116265356540679932e-01
-8.145647048950195312e+00 6.614478111267089844e+00 1.281961519271135330e-02
-8.134260177612304688e+00 6.688468933105468750e+00 1.286604069173336029e-02
-8.088957786560058594e+00 6.730053424835205078e+00 3.950411081314086914e-01
-5.818842887878417969e+00 5.603633403778076172e+00 1.635750383138656616e-01
-8.084613800048828125e+00 6.731215953826904297e+00 1.285260170698165894e-02
-5.806542873382568359e+00 5.660867691040039062e+00 1.642026305198669434e-01
-8.034749984741210938e+00 6.773605346679687500e+00 1.283916365355253220e-02
-5.746793270111083984e+00 5.671808719635009766e+00 1.634940654039382935e-01
-5.807216167449951172e+00 5.600133895874023438e+00 8.589441329240798950e-02
-5.787055015563964844e+00 5.649631023406982422e+00 8.610733598470687866e-02
-5.834622383117675781e+00 5.634306430816650391e+00 9.909453801810741425e-03
-5.792790889739990234e+00 5.663010597229003906e+00 9.897236712276935577e-03
-5.718130588531494141e+00 5.659055709838867188e+00 9.828818961977958679e-03
-1.897897481918334961e+00 2.365074872970581055e+00 1.998186409473419189e-01
-1.901388287544250488e+00 2.370272159576416016e+00 9.018538892269134521e-02
-1.879667997360229492e+00 2.370328903198242188e+00 3.099522888660430908e-01
-1.880871057510375977e+00 2.373547315597534180e+00 1.995556354522705078e-01
-1.878119587898254395e+00 2.370925188064575195e+00 8.977006375789642334e-02
-1.843562245368957520e+00 2.352635145187377930e+00 8.808194398880004883e-01
-1.866814255714416504e+00 2.381451606750488281e+00 7.684906125068664551e-01
-1.834695935249328613e+00 2.339637994766235352e+00 6.384879350662231445e-01
-1.841414570808410645e+00 2.349049806594848633e+00 5.273695588111877441e-01
-1.865693449974060059e+00 2.380877494812011719e+00 4.213395118713378906e-01
-1.855275511741638184e+00 2.369286060333251953e+00 3.083214759826660156e-01
-1.866271853446960449e+00 2.385043382644653320e+00 1.995556354522705078e-01
-1.869078993797302246e+00 2.389490127563476562e+00 9.003705531358718872e-02
-1.771566033363342285e+00 2.289556741714477539e+00 8.531171083450317383e-01
-1.828436255455017090e+00 2.362203359603881836e+00 7.586445212364196777e-01
-1.807735323905944824e+00 2.334617376327514648e+00 6.340788006782531738e-01
-1.808883666992187500e+00 2.336942672729492188e+00 5.221498012542724609e-01
-1.833472371101379395e+00 2.369563817977905273e+00 4.173385500907897949e-01
-1.838268995285034180e+00 2.377477169036865234e+00 3.079138100147247314e-01
-1.846721768379211426e+00 2.390133142471313477e+00 1.990296393632888794e-01
-1.856215119361877441e+00 2.403286695480346680e+00 9.012605249881744385e-02
-1.766801595687866211e+00 2.312579154968261719e+00 8.576399683952331543e-01
-1.802136540412902832e+00 2.357976198196411133e+00 7.537214159965515137e-01
-1.777342796325683594e+00 2.324694156646728516e+00 6.284098625183105469e-01
-1.780757069587707520e+00 2.330002546310424805e+00 5.181480050086975098e-01
-1.813486814498901367e+00 2.373685836791992188e+00 4.160968959331512451e-01
-1.824853897094726562e+00 2.390293359756469727e+00 3.081176578998565674e-01
-1.827784895896911621e+00 2.395865917205810547e+00 1.985693722963333130e-01
-1.845070719718933105e+00 2.419399976730346680e+00 9.030405431985855103e-02
-1.747957468032836914e+00 2.317250490188598633e+00 8.553785681724548340e-01
-1.771871447563171387e+00 2.348100423812866211e+00 7.470752596855163574e-01
-1.754209518432617188e+00 2.323850870132446289e+00 6.252604722976684570e-01
-1.769985914230346680e+00 2.345601558685302734e+00 5.191919803619384766e-01
-1.785766363143920898e+00 2.367373228073120117e+00 4.130617082118988037e-01
-1.808356523513793945e+00 2.399062156677246094e+00 3.078118860721588135e-01
-1.813650012016296387e+00 2.407833099365234375e+00 1.986351162195205688e-01
-1.833798289299011230e+00 2.435466766357421875e+00 9.048204869031906128e-02
-1.733133196830749512e+00 2.327162742614746094e+00 8.550958633422851562e-01
-1.745270371437072754e+00 2.342606306076049805e+00 7.419060468673706055e-01
-1.739917635917663574e+00 2.334570884704589844e+00 6.252604722976684570e-01
-1.756148457527160645e+00 2.357207536697387695e+00 5.193659067153930664e-01
-1.766474008560180664e+00 2.371931076049804688e+00 4.119580090045928955e-01
-1.794196009635925293e+00 2.410911083221435547e+00 3.079138100147247314e-01
-1.910910487174987793e+00 2.382089376449584961e+00 2.838335931301116943e-01
-1.798841714859008789e+00 2.418915987014770508e+00 1.986351162195205688e-01
-1.906521081924438477e+00 2.378318071365356445e+00 1.720190942287445068e-01
-1.828957676887512207e+00 2.460309982299804688e+00 9.098637849092483521e-02
-1.895205378532409668e+00 2.365893840789794922e+00 6.138113141059875488e-02
-1.750072717666625977e+00 2.380257844924926758e+00 8.706430792808532715e-01
-1.729140758514404297e+00 2.350928544998168945e+00 7.411676049232482910e-01
-1.718027472496032715e+00 2.334965229034423828e+00 6.225309967994689941e-01
-1.742235302925109863e+00 2.368731975555419922e+00 5.195398926734924316e-01
-1.747193336486816406e+00 2.376341581344604492e+00 4.108543097972869873e-01
-1.894415378570556641e+00 2.389729022979736328e+00 3.949820101261138916e-01
-1.766411066055297852e+00 2.404237508773803711e+00 3.056714534759521484e-01
-1.887602448463439941e+00 2.382842779159545898e+00 2.825379967689514160e-01
-1.891892194747924805e+00 2.389971494674682617e+00 1.720190942287445068e-01
-1.897400140762329102e+00 2.398649692535400391e+00 6.192773580551147461e-02
-1.731490612030029297e+00 2.385517358779907227e+00 8.686643242835998535e-01
-1.892228007316589355e+00 2.410349607467651367e+00 8.682823777198791504e-01
-1.711266279220581055e+00 2.356788396835327148e+00 7.396906614303588867e-01
-1.871777415275573730e+00 2.386013507843017578e+00 7.375841140747070312e-01
-1.694474577903747559e+00 2.332806110382080078e+00 6.191716790199279785e-01
-1.852581739425659180e+00 2.363242626190185547e+00 6.142076253890991211e-01
-1.720146536827087402e+00 2.369018554687500000e+00 5.172780156135559082e-01
-1.851010203361511230e+00 2.362936019897460938e+00 5.001444816589355469e-01
-1.729670405387878418e+00 2.383009672164916992e+00 4.101644754409790039e-01
-1.861989378929138184e+00 2.378661632537841797e+00 3.912569880485534668e-01
-1.739360332489013672e+00 2.398119926452636719e+00 3.035310506820678711e-01
-1.858222484588623047e+00 2.375557422637939453e+00 2.803169190883636475e-01
-1.867354035377502441e+00 2.388949155807495117e+00 1.711175888776779175e-01
-1.888185501098632812e+00 2.417337894439697266e+00 6.210993230342864990e-02
-1.716820716857910156e+00 2.396096706390380859e+00 8.686643242835998535e-01
-1.822583794593811035e+00 2.351196289062500000e+00 8.429290652275085449e-01
-1.695643901824951172e+00 2.365668773651123047e+00 7.391983866691589355e-01
-1.830920338630676270e+00 2.363654375076293945e+00 7.271856069564819336e-01
-1.677280306816101074e+00 2.339186429977416992e+00 6.181218624114990234e-01
-1.802065014839172363e+00 2.328081130981445312e+00 6.021839976310729980e-01
-1.700415134429931641e+00 2.372325181961059570e+00 5.157121419906616211e-01
-1.817164421081542969e+00 2.349281787872314453e+00 4.948849976062774658e-01
-1.710401177406311035e+00 2.387136936187744141e+00 4.090607762336730957e-01
-1.834016323089599609e+00 2.372779369354248047e+00 3.884311020374298096e-01
-1.736774444580078125e+00 2.425733089447021484e+00 3.056714534759521484e-01
-1.841176748275756836e+00 2.383762359619140625e+00 2.799467444419860840e-01
-1.856930732727050781e+00 2.405894517898559570e+00 1.715119928121566772e-01
-1.869043231010437012e+00 2.423336267471313477e+00 6.196822226047515869e-02
-1.705963492393493652e+00 2.412067651748657227e+00 8.706430792808532715e-01
-1.780638337135314941e+00 2.326426506042480469e+00 8.301160931587219238e-01
-1.702368974685668945e+00 2.406094551086425781e+00 7.485522031784057617e-01
-1.798083305358886719e+00 2.350918292999267578e+00 7.198594212532043457e-01
-1.665155053138732910e+00 2.352626323699951172e+00 6.189616918563842773e-01
-1.772873282432556152e+00 2.319634675979614258e+00 5.971741676330566406e-01
-1.687533020973205566e+00 2.385125875473022461e+00 5.162340998649597168e-01
-1.796728134155273438e+00 2.352548122406005859e+00 4.932413995265960693e-01
-1.701440930366516113e+00 2.405673265457153320e+00 4.104404151439666748e-01
-1.807389497756958008e+00 2.368221044540405273e+00 3.858621120452880859e-01
-1.825911879539489746e+00 2.394223213195800781e+00 2.798542082309722900e-01
-1.840317964553833008e+00 2.414860963821411133e+00 1.713429689407348633e-01
-1.856561660766601562e+00 2.437940597534179688e+00 6.204919889569282532e-02
-1.686189532279968262e+00 2.415410995483398438e+00 8.680989742279052734e-01
-1.757048964500427246e+00 2.325026988983154297e+00 8.257542252540588379e-01
-1.689793109893798828e+00 2.419673442840576172e+00 7.495368123054504395e-01
-1.766057491302490234e+00 2.338644266128540039e+00 7.127695083618164062e-01
-1.652368068695068359e+00 2.365203619003295898e+00 6.195915937423706055e-01
-1.750935077667236328e+00 2.320302724838256836e+00 5.945690274238586426e-01
-1.689781188964843750e+00 2.419656038284301758e+00 5.214538574218750000e-01
-1.771569252014160156e+00 2.349351882934570312e+00 4.902829229831695557e-01
-1.789243459701538086e+00 2.374514102935791016e+00 3.850914239883422852e-01
-1.809988856315612793e+00 2.403790712356567383e+00 2.796691060066223145e-01
-1.823665142059326172e+00 2.423713922500610352e+00 1.711739301681518555e-01
-1.845773577690124512e+00 2.454879999160766602e+00 6.219090893864631653e-02
-1.670792937278747559e+00 2.424921989440917969e+00 8.678163290023803711e-01
-1.732968688011169434e+00 2.322654962539672852e+00 8.211197257041931152e-01
-1.677114844322204590e+00 2.433188438415527344e+00 7.505214810371398926e-01
-1.741220355033874512e+00 2.335414886474609375e+00 7.085155844688415527e-01
-1.650589585304260254e+00 2.393810749053955078e+00 6.244206428527832031e-01
-1.730811715126037598e+00 2.323146104812622070e+00 5.925651192665100098e-01
-1.731347322463989258e+00 2.511869907379150391e+00 5.390270352363586426e-01
-1.752997279167175293e+00 2.354639291763305664e+00 4.891324341297149658e-01
-1.774048209190368652e+00 2.384652376174926758e+00 3.849629759788513184e-01
-1.794017434120178223e+00 2.413253307342529297e+00 2.794840335845947266e-01
-1.926856398582458496e+00 2.404491662979125977e+00 2.571185827255249023e-01
-1.820071458816528320e+00 2.450086116790771484e+00 1.722444742918014526e-01
-1.924337267875671387e+00 2.403066635131835938e+00 1.446447819471359253e-01
-1.844382286071777344e+00 2.484623432159423828e+00 6.265652924776077271e-02
-1.659657955169677734e+00 2.440680503845214844e+00 8.697950243949890137e-01
-1.719255328178405762e+00 2.334019422531127930e+00 8.213924169540405273e-01
-1.665969491004943848e+00 2.449042797088623047e+00 7.522445321083068848e-01
-1.722825646400451660e+00 2.340577125549316406e+00 7.068613171577453613e-01
-1.654572248458862305e+00 2.431375741958618164e+00 6.315593123435974121e-01
-1.718846559524536133e+00 2.336879253387451172e+00 5.933666825294494629e-01
-1.719225525856018066e+00 2.527331352233886719e+00 5.400709509849548340e-01
-1.741437435150146484e+00 2.369325399398803711e+00 4.899542331695556641e-01
-1.752925157546997070e+00 2.386700391769409180e+00 3.835500180721282959e-01
-1.870105624198913574e+00 2.361549139022827148e+00 3.618665635585784912e-01
-1.792137026786804199e+00 2.441875457763671875e+00 2.815199792385101318e-01
-1.897224903106689453e+00 2.397514343261718750e+00 2.551228404045104980e-01
-1.906458139419555664e+00 2.410911321640014648e+00 1.444101184606552124e-01
-1.909048557281494141e+00 2.416786909103393555e+00 3.279062733054161072e-02
-1.659082412719726562e+00 2.472323417663574219e+00 8.774272799491882324e-01
-1.732062339782714844e+00 2.381875038146972656e+00 8.344779610633850098e-01
-1.866659998893737793e+00 2.376019239425659180e+00 8.243411779403686523e-01
-1.661175131797790527e+00 2.474508523941040039e+00 7.569214105606079102e-01
-1.696436643600463867e+00 2.334596633911132812e+00 7.018983364105224609e-01
-1.861473441123962402e+00 2.371972799301147461e+00 7.027650475502014160e-01
-1.659790635108947754e+00 2.471513748168945312e+00 6.393277645111083984e-01
-1.693538188934326172e+00 2.332319259643554688e+00 5.895591974258422852e-01
-1.833887338638305664e+00 2.340183496475219727e+00 5.789983272552490234e-01
-1.688317418098449707e+00 2.514940023422241211e+00 5.351992249488830566e-01
-1.720494508743286133e+00 2.371183633804321289e+00 4.881462454795837402e-01
-1.846549868583679199e+00 2.357189178466796875e+00 4.699724614620208740e-01
-1.733008623123168945e+00 2.390185356140136719e+00 3.823939859867095947e-01
-1.859249830245971680e+00 2.377672195434570312e+00 3.625821769237518311e-01
-1.862230062484741211e+00 2.383197307586669922e+00 2.523786723613739014e-01
-1.887940526008605957e+00 2.417839765548706055e+00 1.441285163164138794e-01
-1.902793407440185547e+00 2.439493656158447266e+00 3.293967619538307190e-02
-1.652884483337402344e+00 2.496052742004394531e+00 8.822327852249145508e-01
-1.710682153701782227e+00 2.383078813552856445e+00 8.312065601348876953e-01
-1.829575300216674805e+00 2.358461856842041016e+00 8.143395781517028809e-01
-1.663624525070190430e+00 2.511319160461425781e+00 7.650444507598876953e-01
-1.678115487098693848e+00 2.339435100555419922e+00 7.002440690994262695e-01
-1.826601862907409668e+00 2.357176065444946289e+00 6.950473189353942871e-01
-1.655396342277526855e+00 2.497951507568359375e+00 6.435269713401794434e-01
-1.678053855895996094e+00 2.341074228286743164e+00 5.891583561897277832e-01
-1.805677890777587891e+00 2.333537340164184570e+00 5.746018290519714355e-01
-1.665784358978271484e+00 2.514579534530639648e+00 5.329372882843017578e-01
-1.698445916175842285e+00 2.371271133422851562e+00 4.860096275806427002e-01
-1.816336274147033691e+00 2.348158121109008789e+00 4.659410119056701660e-01
-1.718310117721557617e+00 2.400774002075195312e+00 3.823939859867095947e-01
-1.833703517913818359e+00 2.374890089035034180e+00 3.604353070259094238e-01
-1.847571969032287598e+00 2.394578933715820312e+00 2.523786723613739014e-01
-1.879168629646301270e+00 2.437288999557495117e+00 1.445978432893753052e-01
-1.877416729927062988e+00 2.437655210494995117e+00 3.275869041681289673e-02
-1.639111995697021484e+00 2.508556604385375977e+00 8.830807805061340332e-01
-1.693246245384216309e+00 2.389605283737182617e+00 8.298434615135192871e-01
-1.792190551757812500e+00 2.339773893356323242e+00 8.040747642517089844e-01
-1.667805433273315430e+00 2.551497459411621094e+00 7.741521596908569336e-01
-1.662044882774353027e+00 2.347308635711669922e+00 6.995350718498229980e-01
-1.794941902160644531e+00 2.345909357070922852e+00 6.884645819664001465e-01
-1.640573263168334961e+00 2.508880138397216797e+00 6.437369585037231445e-01
-1.668184757232666016e+00 2.357724666595458984e+00 5.907615423202514648e-01
-1.782386898994445801e+00 2.332873344421386719e+00 5.717346072196960449e-01
-1.653017759323120117e+00 2.528874635696411133e+00 5.338072776794433594e-01
-1.682155728340148926e+00 2.379231691360473633e+00 4.855165481567382812e-01
-1.804292559623718262e+00 2.362399339675903320e+00 4.665612280368804932e-01
-1.658333301544189453e+00 2.537973642349243164e+00 4.223052263259887695e-01
-1.727008461952209473e+00 2.444480657577514648e+00 3.876603841781616211e-01
-1.814883232116699219e+00 2.380569696426391602e+00 3.596004247665405273e-01
-1.831032633781433105e+00 2.403492212295532227e+00 2.521291971206665039e-01
-1.850867271423339844e+00 2.431288242340087891e+00 1.435653418302536011e-01
-1.679562091827392578e+00 2.575368165969848633e+00 9.125337004661560059e-02
-1.865450620651245117e+00 2.453108787536621094e+00 3.281192108988761902e-02
-1.625767946243286133e+00 2.521791934967041016e+00 8.842115402221679688e-01
-1.679654955863952637e+00 2.401526927947998047e+00 8.303887248039245605e-01
-1.758596539497375488e+00 2.325334072113037109e+00 7.953891754150390625e-01
-1.658421993255615234e+00 2.571457147598266602e+00 7.771059870719909668e-01
-1.665422797203063965e+00 2.382948637008666992e+00 7.070976495742797852e-01
-1.772295117378234863e+00 2.345999479293823242e+00 6.852867007255554199e-01
-1.643700003623962402e+00 2.547653675079345703e+00 6.510855555534362793e-01
-1.655930399894714355e+00 2.371129035949707031e+00 5.915631055831909180e-01
-1.762719035148620605e+00 2.336713552474975586e+00 5.700141787528991699e-01
-1.620924353599548340e+00 2.513315200805664062e+00 5.284135341644287109e-01
-1.745990514755249023e+00 2.501946210861206055e+00 5.083624124526977539e-01
-1.785599589347839355e+00 2.367904424667358398e+00 4.654758572578430176e-01
-1.616969585418701172e+00 2.508144140243530273e+00 4.156830310821533203e-01
-1.799048066139221191e+00 2.390074253082275391e+00 3.593618869781494141e-01
-1.619967222213745117e+00 2.514721155166625977e+00 3.064868450164794922e-01
-1.821641802787780762e+00 2.421849727630615234e+00 2.528776228427886963e-01
-1.641326189041137695e+00 2.549831867218017578e+00 1.998186409473419189e-01
-1.841315746307373047e+00 2.449785470962524414e+00 1.439877152442932129e-01
-1.646420240402221680e+00 2.558726787567138672e+00 9.030405431985855103e-02
-1.879181623458862305e+00 2.502891778945922852e+00 3.332294151186943054e-02
-1.617985725402832031e+00 2.543860435485839844e+00 8.884516358375549316e-01
-1.669260382652282715e+00 2.418122053146362305e+00 8.325696587562561035e-01
-1.738523483276367188e+00 2.328350543975830078e+00 7.927572131156921387e-01
-1.648856401443481445e+00 2.591397523880004883e+00 7.800598144531250000e-01
-1.662356257438659668e+00 2.409919500350952148e+00 7.120605707168579102e-01
-1.738652110099792480e+00 2.331068038940429688e+00 6.777959465980529785e-01
-1.631186962127685547e+00 2.562640190124511719e+00 6.523452997207641602e-01
-1.655250549316406250e+00 2.401411294937133789e+00 5.965729951858520508e-01
-1.747761726379394531e+00 2.346698284149169922e+00 5.698230862617492676e-01
-1.608115553855895996e+00 2.527367830276489258e+00 5.292834639549255371e-01
-1.740117907524108887e+00 2.526422262191772461e+00 5.111565589904785156e-01
-1.784015774726867676e+00 2.396249055862426758e+00 4.688870608806610107e-01
-1.604738593101501465e+00 2.523032665252685547e+00 4.165107905864715576e-01
-1.783756732940673828e+00 2.400271177291870117e+00 3.592425882816314697e-01
-1.606641054153442383e+00 2.527971982955932617e+00 3.068945407867431641e-01
-1.797835469245910645e+00 2.420980691909790039e+00 2.516302764415740967e-01
-1.910431385040283203e+00 2.387355327606201172e+00 2.261493355035781860e-01
-1.605322599411010742e+00 2.527846097946166992e+00 1.973200887441635132e-01
-1.829820990562438965e+00 2.465850353240966797e+00 1.442693173885345459e-01
-1.929271101951599121e+00 2.413487672805786133e+00 1.159987822175025940e-01
-1.621582269668579102e+00 2.554434776306152344e+00 8.979972451925277710e-02
-1.832824826240539551e+00 2.472602605819702148e+00 3.276933357119560242e-02
-1.621719479560852051e+00 2.584615945816040039e+00 8.991934061050415039e-01
-1.660350441932678223e+00 2.437065362930297852e+00 8.355683684349060059e-01
-1.724776744842529297e+00 2.339750766754150391e+00 7.930204272270202637e-01
-1.693727970123291016e+00 2.698333501815795898e+00 8.091059327125549316e-01
-1.655740022659301758e+00 2.432122230529785156e+00 7.156054973602294922e-01
-1.710457086563110352e+00 2.322870969772338867e+00 6.723482012748718262e-01
-1.610752820968627930e+00 2.565148591995239258e+00 6.504556536674499512e-01
-1.665282011032104492e+00 2.447974681854248047e+00 6.055907011032104492e-01
-1.737399935722351074e+00 2.362913608551025391e+00 5.711610913276672363e-01
-1.588912844657897949e+00 2.531349182128906250e+00 5.280655026435852051e-01
-1.718483567237854004e+00 2.528078556060791016e+00 5.093486309051513672e-01
-1.731248974800109863e+00 2.355409383773803711e+00 4.588084816932678223e-01
-1.594491481781005859e+00 2.541221380233764648e+00 4.178903996944427490e-01
-1.760772943496704102e+00 2.399963617324829102e+00 3.575728237628936768e-01
-1.884493947029113770e+00 2.382227182388305664e+00 3.358782231807708740e-01
-1.583701491355895996e+00 2.525982856750488281e+00 3.054676055908203125e-01
-1.890182018280029297e+00 2.391990423202514648e+00 2.254854887723922729e-01
-1.585543632507324219e+00 2.530883789062500000e+00 1.967940777540206909e-01
-1.904519438743591309e+00 2.412729978561401367e+00 1.153985261917114258e-01
-1.594737052917480469e+00 2.546546220779418945e+00 8.917672932147979736e-02
-1.916783571243286133e+00 2.430010557174682617e+00 3.781254868954420090e-03
-1.647225260734558105e+00 2.661399602890014648e+00 9.223728775978088379e-01
-1.650197148323059082e+00 2.454393148422241211e+00 8.380219340324401855e-01
-1.720038175582885742e+00 2.363550662994384766e+00 7.974948287010192871e-01
-1.898027539253234863e+00 2.415024042129516602e+00 8.075436949729919434e-01
-1.694997668266296387e+00 2.737517118453979492e+00 8.177213072776794434e-01
-1.653248667716979980e+00 2.460786581039428711e+00 7.210410833358764648e-01
-1.690445542335510254e+00 2.325444936752319336e+00 6.700782775878906250e-01
-1.852295517921447754e+00 2.361073255538940430e+00 6.707904934883117676e-01
-1.599616646766662598e+00 2.582464218139648438e+00 6.523452997207641602e-01
-1.657329082489013672e+00 2.468721151351928711e+00 6.081957817077636719e-01
-1.709607005119323730e+00 2.355259656906127930e+00 5.667646527290344238e-01
-1.854567050933837891e+00 2.368221521377563477e+00 5.564085841178894043e-01
-1.569722175598144531e+00 2.535190105438232422e+00 5.268476009368896484e-01
-1.690849900245666504e+00 2.520553827285766602e+00 5.057327151298522949e-01
-1.713863015174865723e+00 2.361989974975585938e+00 4.580332040786743164e-01
-1.853211045265197754e+00 2.369896411895751953e+00 4.437134265899658203e-01
-1.566358804702758789e+00 2.530744791030883789e+00 4.145793020725250244e-01
-1.744849085807800293e+00 2.409114122390747070e+00 3.573342859745025635e-01
-1.862498998641967773e+00 2.384345769882202148e+00 3.345593214035034180e-01
-1.567649126052856445e+00 2.534806489944458008e+00 3.053656816482543945e-01
-1.875469446182250977e+00 2.403543233871459961e+00 2.254854887723922729e-01
-1.570509314537048340e+00 2.541413784027099609e+00 1.968598365783691406e-01
-1.886607646942138672e+00 2.420429706573486328e+00 1.152109429240226746e-01
-1.573828577995300293e+00 2.547779560089111328e+00 8.888006955385208130e-02
-1.903680801391601562e+00 2.444092750549316406e+00 3.784920088946819305e-03
-1.655854344367980957e+00 2.712392330169677734e+00 9.365066289901733398e-01
-1.645212650299072266e+00 2.479704856872558594e+00 8.432016968727111816e-01
-1.723515152931213379e+00 2.399132490158081055e+00 8.059172034263610840e-01
-1.830994844436645508e+00 2.359388113021850586e+00 7.851684093475341797e-01
-1.669580698013305664e+00 2.733803987503051758e+00 8.135366439819335938e-01
-1.660131931304931641e+00 2.504088640213012695e+00 7.307305932044982910e-01
-1.671602725982666016e+00 2.329443454742431641e+00 6.682623624801635742e-01
-1.817453265190124512e+00 2.346163034439086914e+00 6.633736491203308105e-01
-1.598013401031494141e+00 2.615591764450073242e+00 6.582242250442504883e-01
-1.648643016815185547e+00 2.488644838333129883e+00 6.106005311012268066e-01
-1.705413937568664551e+00 2.380066871643066406e+00 5.702053308486938477e-01
-1.820752859115600586e+00 2.354663848876953125e+00 5.505880117416381836e-01
-1.554650187492370605e+00 2.545614242553710938e+00 5.270215868949890137e-01
-1.670451879501342773e+00 2.523478507995605469e+00 5.042534470558166504e-01
-1.701638817787170410e+00 2.375674009323120117e+00 4.586534202098846436e-01
-1.836216330528259277e+00 2.378090858459472656e+00 4.431298077106475830e-01
-1.540995597839355469e+00 2.524246454238891602e+00 4.119580090045928955e-01
-1.710400938987731934e+00 2.392314195632934570e+00 3.532790839672088623e-01
-1.841763496398925781e+00 2.387858629226684570e+00 3.334602415561676025e-01
-1.549476265907287598e+00 2.540131568908691406e+00 3.048560619354248047e-01
-1.861903667449951172e+00 2.416585922241210938e+00 2.256330251693725586e-01
-1.569427132606506348e+00 2.574859380722045898e+00 1.987008750438690186e-01
-1.866844773292541504e+00 2.425624847412109375e+00 1.149108186364173889e-01
-1.558166146278381348e+00 2.557388305664062500e+00 8.888006955385208130e-02
-1.889258027076721191e+00 2.456520318984985352e+00 3.786141984164714813e-03
-1.622357964515686035e+00 2.694561243057250977e+00 9.268956184387207031e-01
-1.634182333946228027e+00 2.496192693710327148e+00 8.453825712203979492e-01
-1.703181385993957520e+00 2.401793241500854492e+00 8.032851815223693848e-01
-1.806483507156372070e+00 2.357528209686279297e+00 7.808458805084228516e-01
-1.640773057937622070e+00 2.724070787429809570e+00 8.076289892196655273e-01
-1.644735932350158691e+00 2.514227867126464844e+00 7.307305932044982910e-01
-1.661218523979187012e+00 2.345219373703002930e+00 6.698513031005859375e-01
-1.794722676277160645e+00 2.346418380737304688e+00 6.603196263313293457e-01
-1.611201286315917969e+00 2.673918724060058594e+00 6.704018712043762207e-01
-1.651567578315734863e+00 2.526595830917358398e+00 6.174139380455017090e-01
-1.680575609207153320e+00 2.376061677932739258e+00 5.667646527290344238e-01
-1.788965702056884766e+00 2.343126058578491211e+00 5.453131198883056641e-01
-1.545098423957824707e+00 2.565228223800659180e+00 5.291094779968261719e-01
-1.646845459938049316e+00 2.521293163299560547e+00 5.017880797386169434e-01
-1.682467222213745117e+00 2.379617214202880859e+00 4.574129581451416016e-01
-1.807194948196411133e+00 2.370431184768676758e+00 4.396279752254486084e-01
-1.531608581542968750e+00 2.543836355209350586e+00 4.136135578155517578e-01
-1.706328392028808594e+00 2.614353179931640625e+00 4.043588340282440186e-01
-1.828281641006469727e+00 2.400696039199829102e+00 3.336800634860992432e-01
-1.532835364341735840e+00 2.547886133193969727e+00 3.046522140502929688e-01
-1.845229268074035645e+00 2.425583600997924805e+00 2.254117429256439209e-01
-1.549485921859741211e+00 2.577599048614501953e+00 1.981748640537261963e-01
-1.665860056877136230e+00 2.556246995925903320e+00 1.721881330013275146e-01
-1.853135466575622559e+00 2.438625097274780273e+00 1.149858459830284119e-01
-1.549137830734252930e+00 2.578038930892944336e+00 8.926573395729064941e-02
-1.664547204971313477e+00 2.556182622909545898e+00 6.176577880978584290e-02
-1.877778053283691406e+00 2.472844839096069336e+00 3.793472424149513245e-03
-1.622489452362060547e+00 2.511830091476440430e+00 8.472908735275268555e-01
-1.691178321838378906e+00 2.416150331497192383e+00 8.046011924743652344e-01
-1.771560907363891602e+00 2.341573715209960938e+00 7.719466686248779297e-01
-1.656678318977355957e+00 2.566724538803100586e+00 7.430197000503540039e-01
-1.662422537803649902e+00 2.377716779708862305e+00 6.762070059776306152e-01
-1.762647390365600586e+00 2.334022760391235352e+00 6.537753343582153320e-01
-1.606251597404479980e+00 2.703086376190185547e+00 6.752309203147888184e-01
-1.631785511970520020e+00 2.530095577239990234e+00 6.158108115196228027e-01
-1.674392938613891602e+00 2.398401498794555664e+00 5.696319341659545898e-01
-1.769819617271423340e+00 2.347777366638183594e+00 5.438579916954040527e-01
-1.525306224822998047e+00 2.567887306213378906e+00 5.277175903320312500e-01
-1.624931931495666504e+00 2.521400928497314453e+00 4.998157620429992676e-01
-1.799755573272705078e+00 2.390959978103637695e+00 4.413788616657257080e-01
-1.516982436180114746e+00 2.554889678955078125e+00 4.138894975185394287e-01
-1.606493711471557617e+00 2.494702339172363281e+00 3.843207061290740967e-01
-1.811127424240112305e+00 2.408691167831420898e+00 3.332404196262359619e-01
-1.522756576538085938e+00 2.566654682159423828e+00 3.057733774185180664e-01
-1.639565706253051758e+00 2.548012733459472656e+00 2.816125452518463135e-01
-1.829113602638244629e+00 2.435265302658081055e+00 2.252642065286636353e-01
-1.540255784988403320e+00 2.598216533660888672e+00 1.990296393632888794e-01
-1.638804435729980469e+00 2.548784494400024414e+00 1.710048913955688477e-01
-1.841735839843750000e+00 2.454745769500732422e+00 1.152109429240226746e-01
-1.644508123397827148e+00 2.559618711471557617e+00 6.160382553935050964e-02
-1.867368459701538086e+00 2.490720987319946289e+00 3.803246188908815384e-03
-1.620490312576293945e+00 2.542833805084228516e+00 8.543788790702819824e-01
-1.678514719009399414e+00 2.429656744003295898e+00 8.056539893150329590e-01
-1.754844665527343750e+00 2.349300384521484375e+00 7.709295749664306641e-01
-1.649248719215393066e+00 2.589955091476440430e+00 7.468009591102600098e-01
-1.656098961830139160e+00 2.399895906448364258e+00 6.796119213104248047e-01
-1.738376021385192871e+00 2.331493854522705078e+00 6.500669121742248535e-01
-1.568875551223754883e+00 2.677461862564086914e+00 6.664126515388488770e-01
-1.612022757530212402e+00 2.533447504043579102e+00 6.142076253890991211e-01
-1.679694414138793945e+00 2.437727451324462891e+00 5.765133500099182129e-01
-1.755380630493164062e+00 2.358592510223388672e+00 5.438579916954040527e-01
-1.602550148963928223e+00 2.520502567291259766e+00 4.976790845394134521e-01
-1.760266900062561035e+00 2.368608713150024414e+00 4.352506399154663086e-01
-1.495772600173950195e+00 2.554747581481933594e+00 4.123718738555908203e-01
-1.595410823822021484e+00 2.511209249496459961e+00 3.853483200073242188e-01
-1.793944001197814941e+00 2.416566371917724609e+00 3.328008055686950684e-01
-1.506979227066040039e+00 2.575949907302856445e+00 3.057733774185180664e-01
-1.611092805862426758e+00 2.537849903106689453e+00 2.793914675712585449e-01
-1.797504067420959473e+00 2.424012899398803711e+00 2.231989353895187378e-01
-1.540902018547058105e+00 2.636046409606933594e+00 2.011994272470474243e-01
-1.614042878150939941e+00 2.544459581375122070e+00 1.700470447540283203e-01
-1.838535070419311523e+00 2.482060194015502930e+00 1.159612610936164856e-01
-1.615390300750732422e+00 2.548549890518188477e+00 6.109771132469177246e-02
-1.824088335037231445e+00 2.464354991912841797e+00 3.745825029909610748e-03
-1.614074826240539551e+00 2.567390680313110352e+00 8.592860102653503418e-01
-1.665205359458923340e+00 2.442301511764526367e+00 8.064435720443725586e-01
-1.736378550529479980e+00 2.354575157165527344e+00 7.691497206687927246e-01
-1.650382876396179199e+00 2.627178192138671875e+00 7.545998096466064453e-01
-1.644631624221801758e+00 2.414842128753662109e+00 6.809738874435424805e-01
-1.724616050720214844e+00 2.342902183532714844e+00 6.502850651741027832e-01
-2.308572769165039062e+00 3.995846986770629883e+00 9.910106062889099121e-01
-1.600614547729492188e+00 2.549929618835449219e+00 6.158108115196228027e-01
-1.681815862655639648e+00 2.473149776458740234e+00 5.824390649795532227e-01
-1.737964272499084473e+00 2.365356683731079102e+00 5.429485440254211426e-01
-1.576571941375732422e+00 2.513575553894042969e+00 4.943919181823730469e-01
-1.729464173316955566e+00 2.544172525405883789e+00 4.828420281410217285e-01
-1.745700240135192871e+00 2.379364728927612305e+00 4.352506399154663086e-01
-1.462242603302001953e+00 2.532997608184814453e+00 4.074051976203918457e-01
-1.583132147789001465e+00 2.525993108749389648e+00 3.861189782619476318e-01
-1.770856976509094238e+00 2.416304588317871094e+00 3.312620818614959717e-01
-1.490150928497314453e+00 2.583424568176269531e+00 3.055695295333862305e-01
-1.595490455627441406e+00 2.547687530517578125e+00 2.793914675712585449e-01
-1.594692707061767578e+00 2.548390626907348633e+00 1.696526408195495605e-01
-1.599192261695861816e+00 2.557565927505493164e+00 6.107746809720993042e-02
-1.655083298683166504e+00 2.668823480606079102e+00 8.898190259933471680e-01
-1.647495627403259277e+00 2.448471069335937500e+00 8.051276206970214844e-01
-1.725883007049560547e+00 2.370658159255981445e+00 7.709295749664306641e-01
-2.309067249298095703e+00 4.055572509765625000e+00 1.185228109359741211e+00
-1.677736163139343262e+00 2.707460880279541016e+00 7.746878266334533691e-01
-1.641735196113586426e+00 2.442670345306396484e+00 6.859676241874694824e-01
-1.691849231719970703e+00 2.328176736831665039e+00 6.433044672012329102e-01
-2.281591653823852539e+00 4.005689144134521484e+00 9.899607896804809570e-01
-1.579264879226684570e+00 2.550539970397949219e+00 6.136064529418945312e-01
-1.675907731056213379e+00 2.497278213500976562e+00 5.856886506080627441e-01
-1.733233094215393066e+00 2.389507770538330078e+00 5.460406541824340820e-01
-2.256381511688232422e+00 3.963036775588989258e+00 8.057566285133361816e-01
-1.564233183860778809e+00 2.528234958648681641e+00 4.953780770301818848e-01
-1.709968328475952148e+00 2.548993587493896484e+00 4.817566573619842529e-01
-1.733389258384704590e+00 2.393236398696899414e+00 4.358342885971069336e-01
-1.557173371315002441e+00 2.518788814544677734e+00 3.835500180721282959e-01
-1.747840881347656250e+00 2.415851116180419922e+00 3.297233879566192627e-01
-1.578258275985717773e+00 2.554888010025024414e+00 2.791138291358947754e-01
-1.579025983810424805e+00 2.558127641677856445e+00 1.696526408195495605e-01
-1.581894636154174805e+00 2.564777374267578125e+00 6.101673468947410583e-02
-1.661268591880798340e+00 2.715862512588500977e+00 9.020867943763732910e-01
-1.633508324623107910e+00 2.460140943527221680e+00 8.056539893150329590e-01
-1.714690923690795898e+00 2.385915517807006836e+00 7.724551558494567871e-01
-2.290306329727172852e+00 4.080651760101318359e+00 1.188428163528442383e+00
-1.657544732093811035e+00 2.711900949478149414e+00 7.730335593223571777e-01
-1.647171378135681152e+00 2.483539342880249023e+00 6.945933699607849121e-01
-1.681513905525207520e+00 2.344064712524414062e+00 6.448314189910888672e-01
-2.255055665969848633e+00 4.016203403472900391e+00 9.891210198402404785e-01
-1.576861977577209473e+00 2.581921100616455078e+00 6.188166737556457520e-01
-1.670308470726013184e+00 2.522245407104492188e+00 5.891293883323669434e-01
-1.713959097862243652e+00 2.393701791763305664e+00 5.445855855941772461e-01
-2.221900939941406250e+00 3.958773612976074219e+00 8.021028041839599609e-01
-1.548690795898437500e+00 2.537785291671752930e+00 4.953780770301818848e-01
-1.677391052246093750e+00 2.533901214599609375e+00 4.769499599933624268e-01
-1.710616469383239746e+00 2.392560482025146484e+00 4.337915182113647461e-01
-1.543754339218139648e+00 2.531682968139648438e+00 3.840638399124145508e-01
-1.720853567123413086e+00 2.409544229507446289e+00 3.274153172969818115e-01
-1.556853175163269043e+00 2.555170536041259766e+00 2.780958414077758789e-01
-1.567972779273986816e+00 2.575443267822265625e+00 1.701597422361373901e-01
-1.563009977340698242e+00 2.569310426712036133e+00 6.089526787400245667e-02
-1.627178072929382324e+00 2.697170972824096680e+00 8.925451636314392090e-01
-1.621554613113403320e+00 2.474959611892700195e+00 8.072332143783569336e-01
-1.725200295448303223e+00 2.431888103485107422e+00 7.838971018791198730e-01
-2.257717847824096680e+00 4.081058979034423828e+00 1.184489727020263672e+00
-1.630339264869689941e+00 2.704544782638549805e+00 7.680706381797790527e-01
-1.646834015846252441e+00 2.516416549682617188e+00 7.009490728378295898e-01
-1.671611189842224121e+00 2.360710144042968750e+00 6.465766429901123047e-01
-2.250728130340576172e+00 4.066748142242431641e+00 9.981492161750793457e-01
-1.567055940628051758e+00 2.601618766784667969e+00 6.212214231491088867e-01
-1.662854552268981934e+00 2.544771909713745117e+00 5.919966697692871094e-01
-1.700942039489746094e+00 2.406582355499267578e+00 5.451312661170959473e-01
-2.196138381958007812e+00 3.969747543334960938e+00 8.015809059143066406e-01
-1.537159323692321777e+00 2.554001092910766602e+00 4.966929256916046143e-01
-1.657489776611328125e+00 2.537528753280639648e+00 4.757094979286193848e-01
-1.691340327262878418e+00 2.396545410156250000e+00 4.326242506504058838e-01
-2.239765644073486328e+00 4.050276756286621094e+00 6.447018980979919434e-01
-1.523080110549926758e+00 2.532608985900878906e+00 3.827793300151824951e-01
-2.247712135314941406e+00 4.067999362945556641e+00 4.761911034584045410e-01
-1.540119886398315430e+00 2.562968254089355469e+00 2.779107689857482910e-01
-2.252200603485107422e+00 4.079486370086669922e+00 3.070592582225799561e-01
-1.552140593528747559e+00 2.585015773773193359e+00 1.701597422361373901e-01
-1.660456180572509766e+00 2.550812721252441406e+00 1.430021524429321289e-01
-2.255861043930053711e+00 4.087802410125732422e+00 1.385710239410400391e-01
-1.553387999534606934e+00 2.589140653610229492e+00 6.113820150494575500e-02
-1.711548805236816406e+00 2.632315397262573242e+00 3.342940658330917358e-02
-1.614194393157958984e+00 2.497015714645385742e+00 8.111812472343444824e-01
-1.718567013740539551e+00 2.454311132431030273e+00 7.877110242843627930e-01
-2.235882282257080078e+00 4.100791931152343750e+00 1.186212778091430664e+00
-1.601300477981567383e+00 2.693616628646850586e+00 7.621623873710632324e-01
-1.641928434371948242e+00 2.542837142944335938e+00 7.054889202117919922e-01
-1.659330964088439941e+00 2.374121904373168945e+00 6.474491953849792480e-01
-2.243055343627929688e+00 4.112239837646484375e+00 1.005917787551879883e+00
-1.599596619606018066e+00 2.692889928817749023e+00 6.406596899032592773e-01
-1.647740721702575684e+00 2.555752038955688477e+00 5.921877622604370117e-01
-1.701896548271179199e+00 2.439554691314697266e+00 5.502241849899291992e-01
-2.178810119628906250e+00 3.996116876602172852e+00 8.041907548904418945e-01
-1.514914274215698242e+00 2.552357673645019531e+00 4.945562779903411865e-01
-1.639747858047485352e+00 2.544329643249511719e+00 4.750892817974090576e-01
-2.200652122497558594e+00 4.037853240966796875e+00 6.405629515647888184e-01
-1.507511734962463379e+00 2.541906833648681641e+00 3.827793300151824951e-01
-1.623182773590087891e+00 2.523459672927856445e+00 3.604353070259094238e-01
-2.205581903457641602e+00 4.050262928009033203e+00 4.725217819213867188e-01
-1.527918100357055664e+00 2.578366279602050781e+00 2.785585820674896240e-01
-1.645548343658447266e+00 2.560193777084350586e+00 2.539586424827575684e-01
-2.228080987930297852e+00 4.094982147216796875e+00 3.071907758712768555e-01
-1.528619527816772461e+00 2.581604242324829102e+00 1.693145632743835449e-01
-1.636676311492919922e+00 2.548345804214477539e+00 1.422981619834899902e-01
-2.235034704208374023e+00 4.109470367431640625e+00 1.388380378484725952e-01
-1.633273601531982422e+00 2.545978307723999023e+00 3.220508247613906860e-02
-2.234324216842651367e+00 4.160184383392333984e+00 1.391615509986877441e+00
-1.629968643188476562e+00 2.555676698684692383e+00 8.269731998443603516e-01
-1.710623502731323242e+00 2.475152730941772461e+00 7.910164594650268555e-01
-2.213889360427856445e+00 4.120410442352294922e+00 1.187935829162597656e+00
-1.641992926597595215e+00 2.577505588531494141e+00 7.122986912727355957e-01
-1.664127826690673828e+00 2.412375211715698242e+00 6.550841927528381348e-01
-2.217318058013916016e+00 4.125064373016357422e+00 1.005707859992980957e+00
-1.595917344093322754e+00 2.724633693695068359e+00 6.458698511123657227e-01
-1.622545480728149414e+00 2.550906419754028320e+00 5.887470841407775879e-01
-1.709201693534851074e+00 2.482347488403320312e+00 5.574998855590820312e-01
-2.178019762039184570e+00 4.053651332855224609e+00 8.130643367767333984e-01
-1.617744565010070801e+00 2.544339179992675781e+00 4.732286036014556885e-01
-2.175366163253784180e+00 4.050407886505126953e+00 6.404250264167785645e-01
-1.489383220672607422e+00 2.546828269958496094e+00 3.821370601654052734e-01
-1.600220680236816406e+00 2.521635532379150391e+00 3.587655127048492432e-01
-2.173162460327148438e+00 4.049695014953613281e+00 4.708910286426544189e-01
-1.510561823844909668e+00 2.585113763809204102e+00 2.782809436321258545e-01
-1.611663818359375000e+00 2.541628360748291016e+00 2.511313557624816895e-01
-2.203384160995483398e+00 4.109455585479736328e+00 3.072565197944641113e-01
-1.622078537940979004e+00 2.560027837753295898e+00 1.423920243978500366e-01
-2.216387748718261719e+00 4.135440826416015625e+00 1.392533630132675171e-01
-1.612273454666137695e+00 2.547502517700195312e+00 3.209861740469932556e-02
-2.213242292404174805e+00 4.182293415069580078e+00 1.394442200660705566e+00
-1.689780354499816895e+00 2.685664176940917969e+00 8.656635284423828125e-01
-1.676330208778381348e+00 2.457638502120971680e+00 7.821172475814819336e-01
-2.184484004974365234e+00 4.126207828521728516e+00 1.185720562934875488e+00
-2.322770357131958008e+00 4.018700599670410156e+00 1.128945708274841309e+00
-1.637029170989990234e+00 2.604848384857177734e+00 7.170654535293579102e-01
-1.657532691955566406e+00 2.434641122817993164e+00 6.583563089370727539e-01
-2.188304185867309570e+00 4.131679534912109375e+00 1.004028081893920898e+00
-2.301383256912231445e+00 3.984908103942871094e+00 9.412506222724914551e-01
-1.597472071647644043e+00 2.545848369598388672e+00 5.853063464164733887e-01
-1.702228188514709473e+00 2.504987955093383789e+00 5.602282881736755371e-01
-2.156331300735473633e+00 4.073030948638916016e+00 8.142822980880737305e-01
-1.589503884315490723e+00 2.534132003784179688e+00 4.695072770118713379e-01
-2.157421350479125977e+00 4.076810359954833984e+00 6.424944400787353516e-01
-1.466792941093444824e+00 2.543891191482543945e+00 3.803387880325317383e-01
-1.585244894027709961e+00 2.532248258590698242e+00 3.588847815990447998e-01
-2.165012836456298828e+00 4.094612121582031250e+00 4.745602905750274658e-01
-1.610307455062866211e+00 2.574280500411987305e+00 2.533765435218811035e-01
-2.178593635559082031e+00 4.123780250549316406e+00 3.073222637176513672e-01
-1.606339931488037109e+00 2.569932699203491211e+00 1.423920243978500366e-01
-2.192838430404663086e+00 4.152498245239257812e+00 1.393720209598541260e-01
-1.596082448959350586e+00 2.556499242782592773e+00 3.208797052502632141e-02
-2.186208248138427734e+00 4.193243503570556641e+00 1.393594264984130859e+00
-1.695145845413208008e+00 2.731228828430175781e+00 8.769811391830444336e-01
-1.660138726234436035e+00 2.466273307800292969e+00 7.816087007522583008e-01
-2.150608539581298828e+00 4.123205661773681641e+00 1.181043624877929688e+00
-2.296624898910522461e+00 4.030344009399414062e+00 1.128236651420593262e+00
-1.628712415695190430e+00 2.627260208129882812e+00 7.204703688621520996e-01
-1.665965676307678223e+00 2.479598283767700195e+00 6.677364706993103027e-01
-2.166530132293701172e+00 4.151963710784912109e+00 1.005707859992980957e+00
-2.276404380798339844e+00 3.998102664947509766e+00 9.410502314567565918e-01
-1.579754590988159180e+00 2.552263975143432617e+00 5.845417380332946777e-01
-1.708185076713562012e+00 2.547236204147338867e+00 5.673220753669738770e-01
-2.119003295898437500e+00 4.062611103057861328e+00 8.095844984054565430e-01
-1.572365522384643555e+00 2.541316986083984375e+00 4.690421223640441895e-01
-2.125039815902709961e+00 4.075919628143310547e+00 6.402870416641235352e-01
-1.568634271621704102e+00 2.540238142013549805e+00 3.586462736129760742e-01
-2.142605543136596680e+00 4.113112926483154297e+00 4.751718342304229736e-01
-1.592911839485168457e+00 2.581568479537963867e+00 2.531270980834960938e-01
-2.150024652481079102e+00 4.130874156951904297e+00 3.068619966506958008e-01
-1.585822701454162598e+00 2.572088003158569336e+00 1.419696360826492310e-01
