-2.116844058036804199e-02 -7.201266288757324219e-01 4.747254773974418640e-02
-3.800814226269721985e-02 -7.019420266151428223e-01 6.533633172512054443e-02
-2.201667614281177521e-02 -7.321233749389648438e-01 6.111971288919448853e-02
-3.438076749444007874e-02 -7.952120900154113770e-01 8.474461734294891357e-03
-3.568278253078460693e-02 -7.303222417831420898e-01 3.435430675745010376e-02
-7.775388658046722412e-02 -7.458041906356811523e-01 1.518332865089178085e-02
-8.824093639850616455e-02 -7.517962455749511719e-01 8.059254847466945648e-03
-1.134070754051208496e-01 -6.815296411514282227e-01 3.899024426937103271e-02
-9.950238466262817383e-02 -7.312192320823669434e-01 7.856975309550762177e-03
-1.197385340929031372e-01 -7.150021791458129883e-01 7.718572858721017838e-03
-1.044483631849288940e-01 -6.488519310951232910e-01 4.860809445381164551e-02
-1.244493499398231506e-01 -7.132233977317810059e-01 8.845326956361532211e-04
-1.207974314689636230e+00 -1.210678696632385254e+00 5.075894668698310852e-02
-1.180461168289184570e+00 -1.169081568717956543e+00 1.094761565327644348e-01
-1.207566499710083008e+00 -1.195508241653442383e+00 5.043261498212814331e-02
-1.238968491554260254e+00 -1.212057113647460938e+00 1.142102628946304321e-01
-1.222025632858276367e+00 -1.195064902305603027e+00 5.072927847504615784e-02
-1.247099757194519043e+00 -1.205125451087951660e+00 1.142760142683982849e-01
-1.227178692817687988e+00 -1.185460805892944336e+00 5.064028128981590271e-02
-1.250140070915222168e+00 -1.193316936492919922e+00 1.138815060257911682e-01
-1.229367256164550781e+00 -1.173078298568725586e+00 5.043261498212814331e-02
-1.257438659667968750e+00 -1.185623645782470703e+00 1.138815060257911682e-01
-1.249634861946105957e+00 -1.177853703498840332e+00 5.096660926938056946e-02
-1.217093229293823242e+00 -1.233183860778808594e+00 3.508361056447029114e-02
-1.264689803123474121e+00 -1.177885890007019043e+00 1.138815060257911682e-01
-1.256838440895080566e+00 -1.170163869857788086e+00 5.096660926938056946e-02
-1.218983650207519531e+00 -1.220034599304199219e+00 3.492165356874465942e-02
-1.268221616744995117e+00 -1.166725873947143555e+00 1.135527491569519043e-01
-1.239941239356994629e+00 -1.226729750633239746e+00 9.843346476554870605e-02
-1.259580492973327637e+00 -1.158370375633239746e+00 5.078861489892005920e-02
-1.217203974723815918e+00 -1.203394174575805664e+00 3.465847671031951904e-02
-1.239590406417846680e+00 -1.211422443389892578e+00 9.781367331743240356e-02
-1.270363807678222656e+00 -1.153980374336242676e+00 5.093694478273391724e-02
-1.220273256301879883e+00 -1.191711664199829102e+00 3.453700989484786987e-02
-1.251310229301452637e+00 -1.207954168319702148e+00 9.815174341201782227e-02
-1.235477566719055176e+00 -1.191837310791015625e+00 3.475970029830932617e-02
-1.245692491531372070e+00 -1.187851428985595703e+00 9.713754057884216309e-02
-1.224672198295593262e+00 -1.166991353034973145e+00 3.425358608365058899e-02
-1.257318139076232910e+00 -1.184293031692504883e+00 9.747561067342758179e-02
-1.231081724166870117e+00 -1.158769726753234863e+00 3.423334285616874695e-02
-1.218120932579040527e+00 -1.232529878616333008e+00 1.845005154609680176e-02
-1.238246560096740723e+00 -1.152072787284851074e+00 9.544721990823745728e-02
-1.222326278686523438e+00 -1.222979903221130371e+00 8.123948425054550171e-02
-1.250616192817687988e+00 -1.162767291069030762e+00 3.457750007510185242e-02
-1.218588232994079590e+00 -1.217963576316833496e+00 1.834358833730220795e-02
-1.216557145118713379e+00 -1.203200936317443848e+00 1.427789777517318726e-01
-1.252643465995788574e+00 -1.151209235191345215e+00 9.601066261529922485e-02
-1.237622499465942383e+00 -1.223180651664733887e+00 8.175574243068695068e-02
-1.259936451911926270e+00 -1.157100558280944824e+00 3.463823348283767700e-02
-1.230308055877685547e+00 -1.214678764343261719e+00 1.840746589004993439e-02
-1.239598989486694336e+00 -1.211034297943115234e+00 1.446084082126617432e-01
-1.242960214614868164e+00 -1.213470339775085449e+00 8.161494135856628418e-02
-1.249980807304382324e+00 -1.133897900581359863e+00 3.417260944843292236e-02
-1.233442783355712891e+00 -1.202917933464050293e+00 1.834358833730220795e-02
-1.246289253234863281e+00 -1.202713370323181152e+00 1.445252448320388794e-01
-1.252539634704589844e+00 -1.207901000976562500e+00 8.175574243068695068e-02
-1.232158899307250977e+00 -1.187002062797546387e+00 1.821583323180675507e-02
-1.252202987670898438e+00 -1.193668484687805176e+00 1.443589478731155396e-01
-1.257757782936096191e+00 -1.198125958442687988e+00 8.161494135856628418e-02
-1.232899427413940430e+00 -1.173215508460998535e+00 1.812001504004001617e-02
-1.225436091423034668e+00 -1.253519535064697266e+00 2.141693141311407089e-03
-1.260229110717773438e+00 -1.186645865440368652e+00 1.444420963525772095e-01
-1.259993314743041992e+00 -1.185594320297241211e+00 8.128642290830612183e-02
-1.205803275108337402e+00 -1.219241619110107422e+00 6.437706947326660156e-02
-1.246632456779479980e+00 -1.171792268753051758e+00 1.821583323180675507e-02
-1.213408470153808594e+00 -1.226075291633605957e+00 2.107484498992562294e-03
-1.246025919914245605e+00 -1.158119440078735352e+00 7.992538809776306152e-02
-1.216796875000000000e+00 -1.215350985527038574e+00 6.456464529037475586e-02
-1.250867843627929688e+00 -1.161399483680725098e+00 1.817324757575988770e-02
-1.220201015472412109e+00 -1.217900395393371582e+00 2.106262836605310440e-03
-1.241701960563659668e+00 -1.226382851600646973e+00 1.290806680917739868e-01
-1.200865030288696289e+00 -1.102488517761230469e+00 7.659320533275604248e-02
-1.234190106391906738e+00 -1.217687726020812988e+00 6.508987396955490112e-02
-1.243968486785888672e+00 -1.140861034393310547e+00 1.797096803784370422e-02
-1.231211304664611816e+00 -1.213900923728942871e+00 2.112371614202857018e-03
-1.252058863639831543e+00 -1.221526384353637695e+00 1.293757110834121704e-01
-1.245932340621948242e+00 -1.214276671409606934e+00 6.531496345996856689e-02
-1.239087939262390137e+00 -1.122465372085571289e+00 1.780062727630138397e-02
-1.232905387878417969e+00 -1.200741887092590332e+00 2.102597616612911224e-03
-1.258094191551208496e+00 -1.212436914443969727e+00 1.292281895875930786e-01
-1.244720697402954102e+00 -1.198292255401611328e+00 6.486477702856063843e-02
-1.238087892532348633e+00 -1.191074371337890625e+00 2.098932396620512009e-03
-1.263342976570129395e+00 -1.202631711959838867e+00 1.290069073438644409e-01
-1.254222273826599121e+00 -1.192698121070861816e+00 6.497732549905776978e-02
-1.244647979736328125e+00 -1.182766437530517578e+00 2.097710967063903809e-03
-1.265612721443176270e+00 -1.190075159072875977e+00 1.284905821084976196e-01
-1.270257234573364258e+00 -1.193189978599548340e+00 6.542751193046569824e-02
-1.253340125083923340e+00 -1.176475882530212402e+00 2.100154291838407516e-03
-1.255578279495239258e+00 -1.164982676506042480e+00 6.430204212665557861e-02
-1.253202199935913086e+00 -1.161964297294616699e+00 2.087936969473958015e-03
-1.262702822685241699e+00 -1.157256722450256348e+00 6.430204212665557861e-02
-1.253671169281005859e+00 -1.148174405097961426e+00 2.076941309496760368e-03
-1.225096702575683594e+00 -1.108259201049804688e+00 2.018298255279660225e-03
-1.166997623443603516e+01 -6.979755878448486328e+00 1.661308668553829193e-02
-1.172292041778564453e+01 -6.914114952087402344e+00 1.662774756550788879e-02
-1.159914970397949219e+01 -6.745531558990478516e+00 1.639317534863948822e-02
-1.164639377593994141e+01 -6.677715301513671875e+00 1.640172861516475677e-02
-1.182469463348388672e+01 -6.683876991271972656e+00 1.659476198256015778e-02
-1.187858772277832031e+01 -6.618496894836425781e+00 1.661308668553829193e-02
-1.192861557006835938e+01 -6.550781726837158203e+00 1.662652567028999329e-02
-1.200200557708740234e+01 -6.495552539825439453e+00 1.667295210063457489e-02
-1.087073707580566406e+01 -5.797348976135253906e+00 1.505171693861484528e-02
-1.195156764984130859e+01 -6.279870033264160156e+00 1.649457961320877075e-02
-1.218081092834472656e+01 -6.305253982543945312e+00 1.675725169479846954e-02
-1.181570339202880859e+01 -6.024622917175292969e+00 1.620380766689777374e-02
-1.183546733856201172e+01 -5.943483352661132812e+00 1.618059538304805756e-02
-1.185109710693359375e+01 -5.860555171966552734e+00 1.615249551832675934e-02
-1.091491985321044922e+01 -5.314500808715820312e+00 1.483180467039346695e-02
-1.209435749053955078e+01 -5.797241210937500000e+00 1.638584583997726440e-02
-1.175257015228271484e+01 -5.544987678527832031e+00 1.587638445198535919e-02
-1.158864784240722656e+01 -5.380961418151855469e+00 1.561004668474197388e-02
-1.137768459320068359e+01 -5.198380470275878906e+00 1.528262346982955933e-02
-1.136923408508300781e+01 -5.110431194305419922e+00 1.522886659950017929e-02
-1.165554904937744141e+01 -5.153396129608154297e+00 1.556972973048686981e-02
-1.152554893493652344e+01 -5.011600494384765625e+00 1.535470597445964813e-02
-1.153953075408935547e+01 -4.933710575103759766e+00 1.533271372318267822e-02
-1.155944633483886719e+01 -4.858550071716308594e+00 1.531927566975355148e-02
-1.204469013214111328e+01 -4.975764274597167969e+00 1.592158898711204529e-02
-1.208055400848388672e+01 -4.904022693634033203e+00 1.592891849577426910e-02
-1.190049457550048828e+01 -4.746085643768310547e+00 1.565280742943286896e-02
-1.190425300598144531e+01 -4.663128376007080078e+00 1.561982091516256332e-02
-1.225557327270507812e+01 -4.714216709136962891e+00 1.604253984987735748e-02
-1.220007228851318359e+01 -4.607133865356445312e+00 1.593258418142795563e-02
-1.220185661315917969e+01 -4.522457599639892578e+00 1.589837484061717987e-02
-1.216453075408935547e+01 -4.423921108245849609e+00 1.581407524645328522e-02
-1.237605190277099609e+01 -4.415053844451904297e+00 1.605353504419326782e-02
-1.246709442138671875e+01 -4.361487388610839844e+00 1.613661274313926697e-02
-1.242456912994384766e+01 -4.261226177215576172e+00 1.604742556810379028e-02
-1.253105258941650391e+01 -4.211991786956787109e+00 1.615127362310886383e-02
-1.252151775360107422e+01 -4.123450279235839844e+00 1.610606908798217773e-02
-1.242285823822021484e+01 -4.006638526916503906e+00 1.594724506139755249e-02
-1.248821353912353516e+01 -3.943285465240478516e+00 1.599977910518646240e-02
-1.262491321563720703e+01 -3.901424407958984375e+00 1.614394411444664001e-02
-1.243419837951660156e+01 -3.759064435958862305e+00 1.587027497589588165e-02
-1.240524578094482422e+01 -3.667389869689941406e+00 1.580430194735527039e-02
-1.243519973754882812e+01 -3.593424320220947266e+00 1.581407524645328522e-02
-1.263601779937744141e+01 -3.567594766616821289e+00 1.604131795465946198e-02
-1.267020225524902344e+01 -3.493449687957763672e+00 1.605720072984695435e-02
-1.255524349212646484e+01 -3.378997564315795898e+00 1.588493585586547852e-02
-1.256993675231933594e+01 -3.300372600555419922e+00 1.587760634720325470e-02
-1.264129543304443359e+01 -3.236327648162841797e+00 1.594235748052597046e-02
-1.267741012573242188e+01 -3.162816286087036133e+00 1.596312783658504486e-02
-1.274224853515625000e+01 -3.096066713333129883e+00 1.602054946124553680e-02
-1.237466239929199219e+01 -2.926457881927490234e+00 1.553552132099866867e-02
-1.276661300659179688e+01 -2.936552286148071289e+00 1.600466482341289520e-02
-1.293956089019775391e+01 -2.892853260040283203e+00 1.619892194867134094e-02
-1.284273147583007812e+01 -2.788577079772949219e+00 1.605597883462905884e-02
-1.286742877960205078e+01 -2.711372613906860352e+00 1.606575213372707367e-02
-1.235279369354248047e+01 -2.523870944976806641e+00 1.540357526391744614e-02
-1.286441707611083984e+01 -2.546275377273559570e+00 1.602176949381828308e-02
-1.281301307678222656e+01 -2.454499244689941406e+00 1.593869179487228394e-02
-1.279833412170410156e+01 -2.370370388031005859e+00 1.590204052627086639e-02
-1.309810733795166016e+01 -2.342858552932739258e+00 1.625634171068668365e-02
-1.279985141754150391e+01 -2.208545923233032227e+00 1.586905308067798615e-02
-1.282795906066894531e+01 -2.132425546646118164e+00 1.588737964630126953e-02
-1.285758876800537109e+01 -2.056359291076660156e+00 1.590815000236034393e-02
-1.301525878906250000e+01 -1.999751925468444824e+00 1.608774252235889435e-02
-1.302431678771972656e+01 -1.919416904449462891e+00 1.608407869935035706e-02
-1.287246799468994141e+01 -1.816410660743713379e+00 1.588249392807483673e-02
-1.289129829406738281e+01 -1.738461494445800781e+00 1.589226722717285156e-02
-1.278171157836914062e+01 -1.643894314765930176e+00 1.574443839490413666e-02
-1.280247592926025391e+01 -1.566772460937500000e+00 1.575787737965583801e-02
-1.285158157348632812e+01 -1.492803692817687988e+00 1.580674573779106140e-02
-1.303246307373046875e+01 -1.432826042175292969e+00 1.601810567080974579e-02
-1.273266410827636719e+01 -1.320846557617187500e+00 1.563936844468116760e-02
-1.287787723541259766e+01 -1.256092309951782227e+00 1.580796763300895691e-02
-1.279372406005859375e+01 -1.168682336807250977e+00 1.569556817412376404e-02
-1.287139701843261719e+01 -1.096184372901916504e+00 1.578231155872344971e-02
-1.279812908172607422e+01 -1.010886907577514648e+00 1.568457297980785370e-02
-1.303348445892333984e+01 -9.490435123443603516e-01 1.596557162702083588e-02
-1.299017047882080078e+01 -8.657950758934020996e-01 1.590570621192455292e-02
-1.273171997070312500e+01 -7.701325416564941406e-01 1.558316964656114578e-02
-1.271723461151123047e+01 -6.909669041633605957e-01 1.555995643138885498e-02
-1.277816772460937500e+01 -6.156654953956604004e-01 1.562959514558315277e-02
-1.274573707580566406e+01 -5.357367396354675293e-01 1.558561250567436218e-02
-1.240800380706787109e+01 -4.452905356884002686e-01 1.516900211572647095e-02
-1.282132053375244141e+01 -3.813678026199340820e-01 1.567113399505615234e-02
-1.281142234802246094e+01 -3.024072945117950439e-01 1.565647311508655548e-02
-1.272305011749267578e+01 -2.222204953432083130e-01 1.554651651531457901e-02
-5.059836387634277344e+00 4.926387071609497070e-01 1.508825272321701050e-01
-1.257218456268310547e+01 -1.424272954463958740e-01 1.536081451922655106e-02
-5.055723667144775391e+00 5.235729813575744629e-01 1.508528590202331543e-01
-1.278081798553466797e+01 -6.636313349008560181e-02 1.561493333429098129e-02
-1.277898502349853516e+01 1.205785293132066727e-02 1.561249047517776489e-02
-1.264667415618896484e+01 8.953352272510528564e-02 1.545122172683477402e-02
-1.299885559082031250e+01 1.717952787876129150e-01 1.588249392807483673e-02
-1.300455570220947266e+01 2.516869902610778809e-01 1.589104533195495605e-02
-1.333513832092285156e+01 1.784099340438842773e+00 3.964818000793457031e+00
-5.061681747436523438e+00 4.963301122188568115e-01 1.029834523797035217e-01
-1.289380168914794922e+01 3.286988735198974609e-01 1.575787737965583801e-02
-1.335053825378417969e+01 1.869613409042358398e+00 3.972733020782470703e+00
-1.365728664398193359e+01 1.910140156745910645e+00 3.502269268035888672e+00
-1.385843753814697266e+01 1.935807704925537109e+00 3.004945516586303711e+00
-1.408852863311767578e+01 1.970454692840576172e+00 2.513487577438354492e+00
-1.434026241302490234e+01 2.008214712142944336e+00 2.017021417617797852e+00
-5.037658691406250000e+00 5.252015590667724609e-01 1.025583222508430481e-01
-1.291652965545654297e+01 4.085980057716369629e-01 1.578841917216777802e-02
-1.410150718688964844e+01 2.060565233230590820e+00 2.518011331558227539e+00
-1.431982994079589844e+01 2.095020055770874023e+00 2.015917778015136719e+00
-1.458579826354980469e+01 2.139132261276245117e+00 1.510418534278869629e+00
-1.489030647277832031e+01 2.189100980758666992e+00 9.917290806770324707e-01
-1.302070331573486328e+01 4.918839335441589355e-01 1.591914519667625427e-02
-1.301044654846191406e+01 5.714610219001770020e-01 1.591059379279613495e-02
-1.266412448883056641e+01 6.341274380683898926e-01 1.549153868108987808e-02
-1.355387306213378906e+01 1.716608643531799316e+00 3.871148824691772461e+00
-5.079997062683105469e+00 4.701952040195465088e-01 5.431746318936347961e-02
-1.297549629211425781e+01 7.295604944229125977e-01 1.587760634720325470e-02
-1.331418800354003906e+01 1.769323229789733887e+00 3.805721044540405273e+00
-5.056119441986083984e+00 4.992930293083190918e-01 5.409388989210128784e-02
-1.289692020416259766e+01 8.045554757118225098e-01 1.578719913959503174e-02
-1.306770420074462891e+01 1.818233847618103027e+00 3.738384723663330078e+00
-1.372029495239257812e+01 1.913917303085327148e+00 3.369348526000976562e+00
-1.396125698089599609e+01 1.952498912811279297e+00 2.883469343185424805e+00
-1.415449714660644531e+01 1.984561562538146973e+00 2.381562232971191406e+00
-1.441764926910400391e+01 2.026589155197143555e+00 1.885766148567199707e+00
-1.467710399627685547e+01 2.068283796310424805e+00 1.377615571022033691e+00
-5.067877769470214844e+00 5.318729281425476074e-01 5.425358563661575317e-02
-1.273311233520507812e+01 8.728010654449462891e-01 1.559294294565916061e-02
-1.304106807708740234e+01 1.896166682243347168e+00 3.734022855758666992e+00
-1.413229370117187500e+01 2.069945096969604492e+00 2.379918575286865234e+00
-1.442260360717773438e+01 2.117609262466430664e+00 1.888078212738037109e+00
-1.466807746887207031e+01 2.158881664276123047e+00 1.377985715866088867e+00
-1.497480869293212891e+01 2.209367990493774414e+00 8.542356491088867188e-01
-1.276541233062744141e+01 9.537447690963745117e-01 1.563936844468116760e-02
-1.297877216339111328e+01 1.968502879142761230e+00 3.719574451446533203e+00
-1.287095546722412109e+01 1.041083693504333496e+00 1.577620208263397217e-02
-1.293698883056640625e+01 2.043448686599731445e+00 3.711123228073120117e+00
-1.302670955657958984e+01 1.134176969528198242e+00 1.597534492611885071e-02
-1.282072162628173828e+01 2.105792760848999023e+00 3.681408166885375977e+00
-5.055065155029296875e+00 4.713914394378662109e-01 6.202724296599626541e-03
-5.047101974487304688e+00 5.019050836563110352e-01 6.196615286171436310e-03
-1.353871536254882812e+01 1.878802418708801270e+00 3.729012012481689453e+00
-1.380317306518554688e+01 1.922869086265563965e+00 3.248245239257812500e+00
-1.398431396484375000e+01 1.958056449890136719e+00 2.749907493591308594e+00
-1.422797012329101562e+01 1.994704723358154297e+00 2.254968404769897461e+00
-1.451584625244140625e+01 2.047981739044189453e+00 1.761028170585632324e+00
-1.475534248352050781e+01 2.087024688720703125e+00 1.243515849113464355e+00
-5.030004978179931641e+00 5.313932299613952637e-01 6.179511547088623047e-03
-1.317462921142578125e+01 1.910743832588195801e+00 3.631891489028930664e+00
-1.419395923614501953e+01 2.078818798065185547e+00 2.251557350158691406e+00
-1.446961021423339844e+01 2.132089853286743164e+00 1.756973147392272949e+00
-1.475408935546875000e+01 2.179269790649414062e+00 1.244513750076293945e+00
-4.986897468566894531e+00 5.578003525733947754e-01 6.130642257630825043e-03
-1.292895507812500000e+01 1.956186175346374512e+00 3.567407608032226562e+00
-1.499635219573974609e+01 2.322563171386718750e+00 1.615683734416961670e-01
-1.273552799224853516e+01 1.503686547279357910e+00 1.566746830940246582e-02
-1.476759624481201172e+01 2.380010128021240234e+00 1.592581123113632202e-01
-1.244026088714599609e+01 1.546277999877929688e+00 1.531560998409986496e-02
-1.475271415710449219e+01 2.470577478408813477e+00 1.592581123113632202e-01
-1.279742622375488281e+01 1.670471429824829102e+00 1.576765067875385284e-02
-1.456979751586914062e+01 2.531947135925292969e+00 1.574482470750808716e-01
-1.270569229125976562e+01 1.737851262092590332e+00 1.566746830940246582e-02
-1.358318901062011719e+01 1.882406949996948242e+00 3.605214834213256836e+00
-1.383922004699707031e+01 1.930199027061462402e+00 3.123375177383422852e+00
-1.406906986236572266e+01 1.974774837493896484e+00 2.627979993820190430e+00
-1.430898571014404297e+01 2.018637418746948242e+00 2.131312847137451172e+00
-1.456109046936035156e+01 2.061979532241821289e+00 1.626195669174194336e+00
-1.481816959381103516e+01 2.106299161911010742e+00 1.106995820999145508e+00
-1.477344417572021484e+01 2.660824060440063477e+00 1.598223745822906494e-01
-1.276903343200683594e+01 1.826398611068725586e+00 1.575909741222858429e-02
-1.401679801940917969e+01 2.055214881896972656e+00 2.620522260665893555e+00
-1.423564910888671875e+01 2.097457170486450195e+00 2.122266530990600586e+00
-1.450588417053222656e+01 2.145033836364746094e+00 1.621469616889953613e+00
-1.480397987365722656e+01 2.197035789489746094e+00 1.106922030448913574e+00
-1.483646202087402344e+01 2.766267776489257812e+00 1.606847196817398071e-01
-1.277440071105957031e+01 1.907223820686340332e+00 1.577986776828765869e-02
-1.481331825256347656e+01 2.856114864349365234e+00 1.606208533048629761e-01
-1.287707901000976562e+01 2.003402709960937500e+00 1.592158898711204529e-02
-1.298892498016357422e+01 2.102510929107666016e+00 1.607552729547023773e-02
-1.225687599182128906e+01 2.061269998550415039e+00 1.518488582223653793e-02
-1.237403202056884766e+01 2.159127473831176758e+00 1.534615363925695419e-02
-1.280927371978759766e+01 2.316149711608886719e+00 1.590326242148876190e-02
-1.304448604583740234e+01 2.441430091857910156e+00 1.621358282864093781e-02
-1.300275135040283203e+01 2.516293764114379883e+00 1.618059538304805756e-02
-1.483169841766357422e+01 3.526314496994018555e+00 1.623136103153228760e-01
-1.280957889556884766e+01 2.560550928115844727e+00 1.595946215093135834e-02
-1.482823848724365234e+01 3.621761560440063477e+00 1.625158786773681641e-01
-1.283867740631103516e+01 2.648394107818603516e+00 1.601566188037395477e-02
-1.239474773406982422e+01 2.636209964752197266e+00 1.548176538199186325e-02
-1.238322257995605469e+01 2.713283300399780273e+00 1.548787485808134079e-02
-1.497080421447753906e+01 3.949954271316528320e+00 1.648474335670471191e-01
-1.323550605773925781e+01 2.985253572463989258e+00 1.657643541693687439e-02
-1.495014667510986328e+01 4.042783260345458984e+00 1.648900210857391357e-01
-1.276397132873535156e+01 2.961317539215087891e+00 1.600833050906658173e-02
-1.276112461090087891e+01 3.043291568756103516e+00 1.602787896990776062e-02
-1.275483798980712891e+01 3.124628305435180664e+00 1.604376174509525299e-02
-1.223888683319091797e+01 3.077957391738891602e+00 1.541823614388704300e-02
-1.282398128509521484e+01 3.308896541595458984e+00 1.618059538304805756e-02
-1.268936157226562500e+01 3.357339143753051758e+00 1.603643037378787994e-02
-1.312986373901367188e+01 3.560231208801269531e+00 1.662041805684566498e-02
-1.241403484344482422e+01 3.448039770126342773e+00 1.574077270925045013e-02
-1.270717239379882812e+01 3.613589763641357422e+00 1.614027842879295349e-02
-1.490358638763427734e+01 4.927717685699462891e+00 1.671257466077804565e-01
-1.269052219390869141e+01 3.693168163299560547e+00 1.614760793745517731e-02
-1.320338726043701172e+01 3.930455684661865234e+00 1.683055609464645386e-02
-7.771527767181396484e+00 2.993963003158569336e+00 1.686361581087112427e-01
-1.276191616058349609e+01 3.884438514709472656e+00 1.629788242280483246e-02
-7.744634628295898438e+00 3.038305521011352539e+00 1.684539616107940674e-01
-1.450656604766845703e+01 5.094521045684814453e+00 1.636976301670074463e-01
-1.309304904937744141e+01 4.073173999786376953e+00 1.675236597657203674e-02
-1.454187297821044922e+01 5.207370758056640625e+00 1.644535213708877563e-01
-1.273901844024658203e+01 4.048932552337646484e+00 1.633086800575256348e-02
-1.444483375549316406e+01 5.272840976715087891e+00 1.637189239263534546e-01
-1.271964168548583984e+01 4.128874301910400391e+00 1.633819937705993652e-02
-1.463057613372802734e+01 5.442606925964355469e+00 1.661995202302932739e-01
-1.298643112182617188e+01 4.303732395172119141e+00 1.671449095010757446e-02
-1.463337135314941406e+01 5.546096801757812500e+00 1.666147112846374512e-01
-1.278926849365234375e+01 4.325663089752197266e+00 1.649457961320877075e-02
-1.438108158111572266e+01 6.157334327697753906e+00 3.167647123336791992e-01
-7.751030921936035156e+00 2.992185354232788086e+00 8.846016973257064819e-02
-1.282676601409912109e+01 4.426237106323242188e+00 1.657765731215476990e-02
-1.318895149230957031e+01 5.742932319641113281e+00 2.912769615650177002e-01
-7.731595516204833984e+00 3.039322853088378906e+00 8.844953030347824097e-02
-1.276446437835693359e+01 4.492573738098144531e+00 1.653245277702808380e-02
-1.306935882568359375e+01 5.786511898040771484e+00 2.894144654273986816e-01
-1.450652599334716797e+01 5.805592536926269531e+00 1.663592010736465454e-01
-1.242323017120361328e+01 4.458330154418945312e+00 1.612561754882335663e-02
-1.303452014923095703e+01 5.867005825042724609e+00 2.894347310066223145e-01
-1.417614364624023438e+01 5.774536609649658203e+00 1.629736721515655518e-01
-1.225477027893066406e+01 4.482941627502441406e+00 1.594235748052597046e-02
-1.300736713409423828e+01 5.951033115386962891e+00 2.896371781826019287e-01
-1.412936019897460938e+01 5.856816291809082031e+00 1.628459244966506958e-01
-1.301974201202392578e+01 4.853561401367187500e+00 1.697594113647937775e-02
-1.298057937622070312e+01 6.035369396209716797e+00 2.898598611354827881e-01
-1.363247585296630859e+01 5.749122619628906250e+00 1.575227677822113037e-01
-1.297288990020751953e+01 4.926966667175292969e+00 1.695395074784755707e-02
-1.293968677520751953e+01 6.113194942474365234e+00 2.897788882255554199e-01
-1.337088012695312500e+01 5.735687732696533203e+00 1.549037843942642212e-01
-7.765261650085449219e+00 3.003812313079833984e+00 1.017212588340044022e-02
-1.290824317932128906e+01 6.195504665374755859e+00 2.899205982685089111e-01
-1.333451747894287109e+01 5.817221641540527344e+00 1.548931300640106201e-01
-7.745754241943359375e+00 3.051036119461059570e+00 1.017090491950511932e-02
-1.288256645202636719e+01 6.280725479125976562e+00 2.902040183544158936e-01
-1.311119174957275391e+01 5.815813541412353516e+00 1.527106463909149170e-01
-1.245026683807373047e+01 4.992595195770263672e+00 1.638828963041305542e-02
-1.281601142883300781e+01 6.345900058746337891e+00 2.895764410495758057e-01
-1.307343673706054688e+01 5.895330905914306641e+00 1.526893526315689087e-01
-1.229348182678222656e+01 5.017502784729003906e+00 1.622213423252105713e-02
-1.279469585418701172e+01 6.433400630950927734e+00 2.899813055992126465e-01
-1.302519989013671875e+01 5.970020294189453125e+00 1.525509357452392578e-01
-1.253028392791748047e+01 5.204070568084716797e+00 1.657643541693687439e-02
-1.276299571990966797e+01 6.515878200531005859e+00 2.901635169982910156e-01
-1.298197841644287109e+01 6.046873569488525391e+00 1.524764150381088257e-01
-1.246403408050537109e+01 5.266456127166748047e+00 1.653123274445533752e-02
-1.276360607147216797e+01 6.615230560302734375e+00 2.910947501659393311e-01
-1.297355461120605469e+01 6.140104293823242188e+00 1.528171002864837646e-01
-1.238738536834716797e+01 5.323881626129150391e+00 1.647258922457695007e-02
-1.272720050811767578e+01 6.695749282836914062e+00 2.911959886550903320e-01
-1.292211723327636719e+01 6.213093280792236328e+00 1.526574045419692993e-01
-1.245161342620849609e+01 5.442240715026855469e+00 1.660209149122238159e-02
-1.268499374389648438e+01 6.773244857788085938e+00 2.911757230758666992e-01
-1.289183712005615234e+01 6.296214103698730469e+00 1.527532190084457397e-01
-1.244540023803710938e+01 5.530723094940185547e+00 1.663874462246894836e-02
-1.263352584838867188e+01 6.845711708068847656e+00 2.909530401229858398e-01
-1.288700199127197266e+01 6.392083168029785156e+00 1.531577855348587036e-01
-1.272563552856445312e+01 5.749020099639892578e+00 1.706024073064327240e-02
-1.261231040954589844e+01 6.934661865234375000e+00 2.914389073848724365e-01
-1.285557651519775391e+01 6.475084304809570312e+00 1.532536000013351440e-01
-1.259651660919189453e+01 5.784014701843261719e+00 1.693440228700637817e-02
-1.283964157104492188e+01 6.566135406494140625e+00 1.535410583019256592e-01
-1.271212482452392578e+01 5.931813240051269531e+00 1.713843271136283875e-02
-1.280088615417480469e+01 6.645715713500976562e+00 1.535623371601104736e-01
-1.237911224365234375e+01 5.869184017181396484e+00 1.673770509660243988e-02
-1.275898265838623047e+01 6.723669052124023438e+00 1.535516977310180664e-01
-1.245188045501708984e+01 5.997537612915039062e+00 1.688553392887115479e-02
-1.271925067901611328e+01 6.802773952484130859e+00 1.535729914903640747e-01
-1.252263736724853516e+01 6.126563549041748047e+00 1.703214086592197418e-02
-1.268517971038818359e+01 6.884982585906982422e+00 1.536688059568405151e-01
-1.253585529327392578e+01 6.228648662567138672e+00 1.710177958011627197e-02
-1.265320587158203125e+01 6.968476295471191406e+00 1.537965685129165649e-01
-1.252329158782958984e+01 6.318512916564941406e+00 1.713720895349979401e-02
-1.244957637786865234e+01 6.377454757690429688e+00 1.708956249058246613e-02
-1.248207378387451172e+01 6.491095066070556641e+00 1.718852296471595764e-02
-1.247207832336425781e+01 6.583433151245117188e+00 1.723006181418895721e-02
-1.230892372131347656e+01 6.594196796417236328e+00 1.706024073064327240e-02
-1.246502780914306641e+01 6.776587486267089844e+00 1.733390800654888153e-02
-1.237592983245849609e+01 6.826861381530761719e+00 1.726793497800827026e-02
-1.231112003326416016e+01 6.889972209930419922e+00 1.723616942763328552e-02
-1.228339576721191406e+01 6.973775386810302734e+00 1.725693978369235992e-02
-9.159880638122558594e+00 6.287838459014892578e+00 1.182911247014999390e-01
-9.143709182739257812e+00 6.285986423492431641e+00 1.355631835758686066e-02
-2.712718486785888672e+00 3.749669075012207031e+00 9.371150285005569458e-02
-2.732333421707153320e+00 3.733772754669189453e+00 4.926046729087829590e-02
-2.705858469009399414e+00 3.745604515075683594e+00 4.919658973813056946e-02
-2.657860279083251953e+00 3.727128505706787109e+00 4.873879626393318176e-02
-2.689979076385498047e+00 3.729019403457641602e+00 5.617515183985233307e-03
-2.669948101043701172e+00 3.749527454376220703e+00 5.623624194413423538e-03
-4.231482982635498047e+00 6.686032772064208984e+00 8.424423635005950928e-02
-4.250093936920166016e+00 6.725663661956787109e+00 9.720085188746452332e-03
-3.839303925633430481e-02 6.848333477973937988e-01 3.870852291584014893e-02
-6.149614229798316956e-02 6.681378483772277832e-01 7.143672090023756027e-03
-3.026517294347286224e-02 6.972003579139709473e-01 1.413061656057834625e-02
-8.348540868610143661e-04 7.466707825660705566e-01 2.216068468987941742e-02
-2.661957591772079468e-02 7.143576741218566895e-01 1.447477284818887711e-02
-9.629677049815654755e-03 7.377632260322570801e-01 4.163842275738716125e-02
-3.289112448692321777e-02 7.224059700965881348e-01 1.616441607475280762e-01
