-4.917670249938964844e+00 -3.983494281768798828e+00 6.738048046827316284e-02
-3.798431396484375000e+00 -3.311102867126464844e+00 6.156298331916332245e-03
-7.369076728820800781e+00 -5.069776058197021484e+00 5.893959999084472656e-01
-6.035049915313720703e+00 -4.483198165893554688e+00 4.242724478244781494e-01
-6.106946945190429688e+00 -4.199886322021484375e+00 2.199752181768417358e-01
-5.980757713317871094e+00 -4.439627647399902344e+00 1.508210599422454834e-01
-4.937334537506103516e+00 -3.949497461318969727e+00 6.731660664081573486e-02
-3.837622165679931641e+00 -3.304045200347900391e+00 6.186841521412134171e-03
-8.942959785461425781e+00 -6.072068691253662109e+00 7.122853994369506836e-01
-6.046342849731445312e+00 -4.434274673461914062e+00 4.231455624103546143e-01
-6.139218330383300781e+00 -4.166826248168945312e+00 2.202125340700149536e-01
-6.001434803009033203e+00 -4.398119449615478516e+00 1.506590992212295532e-01
-4.919103145599365234e+00 -3.885657787322998047e+00 6.674170494079589844e-02
-3.949240684509277344e+00 -3.358171224594116211e+00 6.333449389785528183e-03
-9.153300285339355469e+00 -6.133168697357177734e+00 7.260274887084960938e-01
-6.257823944091796875e+00 -4.530585289001464844e+00 4.359920620918273926e-01
-5.902489185333251953e+00 -4.608886718750000000e+00 3.518500328063964844e-01
-6.160517215728759766e+00 -4.126296997070312500e+00 2.200642079114913940e-01
-5.993476390838623047e+00 -4.336012840270996094e+00 1.497885882854461670e-01
-4.912890911102294922e+00 -3.832031726837158203e+00 6.633714586496353149e-02
-3.976663827896118164e+00 -3.339664220809936523e+00 6.344445049762725830e-03
-9.205741882324218750e+00 -6.086795806884765625e+00 7.272109985351562500e-01
-6.103551864624023438e+00 -4.362064838409423828e+00 4.233709275722503662e-01
-5.885566711425781250e+00 -4.537817478179931641e+00 3.491749167442321777e-01
-6.176547527313232422e+00 -4.082356452941894531e+00 2.197378873825073242e-01
-6.015901088714599609e+00 -4.296251296997070312e+00 1.496873795986175537e-01
-4.831738471984863281e+00 -3.721275568008422852e+00 6.493183225393295288e-02
-3.943970918655395508e+00 -3.271151304244995117e+00 6.260145455598831177e-03
-9.285537719726562500e+00 -6.058001995086669922e+00 7.305642962455749512e-01
-6.121227741241455078e+00 -4.318201541900634766e+00 4.227511584758758545e-01
-5.907736301422119141e+00 -4.497383594512939453e+00 3.488464057445526123e-01
-6.187246799468994141e+00 -4.035098552703857422e+00 2.192335575819015503e-01
-6.014364719390869141e+00 -4.239671707153320312e+00 1.489990502595901489e-01
-5.067794322967529297e+00 -3.853771448135375977e+00 6.778503954410552979e-02
-3.963968038558959961e+00 -3.246890068054199219e+00 6.260145455598831177e-03
-6.114834785461425781e+00 -4.257740497589111328e+00 4.204973876476287842e-01
-5.939212322235107422e+00 -4.464050292968750000e+00 3.490810394287109375e-01
-6.188353061676025391e+00 -3.981914043426513672e+00 2.184029072523117065e-01
-6.003334999084472656e+00 -4.176992893218994141e+00 1.480880677700042725e-01
-4.947409152984619141e+00 -3.714535713195800781e+00 6.586870551109313965e-02
-3.588855504989624023e+00 -2.903023004531860352e+00 5.639506503939628601e-03
-6.130970478057861328e+00 -4.213354587554931641e+00 4.198212325572967529e-01
-5.948843955993652344e+00 -4.414428234100341797e+00 3.480485379695892334e-01
-6.202542304992675781e+00 -3.937439441680908203e+00 2.180469036102294922e-01
-6.034620761871337891e+00 -4.144040107727050781e+00 1.482297778129577637e-01
-5.011077404022216797e+00 -3.714477539062500000e+00 6.641166657209396362e-02
-3.933976173400878906e+00 -3.142454862594604492e+00 6.151411682367324829e-03
-7.497944355010986328e+00 -4.697299480438232422e+00 5.830180644989013672e-01
-6.114566802978515625e+00 -4.147075176239013672e+00 4.169476926326751709e-01
-5.972595214843750000e+00 -4.375482559204101562e+00 3.478608131408691406e-01
-6.226585388183593750e+00 -3.899307250976562500e+00 2.180469036102294922e-01
-6.064072608947753906e+00 -4.109738826751708984e+00 1.483309864997863770e-01
-5.157238483428955078e+00 -3.774009466171264648e+00 6.804054975509643555e-02
-3.888016939163208008e+00 -3.066853761672973633e+00 6.050007883459329605e-03
-7.384020805358886719e+00 -4.563079357147216797e+00 5.719718337059020996e-01
-6.160640239715576172e+00 -4.123362064361572266e+00 4.183562994003295898e-01
-5.987189292907714844e+00 -4.329972267150878906e+00 3.471568524837493896e-01
-5.934821128845214844e+00 -4.625905513763427734e+00 2.824937701225280762e-01
-6.252944946289062500e+00 -3.862604141235351562e+00 2.181358933448791504e-01
-6.065905570983886719e+00 -4.056890487670898438e+00 1.477641463279724121e-01
-5.173003196716308594e+00 -3.737024307250976562e+00 6.794473528861999512e-02
-3.816824197769165039e+00 -2.972888231277465820e+00 5.910730920732021332e-03
-6.209985256195068359e+00 -4.101440429687500000e+00 4.199903011322021484e-01
-6.010392665863037109e+00 -4.290832519531250000e+00 3.469690978527069092e-01
-5.926665306091308594e+00 -4.561366558074951172e+00 2.807680666446685791e-01
-6.270552158355712891e+00 -3.820523500442504883e+00 2.179282307624816895e-01
-6.061478137969970703e+00 -4.000319480895996094e+00 1.470555961132049561e-01
-5.247126102447509766e+00 -3.741788864135742188e+00 6.861545145511627197e-02
-3.830237627029418945e+00 -2.945755004882812500e+00 5.903400480747222900e-03
-6.311989307403564453e+00 -4.113409519195556641e+00 4.251739680767059326e-01
-6.034974575042724609e+00 -4.252721786499023438e+00 3.468752503395080566e-01
-5.951359748840332031e+00 -4.522497177124023438e+00 2.806180119514465332e-01
-6.301587581634521484e+00 -3.786609888076782227e+00 2.181952446699142456e-01
-6.086747646331787109e+00 -3.963597297668457031e+00 1.470758318901062012e-01
-4.926558494567871094e+00 -3.467785120010375977e+00 6.414400041103363037e-02
-3.876910686492919922e+00 -2.943968772888183594e+00 5.947382654994726181e-03
-6.169150352478027344e+00 -3.966608762741088867e+00 4.139050841331481934e-01
-6.053575038909912109e+00 -4.210478782653808594e+00 3.464528620243072510e-01
-5.959813117980957031e+00 -4.471501827239990234e+00 2.797176241874694824e-01
-6.326423168182373047e+00 -3.748891830444335938e+00 2.182545661926269531e-01
-6.099176883697509766e+00 -3.918609142303466797e+00 1.467924118041992188e-01
-5.334530353546142578e+00 -3.706214427947998047e+00 6.915841251611709595e-02
-3.948508739471435547e+00 -2.960315942764282227e+00 6.029238924384117126e-03
-7.617829799652099609e+00 -4.453005313873291016e+00 5.814400315284729004e-01
-6.193372726440429688e+00 -3.928680896759033203e+00 4.139050841331481934e-01
-6.072707653045654297e+00 -4.168733119964599609e+00 3.460774123668670654e-01
-5.983122348785400391e+00 -4.431874752044677734e+00 2.795300483703613281e-01
-6.359663009643554688e+00 -3.716054439544677734e+00 2.186105698347091675e-01
-6.124794960021972656e+00 -3.882182121276855469e+00 1.468328982591629028e-01
-4.873079299926757812e+00 -3.341470956802368164e+00 6.290903687477111816e-02
-3.782535552978515625e+00 -2.799791097640991211e+00 5.749462638050317764e-03
-6.227486610412597656e+00 -4.222173213958740234e+00 6.278283596038818359e-01
-6.268143653869628906e+00 -3.922382593154907227e+00 4.172857403755187988e-01
-6.083286762237548828e+00 -4.121308326721191406e+00 3.452326357364654541e-01
-6.019076347351074219e+00 -4.401568412780761719e+00 2.799427211284637451e-01
-6.365888595581054688e+00 -3.667481660842895508e+00 2.180469036102294922e-01
-6.129003047943115234e+00 -3.832336664199829102e+00 1.463672816753387451e-01
-4.877755641937255859e+00 -3.300859451293945312e+00 6.270675361156463623e-02
-3.786724805831909180e+00 -2.767089128494262695e+00 5.729914642870426178e-03
-6.264906406402587891e+00 -3.867066860198974609e+00 4.154827594757080078e-01
-6.111781120300292969e+00 -4.086124897003173828e+00 3.454203307628631592e-01
-6.041919231414794922e+00 -4.361628532409667969e+00 2.797551155090332031e-01
-6.372627258300781250e+00 -3.619466543197631836e+00 2.175129055976867676e-01
-6.158359050750732422e+00 -3.798331499099731445e+00 1.465089917182922363e-01
-4.993546962738037109e+00 -3.334730386734008789e+00 6.393107771873474121e-02
-3.823907375335693359e+00 -2.758428096771240234e+00 5.760457832366228104e-03
-6.378059864044189453e+00 -3.883068799972534180e+00 4.213989078998565674e-01
-6.141741275787353516e+00 -4.051846981048583984e+00 3.457019329071044922e-01
-6.049036502838134766e+00 -4.310555934906005859e+00 2.788547575473785400e-01
-6.397332668304443359e+00 -3.581761837005615234e+00 2.176019102334976196e-01
-6.152508258819580078e+00 -3.742806196212768555e+00 1.458206921815872192e-01
-5.022264480590820312e+00 -3.309530019760131836e+00 6.403753906488418579e-02
-3.926292181015014648e+00 -2.795817852020263672e+00 5.888739600777626038e-03
-6.321304798126220703e+00 -3.795548915863037109e+00 4.161025285720825195e-01
-6.134675502777099609e+00 -3.993378162384033203e+00 3.439185321331024170e-01
-6.073737144470214844e+00 -4.272208690643310547e+00 2.787797152996063232e-01
-6.427065849304199219e+00 -3.546787500381469727e+00 2.178689092397689819e-01
-6.177929401397705078e+00 -3.706527709960937500e+00 1.458814144134521484e-01
-5.284750461578369141e+00 -3.436179399490356445e+00 6.711432337760925293e-02
-4.014550209045410156e+00 -2.821702003479003906e+00 5.995030049234628677e-03
-6.365093708038330078e+00 -3.768899440765380859e+00 4.174547791481018066e-01
-6.153179645538330078e+00 -3.951882600784301758e+00 3.435900211334228516e-01
-6.078494071960449219e+00 -4.220043182373046875e+00 2.778043150901794434e-01
-6.450463294982910156e+00 -3.508239984512329102e+00 2.179282307624816895e-01
-6.222928047180175781e+00 -3.681787252426147461e+00 1.464077681303024292e-01
-5.367175102233886719e+00 -3.443102598190307617e+00 6.789150834083557129e-02
-4.037539482116699219e+00 -2.801006078720092773e+00 6.003581918776035309e-03
-6.351886749267578125e+00 -3.708629846572875977e+00 4.150883555412292480e-01
-6.175624370574951172e+00 -3.912983655929565430e+00 3.434961438179016113e-01
-6.097678661346435547e+00 -4.178148269653320312e+00 2.775041759014129639e-01
-6.488607406616210938e+00 -3.477566003799438477e+00 2.184918969869613647e-01
-6.325715065002441406e+00 -3.690388917922973633e+00 1.482905000448226929e-01
-5.366231918334960938e+00 -3.396202087402343750e+00 6.761470437049865723e-02
-3.965537071228027344e+00 -2.715164661407470703e+00 5.871635396033525467e-03
-6.216015815734863281e+00 -4.208163738250732422e+00 5.551944375038146973e-01
-6.338181018829345703e+00 -3.648664712905883789e+00 4.127218723297119141e-01
-6.170718193054199219e+00 -3.857015848159790039e+00 3.419004380702972412e-01
-6.133133888244628906e+00 -4.147372245788574219e+00 2.779543697834014893e-01
-6.507171630859375000e+00 -3.436287164688110352e+00 2.184029072523117065e-01
-6.295373916625976562e+00 -3.621097087860107422e+00 1.470555961132049561e-01
-5.359827041625976562e+00 -3.346265554428100586e+00 6.727401912212371826e-02
-3.927436590194702148e+00 -2.653829336166381836e+00 5.791001487523317337e-03
-6.371737480163574219e+00 -3.616111993789672852e+00 4.134543538093566895e-01
-6.195118427276611328e+00 -3.819604635238647461e+00 3.419473767280578613e-01
-6.150154113769531250e+00 -4.104115009307861328e+00 2.775792181491851807e-01
-6.498871326446533203e+00 -3.381071329116821289e+00 2.174239158630371094e-01
-6.364437580108642578e+00 -3.609032630920410156e+00 1.481487900018692017e-01
-5.207415580749511719e+00 -3.206873893737792969e+00 6.511281430721282959e-02
-3.947806358337402344e+00 -2.632455110549926758e+00 5.797110032290220261e-03
-6.398162364959716797e+00 -3.579385042190551758e+00 4.137360751628875732e-01
-6.261965751647949219e+00 -3.807989835739135742e+00 3.443409204483032227e-01
-6.164370536804199219e+00 -4.059156417846679688e+00 2.770915031433105469e-01
-6.527500629425048828e+00 -3.345234155654907227e+00 2.176909148693084717e-01
-6.405661582946777344e+00 -3.580645322799682617e+00 1.485941708087921143e-01
-5.269726753234863281e+00 -3.200816869735717773e+00 6.564513593912124634e-02
-3.966390371322631836e+00 -2.609831094741821289e+00 5.800775252282619476e-03
-6.417381286621093750e+00 -3.538612842559814453e+00 4.135670065879821777e-01
-6.274933338165283203e+00 -3.763330221176147461e+00 3.437777161598205566e-01
-6.169888496398925781e+00 -4.008734226226806641e+00 2.762286663055419922e-01
-6.543442249298095703e+00 -3.302867174148559570e+00 2.175425738096237183e-01
-6.411749362945556641e+00 -3.532589197158813477e+00 1.482297778129577637e-01
-5.286694049835205078e+00 -3.166880607604980469e+00 6.561319530010223389e-02
-3.908520460128784180e+00 -2.537525892257690430e+00 5.693262908607721329e-03
-6.426691532135009766e+00 -3.492495775222778320e+00 4.127781987190246582e-01
-6.285010337829589844e+00 -3.717129707336425781e+00 3.430737555027008057e-01
-6.179225921630859375e+00 -3.961093664169311523e+00 2.755533754825592041e-01
-6.568060398101806641e+00 -3.264879941940307617e+00 2.176909148693084717e-01
-6.290966510772705078e+00 -3.415894031524658203e+00 1.449501663446426392e-01
-4.816146373748779297e+00 -2.845000267028808594e+00 5.955544486641883850e-02
-4.046116352081298828e+00 -2.591705560684204102e+00 5.870413966476917267e-03
-6.433917999267578125e+00 -3.445455312728881836e+00 4.118767082691192627e-01
-6.296482086181640625e+00 -3.671953916549682617e+00 3.424636423587799072e-01
-6.200881004333496094e+00 -3.921501874923706055e+00 2.754408121109008789e-01
-6.593356609344482422e+00 -3.227154016494750977e+00 2.178689092397689819e-01
-6.310044765472412109e+00 -3.376285791397094727e+00 1.449096798896789551e-01
-5.316517829895019531e+00 -3.096733570098876953e+00 6.550673395395278931e-02
-4.045035362243652344e+00 -2.556146144866943359e+00 5.845979321748018265e-03
-7.601632118225097656e+00 -4.747836589813232422e+00 6.628845930099487305e-01
-6.446107387542724609e+00 -3.401253223419189453e+00 4.113132655620574951e-01
-6.305905342102050781e+00 -3.625781774520874023e+00 3.417596518993377686e-01
-6.229913234710693359e+00 -3.886553764343261719e+00 2.756659090518951416e-01
-6.615735054016113281e+00 -3.187938928604125977e+00 2.179578989744186401e-01
-6.485414981842041016e+00 -3.419100284576416016e+00 1.484524607658386230e-01
-5.331950664520263672e+00 -3.062061548233032227e+00 6.546414643526077271e-02
-3.929955720901489258e+00 -2.449811697006225586e+00 5.657832603901624680e-03
-6.480144023895263672e+00 -3.368544340133666992e+00 4.121584296226501465e-01
-6.328902721405029297e+00 -3.587513685226440430e+00 3.418065905570983887e-01
-6.257898330688476562e+00 -3.850872993469238281e+00 2.758534848690032959e-01
-6.632462024688720703e+00 -3.146000385284423828e+00 2.178689092397689819e-01
-6.371408939361572266e+00 -3.309196472167968750e+00 1.453752964735031128e-01
-5.378483772277832031e+00 -3.045052528381347656e+00 6.580483168363571167e-02
-4.095690727233886719e+00 -2.518361806869506836e+00 5.874078720808029175e-03
-6.509577751159667969e+00 -3.333269834518432617e+00 4.127218723297119141e-01
-6.356028079986572266e+00 -3.551536321640014648e+00 3.420881927013397217e-01
-6.278846740722656250e+00 -3.810847282409667969e+00 2.757409512996673584e-01
-6.637149333953857422e+00 -3.098479986190795898e+00 2.173942476511001587e-01
-6.406724929809570312e+00 -3.277781248092651367e+00 1.457194536924362183e-01
-4.949130058288574219e+00 -2.762009143829345703e+00 6.034327298402786255e-02
-4.255568981170654297e+00 -2.580818653106689453e+00 6.080551538616418839e-03
-6.537039279937744141e+00 -3.296861886978149414e+00 4.131726026535034180e-01
-6.389949798583984375e+00 -3.519215822219848633e+00 3.427452147006988525e-01
-6.310685634613037109e+00 -3.777381658554077148e+00 2.761161029338836670e-01
-6.648769855499267578e+00 -3.054358720779418945e+00 2.171569168567657471e-01
-6.344574451446533203e+00 -3.197017669677734375e+00 1.438569724559783936e-01
-5.214809417724609375e+00 -2.868458509445190430e+00 6.336682289838790894e-02
-4.074793815612792969e+00 -2.437114238739013672e+00 5.800775252282619476e-03
-6.542838573455810547e+00 -3.249583482742309570e+00 4.122711122035980225e-01
-6.428981304168701172e+00 -3.489471912384033203e+00 3.436838686466217041e-01
-6.327720165252685547e+00 -3.735033035278320312e+00 2.758534848690032959e-01
-6.671029090881347656e+00 -3.015151977539062500e+00 2.172755897045135498e-01
-6.318396568298339844e+00 -3.135362386703491211e+00 1.428245007991790771e-01
-5.003749847412109375e+00 -2.712505102157592773e+00 6.059878692030906677e-02
-3.907065868377685547e+00 -2.304366350173950195e+00 5.541768390685319901e-03
-6.561757564544677734e+00 -3.208937644958496094e+00 4.122147858142852783e-01
-6.438820838928222656e+00 -3.443834066390991211e+00 3.430737555027008057e-01
-6.346200942993164062e+00 -3.693623542785644531e+00 2.756659090518951416e-01
-6.671137332916259766e+00 -2.966040849685668945e+00 2.166822552680969238e-01
-6.426447391510009766e+00 -3.139986991882324219e+00 1.448287069797515869e-01
-5.610352039337158203e+00 -2.996946811676025391e+00 6.772116571664810181e-02
-4.185652256011962891e+00 -2.434182643890380859e+00 5.915617570281028748e-03
-6.590319156646728516e+00 -3.172945976257324219e+00 4.127781987190246582e-01
-6.450109481811523438e+00 -3.399138689041137695e+00 3.425574898719787598e-01
-6.361810684204101562e+00 -3.650635242462158203e+00 2.753657698631286621e-01
-6.691042423248291016e+00 -2.925852537155151367e+00 2.167415916919708252e-01
-6.445592880249023438e+00 -3.100495815277099609e+00 1.448287069797515869e-01
-5.394145488739013672e+00 -2.839049100875854492e+00 6.489989161491394043e-02
-4.160603523254394531e+00 -2.385573387145996094e+00 5.859417840838432312e-03
-6.546508789062500000e+00 -3.102518558502197266e+00 4.088341295719146729e-01
-6.459320068359375000e+00 -3.353514194488525391e+00 3.419473767280578613e-01
-6.364956378936767578e+00 -3.600706577301025391e+00 2.745404541492462158e-01
-6.696931838989257812e+00 -2.879609107971191406e+00 2.163559198379516602e-01
-6.464496135711669922e+00 -3.060888051986694336e+00 1.448287069797515869e-01
-5.436319828033447266e+00 -2.818785667419433594e+00 6.519798934459686279e-02
-4.089848995208740234e+00 -2.311776161193847656e+00 5.739688873291015625e-03
-6.597995758056640625e+00 -3.077484607696533203e+00 4.108625054359436035e-01
-6.487779617309570312e+00 -3.317910909652709961e+00 3.423697650432586670e-01
-6.402639865875244141e+00 -3.570344686508178711e+00 2.752157151699066162e-01
-6.695140361785888672e+00 -2.830289840698242188e+00 2.157329320907592773e-01
-6.542060375213623047e+00 -3.048614978790283203e+00 1.461445987224578857e-01
-5.578185558319091797e+00 -2.849052429199218750e+00 6.668847054243087769e-02
-4.205288887023925781e+00 -2.343097925186157227e+00 5.881409160792827606e-03
-6.624013900756835938e+00 -3.040273904800415039e+00 4.113132655620574951e-01
-6.515152454376220703e+00 -3.281634807586669922e+00 3.427452147006988525e-01
-6.427053451538085938e+00 -3.532435417175292969e+00 2.753282785415649414e-01
-6.726226329803466797e+00 -2.794909238815307617e+00 2.161779254674911499e-01
-6.479759693145751953e+00 -2.971326589584350586e+00 1.443428397178649902e-01
-5.583055973052978516e+00 -2.808480739593505859e+00 6.653942912817001343e-02
-4.207315444946289062e+00 -2.310511589050292969e+00 5.864304956048727036e-03
-6.641633987426757812e+00 -2.999161720275878906e+00 4.112569093704223633e-01
-6.530691146850585938e+00 -3.239377498626708984e+00 3.425105512142181396e-01
-6.445971488952636719e+00 -3.491505622863769531e+00 2.752157151699066162e-01
-6.752502918243408203e+00 -2.757364034652709961e+00 2.164745926856994629e-01
-6.445012092590332031e+00 -2.907665014266967773e+00 1.431686580181121826e-01
-5.506100177764892578e+00 -2.727564811706542969e+00 6.542156636714935303e-02
-4.332225322723388672e+00 -2.344624519348144531e+00 6.018242798745632172e-03
-6.660823822021484375e+00 -2.958758115768432617e+00 4.113132655620574951e-01
-6.547752380371093750e+00 -3.197929859161376953e+00 3.423697650432586670e-01
-6.457576274871826172e+00 -3.446712017059326172e+00 2.748030424118041992e-01
-6.770222187042236328e+00 -2.716251850128173828e+00 2.165042608976364136e-01
-6.661036491394042969e+00 -2.956069231033325195e+00 1.475616991519927979e-01
-5.557783603668212891e+00 -2.710824728012084961e+00 6.583677232265472412e-02
-4.138291835784912109e+00 -2.206945180892944336e+00 5.729914642870426178e-03
-6.677937984466552734e+00 -2.917432785034179688e+00 4.112569093704223633e-01
-6.551046848297119141e+00 -3.149901866912841797e+00 3.415249884128570557e-01
-6.478603363037109375e+00 -3.407024145126342773e+00 2.748030424118041992e-01
-6.784901618957519531e+00 -2.673926353454589844e+00 2.164449244737625122e-01
-6.692793846130371094e+00 -2.921141147613525391e+00 1.478653699159622192e-01
-5.646424770355224609e+00 -2.711298704147338867e+00 6.668847054243087769e-02
-4.100412368774414062e+00 -2.154533624649047852e+00 5.659054499119520187e-03
-6.681953430175781250e+00 -2.870491504669189453e+00 4.104117453098297119e-01
-6.586503028869628906e+00 -3.117338180541992188e+00 3.423697650432586670e-01
-6.501160621643066406e+00 -3.368127346038818359e+00 2.748780846595764160e-01
-6.815163612365722656e+00 -2.637656450271606445e+00 2.168899178504943848e-01
-6.688541412353515625e+00 -2.870556592941284180e+00 1.473795026540756226e-01
-5.288679122924804688e+00 -2.499700069427490234e+00 6.228090077638626099e-02
-4.309818744659423828e+00 -2.230927228927612305e+00 5.929056555032730103e-03
-6.701280117034912109e+00 -2.830214738845825195e+00 4.105244278907775879e-01
-6.608222484588623047e+00 -3.078130722045898438e+00 3.425105512142181396e-01
-6.527045249938964844e+00 -3.330899000167846680e+00 2.751031816005706787e-01
-6.837759971618652344e+00 -2.598274946212768555e+00 2.170975804328918457e-01
-6.659050464630126953e+00 -2.809640645980834961e+00 1.463470458984375000e-01
-5.513353824615478516e+00 -2.564625024795532227e+00 6.474019587039947510e-02
-4.390242576599121094e+00 -2.238508939743041992e+00 6.020687054842710495e-03
-7.960607051849365234e+00 -3.304667711257934570e+00 4.864201843738555908e-01
-6.626985549926757812e+00 -3.037525415420532227e+00 3.425105512142181396e-01
-6.546467781066894531e+00 -3.290338516235351562e+00 2.750656604766845703e-01
-6.849827766418457031e+00 -2.554872989654541016e+00 2.169789075851440430e-01
-6.647535324096679688e+00 -2.756855487823486328e+00 1.457194536924362183e-01
-5.641730308532714844e+00 -2.582353115081787109e+00 6.606034189462661743e-02
-4.366361618041992188e+00 -2.192680358886718750e+00 5.969373974949121475e-03
-8.010315895080566406e+00 -3.267828226089477539e+00 4.882231950759887695e-01
-6.640034675598144531e+00 -2.994342088699340820e+00 3.422289788722991943e-01
-6.553099632263183594e+00 -3.243458986282348633e+00 2.745029330253601074e-01
-3.632622718811035156e+00 -1.329575777053833008e+00 1.148083657026290894e-01
-6.679139137268066406e+00 -2.722052335739135742e+00 1.460433602333068848e-01
-5.404911518096923828e+00 -2.433954954147338867e+00 6.311131268739700317e-02
-4.195078372955322266e+00 -2.074532747268676758e+00 5.717697553336620331e-03
-3.654865503311157227e+00 -1.313063502311706543e+00 2.559046447277069092e-01
-7.400032520294189453e+00 -2.966030359268188477e+00 4.499091207981109619e-01
-6.647325515747070312e+00 -2.948682546615600586e+00 3.416657745838165283e-01
-6.561200141906738281e+00 -3.197497844696044922e+00 2.740152180194854736e-01
-3.603082418441772461e+00 -1.293749690055847168e+00 1.136217191815376282e-01
-6.674368381500244141e+00 -2.672471046447753906e+00 1.455777436494827271e-01
-5.560540676116943359e+00 -2.463112831115722656e+00 6.475084275007247925e-02
-4.120517253875732422e+00 -2.006289720535278320e+00 5.599189549684524536e-03
-3.629914283752441406e+00 -1.279006719589233398e+00 2.536033391952514648e-01
-6.788227558135986328e+00 -2.672585487365722656e+00 4.117076694965362549e-01
-6.654306411743164062e+00 -2.903046846389770508e+00 3.411026000976562500e-01
-6.591507434844970703e+00 -3.162365913391113281e+00 2.744654119014739990e-01
-3.602467536926269531e+00 -1.268629074096679688e+00 1.133547201752662659e-01
-6.659006595611572266e+00 -2.619025707244873047e+00 1.448894441127777100e-01
-5.552630901336669922e+00 -2.418963432312011719e+00 6.448468565940856934e-02
-4.133651733398437500e+00 -1.981401085853576660e+00 5.600411444902420044e-03
-6.799842834472656250e+00 -2.629083156585693359e+00 4.114259481430053711e-01
-6.677502155303955078e+00 -2.864524841308593750e+00 3.413841724395751953e-01
-6.627052307128906250e+00 -3.129542350769042969e+00 2.751406729221343994e-01
-3.613963365554809570e+00 -1.247805833816528320e+00 1.134733930230140686e-01
-6.680546760559082031e+00 -2.580278635025024414e+00 1.450109034776687622e-01
-5.364233970642089844e+00 -2.297832489013671875e+00 6.213185563683509827e-02
-4.137591838836669922e+00 -1.952160000801086426e+00 5.589415784925222397e-03
-6.833581447601318359e+00 -2.594043016433715820e+00 4.124965071678161621e-01
-6.716122150421142578e+00 -2.832426309585571289e+00 3.424636423587799072e-01
-6.647036552429199219e+00 -3.089241981506347656e+00 2.751782238483428955e-01
-6.942964076995849609e+00 -2.349641561508178711e+00 2.175425738096237183e-01
-6.695318698883056641e+00 -2.538884401321411133e+00 1.449906527996063232e-01
-5.411408424377441406e+00 -2.278845787048339844e+00 6.251511722803115845e-02
-4.125003814697265625e+00 -1.915364623069763184e+00 5.556429270654916763e-03
-6.851240634918212891e+00 -2.552761316299438477e+00 4.126091897487640381e-01
-6.803504467010498047e+00 -2.820234298706054688e+00 3.460304737091064453e-01
-6.642238140106201172e+00 -3.037592887878417969e+00 2.742027938365936279e-01
-6.966738224029541016e+00 -2.310142278671264648e+00 2.178392410278320312e-01
-6.697652816772460938e+00 -2.492872476577758789e+00 1.447072327136993408e-01
-5.467789649963378906e+00 -2.263190746307373047e+00 6.300485134124755859e-02
-4.126673221588134766e+00 -1.885446667671203613e+00 5.542989820241928101e-03
-6.826453685760498047e+00 -2.495932340621948242e+00 4.101863801479339600e-01
-6.830857276916503906e+00 -2.782580852508544922e+00 3.465467095375061035e-01
-6.663485527038574219e+00 -2.998009681701660156e+00 2.743153572082519531e-01
-6.990288257598876953e+00 -2.270439386367797852e+00 2.181358933448791504e-01
-3.640025377273559570e+00 -1.329449295997619629e+00 7.846743613481521606e-02
-5.759449958801269531e+00 -2.342622995376586914e+00 6.619874387979507446e-02
-4.379868507385253906e+00 -1.968735575675964355e+00 5.866748280823230743e-03
-3.669863462448120117e+00 -1.316327691078186035e+00 2.200244218111038208e-01
-6.819053173065185547e+00 -2.729109287261962891e+00 3.450918197631835938e-01
-6.662565708160400391e+00 -2.948574304580688477e+00 2.735275030136108398e-01
-7.009803295135498047e+00 -2.229322671890258789e+00 2.183139026165008545e-01
-3.630231142044067383e+00 -1.300682187080383301e+00 7.808279246091842651e-02
-5.861927509307861328e+00 -2.342489957809448242e+00 6.721013784408569336e-02
-4.214435577392578125e+00 -1.863374948501586914e+00 5.629733204841613770e-03
-7.522452354431152344e+00 -2.343073129653930664e+00 5.191734433174133301e-01
-3.666568994522094727e+00 -1.289809346199035645e+00 2.193482816219329834e-01
-6.785469532012939453e+00 -2.667482376098632812e+00 3.425574898719787598e-01
-6.682364463806152344e+00 -2.908435583114624023e+00 2.736025452613830566e-01
-7.037666320800781250e+00 -2.190725803375244141e+00 2.187588959932327271e-01
-3.613619089126586914e+00 -1.269765496253967285e+00 7.755643874406814575e-02
-5.296297073364257812e+00 -2.078862428665161133e+00 6.057748943567276001e-02
-4.272559642791748047e+00 -1.857817292213439941e+00 5.692041479051113129e-03
-8.017752647399902344e+00 -2.443480968475341797e+00 5.523121356964111328e-01
-6.967512607574462891e+00 -2.403060674667358398e+00 4.159334897994995117e-01
-6.820346355438232422e+00 -2.632992267608642578e+00 3.434961438179016113e-01
-6.713865280151367188e+00 -2.873276233673095703e+00 2.741653025150299072e-01
-7.062449932098388672e+00 -2.150996923446655273e+00 2.191148847341537476e-01
-3.629849672317504883e+00 -1.250499725341796875e+00 7.773863524198532104e-02
-5.611255645751953125e+00 -2.162847995758056641e+00 6.402689963579177856e-02
-4.298590183258056641e+00 -1.837856292724609375e+00 5.711589008569717407e-03
-6.971721649169921875e+00 -2.356746673583984375e+00 4.153136909008026123e-01
-6.843846321105957031e+00 -2.593925952911376953e+00 3.438715934753417969e-01
-6.740580081939697266e+00 -2.835901737213134766e+00 2.745404541492462158e-01
-7.090842723846435547e+00 -2.112187623977661133e+00 2.195895463228225708e-01
-6.621303558349609375e+00 -2.235714673995971680e+00 1.415086090564727783e-01
-5.916209697723388672e+00 -2.238795042037963867e+00 6.734853982925415039e-02
-4.291348457336425781e+00 -1.803696513175964355e+00 5.687154363840818405e-03
-6.990790367126464844e+00 -2.315494298934936523e+00 4.155954420566558838e-01
-6.850271701812744141e+00 -2.548401355743408203e+00 3.434022665023803711e-01
-6.760624408721923828e+00 -2.795634746551513672e+00 2.746529877185821533e-01
-7.103669643402099609e+00 -2.068639278411865234e+00 2.195895463228225708e-01
-6.725070953369140625e+00 -2.224877834320068359e+00 1.434318423271179199e-01
-3.622017621994018555e+00 -1.345285058021545410e+00 4.113733395934104919e-02
-4.281077861785888672e+00 -1.768549799919128418e+00 5.659054499119520187e-03
-7.008664608001708984e+00 -2.273788213729858398e+00 4.158207774162292480e-01
-3.673572063446044922e+00 -1.341020345687866211e+00 1.837392300367355347e-01
-6.762837886810302734e+00 -2.748080492019653320e+00 2.740527391433715820e-01
-7.121036052703857422e+00 -2.026381015777587891e+00 2.197378873825073242e-01
-6.727182388305664062e+00 -2.179873228073120117e+00 1.431889086961746216e-01
-3.630203962326049805e+00 -1.323035478591918945e+00 4.113733395934104919e-02
-4.226989269256591797e+00 -1.715918898582458496e+00 5.573533475399017334e-03
-7.038661003112792969e+00 -2.235879659652709961e+00 4.167786538600921631e-01
-3.656339883804321289e+00 -1.309361696243286133e+00 1.824720650911331177e-01
-6.777716636657714844e+00 -2.705791711807250977e+00 2.739776968955993652e-01
-7.158374786376953125e+00 -1.989608526229858398e+00 2.205092161893844604e-01
-6.767114639282226562e+00 -2.147020816802978516e+00 1.437557488679885864e-01
-3.644845008850097656e+00 -1.303092479705810547e+00 4.121185839176177979e-02
-4.237438201904296875e+00 -1.689950346946716309e+00 5.573533475399017334e-03
-7.070362091064453125e+00 -2.198281288146972656e+00 4.178492128849029541e-01
-3.652053117752075195e+00 -1.282599329948425293e+00 1.818619370460510254e-01
-6.792330265045166016e+00 -2.663423776626586914e+00 2.739026546478271484e-01
-7.194564819335937500e+00 -1.952191948890686035e+00 2.212508469820022583e-01
-6.807850837707519531e+00 -2.114056587219238281e+00 1.443428397178649902e-01
-3.637673854827880859e+00 -1.275410056114196777e+00 4.104151576757431030e-02
-4.208621025085449219e+00 -1.648599147796630859e+00 5.522220395505428314e-03
-7.077031135559082031e+00 -2.152822971343994141e+00 4.174547791481018066e-01
-6.960806846618652344e+00 -2.396755456924438477e+00 3.458896875381469727e-01
-6.821601390838623047e+00 -2.626724004745483398e+00 2.744278907775878906e-01
-7.203509330749511719e+00 -1.907242774963378906e+00 2.211618572473526001e-01
-6.947924613952636719e+00 -2.110899686813354492e+00 1.470353454351425171e-01
-3.635974884033203125e+00 -1.249815225601196289e+00 4.093505442142486572e-02
-4.282124042510986328e+00 -1.647157549858093262e+00 5.605298560112714767e-03
-7.087236404418945312e+00 -2.108504533767700195e+00 4.172857403755187988e-01
-6.966863632202148438e+00 -2.351125001907348633e+00 3.454672992229461670e-01
-6.824503421783447266e+00 -2.579870939254760742e+00 2.739026546478271484e-01
-7.209269046783447266e+00 -1.861507534980773926e+00 2.209838628768920898e-01
-6.951162338256835938e+00 -2.065380573272705078e+00 1.468328982591629028e-01
-3.607565641403198242e+00 -1.215350627899169922e+00 4.053049534559249878e-02
-4.071368217468261719e+00 -1.537477612495422363e+00 5.316969938576221466e-03
-7.100999355316162109e+00 -2.065257310867309570e+00 4.173420965671539307e-01
-6.977365016937255859e+00 -2.307078599929809570e+00 3.452795445919036865e-01
-6.828962326049804688e+00 -2.533776760101318359e+00 2.734524905681610107e-01
-7.246727466583251953e+00 -1.823824048042297363e+00 2.217848449945449829e-01
-6.952182769775390625e+00 -2.019343614578247070e+00 1.465899646282196045e-01
-5.795132637023925781e+00 -1.912805676460266113e+00 6.497441232204437256e-02
-3.599702596664428711e+00 -1.334182381629943848e+00 4.690222442150115967e-03
-7.117379188537597656e+00 -2.022739171981811523e+00 4.175674617290496826e-01
-7.017047882080078125e+00 -2.272532463073730469e+00 3.465467095375061035e-01
-3.651776075363159180e+00 -1.329498767852783203e+00 1.458988487720489502e-01
-7.249044418334960938e+00 -1.777182698249816895e+00 2.215178608894348145e-01
-6.962519168853759766e+00 -1.976101756095886230e+00 1.465494781732559204e-01
-5.785828590393066406e+00 -1.870444536209106445e+00 6.474019587039947510e-02
-3.630375862121582031e+00 -1.320272445678710938e+00 4.719543736428022385e-03
-7.138315200805664062e+00 -1.981433033943176270e+00 4.180745780467987061e-01
-7.028955459594726562e+00 -2.228830099105834961e+00 3.464528620243072510e-01
-3.651395320892333984e+00 -1.304041981697082520e+00 1.455612033605575562e-01
-7.262729167938232422e+00 -1.733366012573242188e+00 2.216068506240844727e-01
-6.979330539703369141e+00 -1.934678792953491211e+00 1.466507017612457275e-01
-5.723789691925048828e+00 -1.811673760414123535e+00 6.392043083906173706e-02
-3.637466669082641602e+00 -1.297636151313781738e+00 4.718322306871414185e-03
-7.159975051879882812e+00 -1.940207123756408691e+00 4.186380207538604736e-01
-7.028189182281494141e+00 -2.181218147277832031e+00 3.457489013671875000e-01
-3.625375509262084961e+00 -1.269721627235412598e+00 1.442106366157531738e-01
-7.284912109375000000e+00 -1.691483020782470703e+00 2.219628542661666870e-01
-7.002651214599609375e+00 -1.894951939582824707e+00 1.468936353921890259e-01
-6.256317138671875000e+00 -1.938074707984924316e+00 6.973331421613693237e-02
-3.620818853378295898e+00 -1.266706943511962891e+00 4.686557222157716751e-03
-7.206494331359863281e+00 -1.905425548553466797e+00 4.206664264202117920e-01
-7.047174930572509766e+00 -2.139794111251831055e+00 3.460304737091064453e-01
-6.939179897308349609e+00 -2.382622003555297852e+00 2.754408121109008789e-01
-7.314654350280761719e+00 -1.651153683662414551e+00 2.225561738014221191e-01
-6.919413089752197266e+00 -1.826936244964599609e+00 1.449096798896789551e-01
-6.253736972808837891e+00 -1.895299911499023438e+00 6.957361847162246704e-02
-3.656900405883789062e+00 -1.254198789596557617e+00 4.723208956420421600e-03
-8.254211425781250000e+00 -1.811597108840942383e+00 5.568490028381347656e-01
-7.293458938598632812e+00 -1.880615711212158203e+00 4.250612556934356689e-01
-7.064002513885498047e+00 -2.097650527954101562e+00 3.462181985378265381e-01
-6.959351539611816406e+00 -2.341911554336547852e+00 2.756659090518951416e-01
-7.319766044616699219e+00 -1.605170130729675293e+00 2.224078327417373657e-01
-6.942111492156982422e+00 -1.787436604499816895e+00 1.451526135206222534e-01
-6.155954360961914062e+00 -1.824499487876892090e+00 6.835994124412536621e-02
-4.274965763092041016e+00 -1.436920046806335449e+00 5.510003305971622467e-03
-7.292273044586181641e+00 -1.832664966583251953e+00 4.243287742137908936e-01
-7.095926284790039062e+00 -2.059836626052856445e+00 3.471568524837493896e-01
-6.994468688964843750e+00 -2.306049346923828125e+00 2.764912545680999756e-01
-7.341209411621093750e+00 -1.562724113464355469e+00 2.227638363838195801e-01
-6.964584350585937500e+00 -1.747727155685424805e+00 1.453955471515655518e-01
-6.099802017211914062e+00 -1.767214775085449219e+00 6.761470437049865723e-02
-4.372985363006591797e+00 -1.440064072608947754e+00 5.624845623970031738e-03
-7.232587337493896484e+00 -1.770555496215820312e+00 4.202156364917755127e-01
-7.118041515350341797e+00 -2.018983840942382812e+00 3.476261794567108154e-01
-7.010388374328613281e+00 -2.263702630996704102e+00 2.765662968158721924e-01
-7.374154090881347656e+00 -1.522500514984130859e+00 2.234758287668228149e-01
-7.007226943969726562e+00 -1.712794303894042969e+00 1.460636109113693237e-01
-6.016241073608398438e+00 -1.703062653541564941e+00 6.657136231660842896e-02
-4.438842296600341797e+00 -1.431621909141540527e+00 5.698149558156728745e-03
-7.358889579772949219e+00 -1.753686189651489258e+00 4.269206225872039795e-01
-7.152436733245849609e+00 -1.981403827667236328e+00 3.487055897712707520e-01
-7.032721996307373047e+00 -2.223356246948242188e+00 2.769039273262023926e-01
-7.392178058624267578e+00 -1.478989839553833008e+00 2.237428277730941772e-01
-7.099306583404541016e+00 -1.689206600189208984e+00 1.477641463279724121e-01
-6.064165592193603516e+00 -1.676507234573364258e+00 6.698656827211380005e-02
-4.538134574890136719e+00 -1.432963967323303223e+00 5.814214237034320831e-03
-7.588350296020507812e+00 -1.759234070777893066e+00 4.395981132984161377e-01
-7.178923130035400391e+00 -1.941391468048095703e+00 3.494095802307128906e-01
-7.048141002655029297e+00 -2.180753231048583984e+00 2.769789695739746094e-01
-7.418777942657470703e+00 -1.437025904655456543e+00 2.242768108844757080e-01
-7.180642604827880859e+00 -1.662072777748107910e+00 1.492419838905334473e-01
-6.027998924255371094e+00 -1.626761078834533691e+00 6.647554785013198853e-02
-4.601300716400146484e+00 -1.421920776367187500e+00 5.883852951228618622e-03
-8.166632652282714844e+00 -1.531432747840881348e+00 5.475122928619384766e-01
-7.658414840698242188e+00 -1.726029992103576660e+00 4.430350959300994873e-01
-7.181042194366455078e+00 -1.894757509231567383e+00 3.489402532577514648e-01
-7.062345504760742188e+00 -2.137754917144775391e+00 2.770164906978607178e-01
-7.452017307281494141e+00 -1.396079540252685547e+00 2.250184714794158936e-01
-7.190705776214599609e+00 -1.617981791496276855e+00 1.492419838905334473e-01
-6.465275287628173828e+00 -1.702278017997741699e+00 7.118121534585952759e-02
-4.636740684509277344e+00 -1.401763558387756348e+00 5.918061360716819763e-03
-7.980960369110107422e+00 -1.747336745262145996e+00 4.610652625560760498e-01
-7.187695980072021484e+00 -1.849415183067321777e+00 3.487055897712707520e-01
-7.096409797668457031e+00 -2.100620985031127930e+00 2.778418362140655518e-01
-7.451590538024902344e+00 -1.348726272583007812e+00 2.247514724731445312e-01
-7.200498104095458984e+00 -1.573830008506774902e+00 1.492419838905334473e-01
-6.041696548461914062e+00 -1.551173806190490723e+00 6.641166657209396362e-02
-4.664433956146240234e+00 -1.378956675529479980e+00 5.942496005445718765e-03
-7.911450862884521484e+00 -1.681315064430236816e+00 4.564450681209564209e-01
-7.240571022033691406e+00 -1.815725326538085938e+00 3.507236838340759277e-01
-7.125484466552734375e+00 -2.061760663986206055e+00 2.784796059131622314e-01
-7.461695671081542969e+00 -1.303322792053222656e+00 2.248108088970184326e-01
-7.257943153381347656e+00 -1.539786100387573242e+00 1.502339690923690796e-01
-5.981257915496826172e+00 -1.496597766876220703e+00 6.564513593912124634e-02
-4.552720546722412109e+00 -1.315608739852905273e+00 5.789779592305421829e-03
-8.014356613159179688e+00 -1.350671529769897461e+00 5.355455279350280762e-01
-7.708445072174072266e+00 -1.588802099227905273e+00 4.441619813442230225e-01
-7.256427288055419922e+00 -1.772448778152465820e+00 3.509583473205566406e-01
-7.139924049377441406e+00 -2.018544197082519531e+00 2.785546183586120605e-01
-7.505036830902099609e+00 -1.263488054275512695e+00 2.258787900209426880e-01
-7.326011180877685547e+00 -1.507312297821044922e+00 1.514486372470855713e-01
-5.978670120239257812e+00 -1.457028150558471680e+00 6.551738083362579346e-02
-4.749333381652832031e+00 -1.340904831886291504e+00 6.029238924384117126e-03
-7.688675880432128906e+00 -1.535607695579528809e+00 4.424716234207153320e-01
-7.266194820404052734e+00 -1.727659821510314941e+00 3.509114086627960205e-01
-7.159881591796875000e+00 -1.976824283599853516e+00 2.788547575473785400e-01
-7.557049274444580078e+00 -1.224609375000000000e+00 2.272137701511383057e-01
-7.393951892852783203e+00 -1.474060773849487305e+00 1.526633054018020630e-01
-6.143168449401855469e+00 -1.457243561744689941e+00 6.722078472375869751e-02
-4.646608352661132812e+00 -1.281170725822448730e+00 5.888739600777626038e-03
-7.942037582397460938e+00 -1.535595655441284180e+00 4.565013647079467773e-01
-7.262060642242431641e+00 -1.679666399955749512e+00 3.502074182033538818e-01
-7.173805713653564453e+00 -1.933374881744384766e+00 2.789297997951507568e-01
-7.572321891784667969e+00 -1.179447770118713379e+00 2.274511009454727173e-01
-7.426417827606201172e+00 -1.433211445808410645e+00 1.531491726636886597e-01
-5.957126140594482422e+00 -1.374558091163635254e+00 6.509152799844741821e-02
-4.621550083160400391e+00 -1.243799567222595215e+00 5.847200751304626465e-03
-8.082818031311035156e+00 -1.511426329612731934e+00 4.640514850616455078e-01
-7.299518108367919922e+00 -1.641210913658142090e+00 3.515215218067169189e-01
-7.176835536956787109e+00 -1.887033700942993164e+00 2.785921394824981689e-01
-7.579416751861572266e+00 -1.132962703704833984e+00 2.274511009454727173e-01
-7.443917274475097656e+00 -1.389267563819885254e+00 1.533313691616058350e-01
-6.004476547241210938e+00 -1.346733450889587402e+00 6.551738083362579346e-02
-4.618455410003662109e+00 -1.212625384330749512e+00 5.833761766552925110e-03
-1.017266845703125000e+01 -1.458655238151550293e+00 6.771741509437561035e-01
-8.069341659545898438e+00 -1.457720398902893066e+00 4.627555906772613525e-01
-7.340679645538330078e+00 -1.603211402893066406e+00 3.530233502388000488e-01
-7.196990966796875000e+00 -1.845195651054382324e+00 2.789297997951507568e-01
-7.585236072540283203e+00 -1.086293220520019531e+00 2.274214327335357666e-01
-7.448365688323974609e+00 -1.342856884002685547e+00 1.532503813505172729e-01
-6.185560703277587891e+00 -1.347539424896240234e+00 6.740177422761917114e-02
-4.657778263092041016e+00 -1.192448616027832031e+00 5.874078720808029175e-03
-7.951253414154052734e+00 -1.386062383651733398e+00 4.554871916770935059e-01
-7.341584205627441406e+00 -1.556275367736816406e+00 3.526009619235992432e-01
-7.221750259399414062e+00 -1.804392218589782715e+00 2.794550061225891113e-01
-7.633351802825927734e+00 -1.045427083969116211e+00 2.286674082279205322e-01
-7.416079998016357422e+00 -1.290103912353515625e+00 1.524203717708587646e-01
-6.246541500091552734e+00 -1.320729970932006836e+00 6.797667592763900757e-02
-4.604851245880126953e+00 -1.148838639259338379e+00 5.798331927508115768e-03
-8.187053680419921875e+00 -1.375460147857666016e+00 4.685027301311492920e-01
-7.403830528259277344e+00 -1.522060751914978027e+00 3.551352918148040771e-01
-7.241424560546875000e+00 -1.762172937393188477e+00 2.797926366329193115e-01
-7.667374610900878906e+00 -1.002197504043579102e+00 2.294980734586715698e-01
-7.430758953094482422e+00 -1.245732545852661133e+00 1.525620818138122559e-01
-5.998860836029052734e+00 -1.229957222938537598e+00 6.519798934459686279e-02
-4.648739337921142578e+00 -1.129534244537353516e+00 5.844757426530122757e-03
-1.020006847381591797e+01 -1.649367332458496094e+00 5.831069946289062500e-01
-7.402254104614257812e+00 -1.474456548690795898e+00 3.546190261840820312e-01
-7.266686916351318359e+00 -1.721162080764770508e+00 2.803553938865661621e-01
-7.677347183227539062e+00 -9.556263089179992676e-01 2.296167314052581787e-01
-7.520186424255371094e+00 -1.213332653045654297e+00 1.542423665523529053e-01
-6.288759231567382812e+00 -1.249236226081848145e+00 6.826412677764892578e-02
-4.693535804748535156e+00 -1.109964370727539062e+00 5.892405286431312561e-03
-9.325044631958007812e+00 -1.449218273162841797e+00 5.325661897659301758e-01
-7.419989585876464844e+00 -1.430711507797241211e+00 3.550414443016052246e-01
-7.269320487976074219e+00 -1.674747228622436523e+00 2.800552546977996826e-01
-7.705897331237792969e+00 -9.112007021903991699e-01 2.302990704774856567e-01
-7.563056945800781250e+00 -1.172681689262390137e+00 1.549711674451828003e-01
-6.515282630920410156e+00 -1.252729415893554688e+00 7.063825428485870361e-02
-4.700257778167724609e+00 -1.081144452095031738e+00 5.892405286431312561e-03
-8.619805335998535156e+00 -1.285498976707458496e+00 4.918292164802551270e-01
-7.421754837036132812e+00 -1.383874654769897461e+00 3.547129333019256592e-01
-7.277509212493896484e+00 -1.629675269126892090e+00 2.799802124500274658e-01
-7.702402591705322266e+00 -8.628994226455688477e-01 2.300320565700531006e-01
-7.585932731628417969e+00 -1.128607630729675293e+00 1.552950739860534668e-01
-6.477623939514160156e+00 -1.204321026802062988e+00 7.014852017164230347e-02
-4.689236640930175781e+00 -1.048356533050537109e+00 5.870413966476917267e-03
-9.536835670471191406e+00 -1.362493872642517090e+00 5.436659455299377441e-01
-7.437970638275146484e+00 -1.339726209640502930e+00 3.550883829593658447e-01
-7.310807228088378906e+00 -1.590087890625000000e+00 2.808806002140045166e-01
-7.777133464813232422e+00 -8.229852914810180664e-01 2.321086972951889038e-01
-7.490766048431396484e+00 -1.067511200904846191e+00 1.532098948955535889e-01
-6.427808284759521484e+00 -1.154301404953002930e+00 6.953103095293045044e-02
-4.764964580535888672e+00 -1.034629583358764648e+00 5.957156885415315628e-03
-9.056341171264648438e+00 -1.237192988395690918e+00 5.158319473266601562e-01
-7.511988639831542969e+00 -1.305521845817565918e+00 3.582328259944915771e-01
-7.344870090484619141e+00 -1.550359249114990234e+00 2.818185091018676758e-01
-7.783030986785888672e+00 -7.753492593765258789e-01 2.321383655071258545e-01
-7.371363639831542969e+00 -1.004386186599731445e+00 1.506388634443283081e-01
-6.373683452606201172e+00 -1.104256033897399902e+00 6.887096911668777466e-02
-4.917999267578125000e+00 -1.036301016807556152e+00 6.140416022390127182e-03
-8.888525962829589844e+00 -1.158756375312805176e+00 5.058589577674865723e-01
-7.517887592315673828e+00 -1.259074568748474121e+00 3.581389486789703369e-01
-7.386551856994628906e+00 -1.511875391006469727e+00 2.830565273761749268e-01
-7.799584865570068359e+00 -7.286946773529052734e-01 2.324943691492080688e-01
-7.646070957183837891e+00 -9.940689802169799805e-01 1.561250984668731689e-01
-6.487845420837402344e+00 -1.083073973655700684e+00 7.003141194581985474e-02
-5.041836738586425781e+00 -1.030126929283142090e+00 6.287023890763521194e-03
-9.178839683532714844e+00 -1.139370441436767578e+00 5.219734311103820801e-01
-7.531388759613037109e+00 -1.213875770568847656e+00 3.584205508232116699e-01
-7.400589942932128906e+00 -1.467495679855346680e+00 2.832441031932830811e-01
-7.816854476928710938e+00 -6.819529533386230469e-01 2.328800261020660400e-01
-7.662940979003906250e+00 -9.484858512878417969e-01 1.563477963209152222e-01
-6.838931560516357422e+00 -1.098595023155212402e+00 7.374697923660278320e-02
-5.049043655395507812e+00 -9.993655085563659668e-01 6.288245785981416702e-03
-9.786466598510742188e+00 -7.950294613838195801e-01 6.469942331314086914e-01
-9.324473381042480469e+00 -1.099395632743835449e+00 5.298616290092468262e-01
-7.555476188659667969e+00 -1.170240283012390137e+00 3.592183887958526611e-01
-7.417306423187255859e+00 -1.423565745353698730e+00 2.835442423820495605e-01
-7.850780487060546875e+00 -6.363996863365173340e-01 2.337700277566909790e-01
-7.618968486785888672e+00 -8.956128954887390137e-01 1.553355604410171509e-01
-6.898908615112304688e+00 -1.064848303794860840e+00 7.432187348604202271e-02
-5.016777038574218750e+00 -9.610288143157958984e-01 6.240597926080226898e-03
-7.869471073150634766e+00 -8.789216279983520508e-01 4.468664824962615967e-01
-7.582275390625000000e+00 -1.126795411109924316e+00 3.601570427417755127e-01
-7.420006752014160156e+00 -1.376933217048645020e+00 2.833191454410552979e-01
-7.870485782623291016e+00 -5.894105434417724609e-01 2.342446744441986084e-01
-7.561719894409179688e+00 -8.418773412704467773e-01 1.540601551532745361e-01
-6.709459304809570312e+00 -9.934965372085571289e-01 7.221391052007675171e-02
-4.927201271057128906e+00 -9.125635027885437012e-01 6.122089922428131104e-03
-9.097971916198730469e+00 -9.596471190452575684e-01 5.162826180458068848e-01
-7.602891445159912109e+00 -1.082220911979675293e+00 3.608140647411346436e-01
