-1.513242840766906738e+00 -4.694893836975097656e+00 4.584648609161376953e-01
-1.907633423805236816e+00 -6.748176097869873047e+00 5.851692557334899902e-01
-2.116473197937011719e+00 -5.826033115386962891e+00 4.084479808807373047e-01
-1.870686292648315430e+00 -5.796944618225097656e+00 3.437564671039581299e-01
-1.765968084335327148e+00 -6.238720893859863281e+00 3.046363294124603271e-01
-1.796386837959289551e+00 -4.862376213073730469e+00 1.527582764625549316e+00
-1.565872907638549805e+00 -4.786108493804931641e+00 1.426872730255126953e+00
-1.948387384414672852e+00 -6.800853729248046875e+00 1.930042743682861328e+00
-1.812607407569885254e+00 -4.908916950225830078e+00 1.328981637954711914e+00
-1.559510707855224609e+00 -4.761038303375244141e+00 1.218514442443847656e+00
-1.945213079452514648e+00 -6.776370525360107422e+00 1.643189907073974609e+00
-1.788333535194396973e+00 -4.845780849456787109e+00 1.109218001365661621e+00
-1.546312332153320312e+00 -4.715180397033691406e+00 1.014995574951171875e+00
-1.953885436058044434e+00 -6.788707256317138672e+00 1.375718474388122559e+00
-1.777156114578247070e+00 -4.812907218933105469e+00 9.064979553222656250e-01
-1.540981769561767578e+00 -4.693392276763916016e+00 8.231099843978881836e-01
-1.948296904563903809e+00 -6.764847755432128906e+00 1.104923725128173828e+00
-1.772481083869934082e+00 -4.797669410705566406e+00 7.124417424201965332e-01
-1.547216534614562988e+00 -4.706837177276611328e+00 6.417334079742431641e-01
-1.967861652374267578e+00 -6.810427188873291016e+00 8.515910506248474121e-01
-1.684126734733581543e+00 -6.736347675323486328e+00 7.678158879280090332e-01
-1.781611323356628418e+00 -4.817209243774414062e+00 5.262359976768493652e-01
-1.560697674751281738e+00 -4.742268562316894531e+00 4.640175104141235352e-01
-1.938201904296875000e+00 -6.699010372161865234e+00 5.819261670112609863e-01
-2.095362424850463867e+00 -5.659472465515136719e+00 3.976647555828094482e-01
-1.910907149314880371e+00 -5.799581050872802734e+00 3.446016311645507812e-01
-1.791428923606872559e+00 -6.183632850646972656e+00 3.024774491786956787e-01
-1.803546547889709473e+00 -4.791115283966064453e+00 1.508643507957458496e+00
-1.600086927413940430e+00 -4.791011810302734375e+00 1.431234717369079590e+00
-1.417182326316833496e+00 -4.834441661834716797e+00 1.374428272247314453e+00
-1.770637273788452148e+00 -6.988193988800048828e+00 1.895286679267883301e+00
-1.852932929992675781e+00 -4.924917221069335938e+00 1.336366295814514160e+00
-1.599478960037231445e+00 -4.783633232116699219e+00 1.226786136627197266e+00
-1.412053823471069336e+00 -4.807620525360107422e+00 1.167870163917541504e+00
-1.771461844444274902e+00 -6.965910434722900391e+00 1.606625080108642578e+00
-1.830077528953552246e+00 -4.866746425628662109e+00 1.116566658020019531e+00
-1.592631101608276367e+00 -4.757630348205566406e+00 1.026217699050903320e+00
-1.979976296424865723e+00 -6.723861694335937500e+00 1.365013837814331055e+00
-1.813936352729797363e+00 -4.821268081665039062e+00 9.101518392562866211e-01
-1.573825716972351074e+00 -4.696007251739501953e+00 8.252466320991516113e-01
-1.390269041061401367e+00 -4.718217849731445312e+00 7.720200419425964355e-01
-1.788686394691467285e+00 -6.987670898437500000e+00 1.063832521438598633e+00
-1.810957908630371094e+00 -4.810803890228271484e+00 7.160288095474243164e-01
-1.589317440986633301e+00 -4.736743450164794922e+00 6.471282243728637695e-01
-1.382523417472839355e+00 -4.676873683929443359e+00 5.858564376831054688e-01
-1.639478206634521484e+00 -6.390844345092773438e+00 7.295679450035095215e-01
-1.820256233215332031e+00 -4.830389976501464844e+00 5.288860201835632324e-01
-1.590717434883117676e+00 -4.735434532165527344e+00 4.642951488494873047e-01
-1.962016940116882324e+00 -6.628703117370605469e+00 5.768536925315856934e-01
-1.746668934822082520e+00 -6.793903350830078125e+00 5.188305377960205078e-01
-2.136740446090698242e+00 -5.664247512817382812e+00 3.989140391349792480e-01
-1.910812020301818848e+00 -5.681757926940917969e+00 3.382910788059234619e-01
-1.743050456047058105e+00 -5.881376743316650391e+00 2.882100939750671387e-01
-1.879960894584655762e+00 -4.902659893035888672e+00 1.547370195388793945e+00
-1.632557511329650879e+00 -4.790210247039794922e+00 1.433960795402526855e+00
-1.422714829444885254e+00 -4.745258331298828125e+00 1.351529955863952637e+00
-1.802048087120056152e+00 -6.933204650878906250e+00 1.883336305618286133e+00
-1.893175721168518066e+00 -4.939701080322265625e+00 1.343504667282104492e+00
-1.633507251739501953e+00 -4.787523269653320312e+00 1.230330944061279297e+00
-1.410146117210388184e+00 -4.694400310516357422e+00 1.142447233200073242e+00
-1.808012366294860840e+00 -6.931301593780517578e+00 1.601171374320983887e+00
-1.862702727317810059e+00 -4.862730026245117188e+00 1.118246316909790039e+00
-1.630027413368225098e+00 -4.771873950958251953e+00 1.031427979469299316e+00
-1.403317332267761230e+00 -4.659857749938964844e+00 9.477298259735107422e-01
-1.798683404922485352e+00 -6.870981216430664062e+00 1.313808083534240723e+00
-1.857933878898620605e+00 -4.847747325897216797e+00 9.172855019569396973e-01
-1.607717156410217285e+00 -4.701195240020751953e+00 8.278763294219970703e-01
-1.398385643959045410e+00 -4.640548229217529297e+00 7.607010006904602051e-01
-1.805654168128967285e+00 -6.878006458282470703e+00 1.048803687095642090e+00
-1.857463955879211426e+00 -4.843991279602050781e+00 7.226510643959045410e-01
-1.625097513198852539e+00 -4.746605873107910156e+00 6.498256921768188477e-01
-1.410906910896301270e+00 -4.667352199554443359e+00 5.857372283935546875e-01
-1.472305417060852051e+00 -5.596298217773437500e+00 6.398832201957702637e-01
-1.864120483398437500e+00 -4.856279373168945312e+00 5.329629778861999512e-01
-1.626200675964355469e+00 -4.744422912597656250e+00 4.661460220813751221e-01
-1.996013164520263672e+00 -6.594602108001708984e+00 5.749410986900329590e-01
-1.782983660697937012e+00 -6.762807369232177734e+00 5.172815918922424316e-01
-2.071239948272705078e+00 -5.390227794647216797e+00 3.805036246776580811e-01
-1.953415989875793457e+00 -5.692591190338134766e+00 3.396433293819427490e-01
-1.941759586334228516e+00 -4.972340583801269531e+00 1.573093652725219727e+00
-1.682456016540527344e+00 -4.839172840118408203e+00 1.451680898666381836e+00
-1.455197095870971680e+00 -4.747508049011230469e+00 1.354688405990600586e+00
-1.829364657402038574e+00 -6.865010738372802734e+00 1.867826104164123535e+00
-1.936488747596740723e+00 -4.961399078369140625e+00 1.352612376213073730e+00
-1.665088057518005371e+00 -4.783833980560302734e+00 1.231985330581665039e+00
-1.438351988792419434e+00 -4.683797359466552734e+00 1.141993165016174316e+00
-1.838658690452575684e+00 -6.875766277313232422e+00 1.590918660163879395e+00
-1.914890885353088379e+00 -4.908593177795410156e+00 1.131473779678344727e+00
-1.667980670928955078e+00 -4.786761283874511719e+00 1.036838650703430176e+00
-1.431305646896362305e+00 -4.649283409118652344e+00 9.473475813865661621e-01
-1.833928108215332031e+00 -6.834173202514648438e+00 1.308897018432617188e+00
-1.899459838867187500e+00 -4.866528511047363281e+00 9.230272173881530762e-01
-1.648554325103759766e+00 -4.725702285766601562e+00 8.339576721191406250e-01
-1.427996635437011719e+00 -4.635657310485839844e+00 7.613213062286376953e-01
-1.839596629142761230e+00 -6.836227416992187500e+00 1.044134616851806641e+00
-1.898680210113525391e+00 -4.862025737762451172e+00 7.270659208297729492e-01
-1.656153440475463867e+00 -4.742162704467773438e+00 6.505963802337646484e-01
-1.442743062973022461e+00 -4.669042110443115234e+00 5.870491862297058105e-01
-1.393011569976806641e+00 -5.165866851806640625e+00 5.916336774826049805e-01
-1.908732891082763672e+00 -4.882737159729003906e+00 5.371419191360473633e-01
-1.659224748611450195e+00 -4.745634555816650391e+00 4.672565758228302002e-01
-1.955441117286682129e+00 -6.320426464080810547e+00 5.520731806755065918e-01
-1.820543527603149414e+00 -6.737298488616943359e+00 5.161751508712768555e-01
-2.033004999160766602e+00 -5.195289134979248047e+00 3.676163256168365479e-01
-1.956313371658325195e+00 -5.589089870452880859e+00 3.341779410839080811e-01
-1.805338978767395020e+00 -5.828056812286376953e+00 2.866613566875457764e-01
-1.981092691421508789e+00 -4.982616424560546875e+00 1.580160617828369141e+00
-1.491797804832458496e+00 -4.762426376342773438e+00 1.361531615257263184e+00
-1.868396043777465820e+00 -6.842460632324218750e+00 1.864774942398071289e+00
-1.983002305030822754e+00 -4.989955902099609375e+00 1.363689303398132324e+00
-1.712611675262451172e+00 -4.824805736541748047e+00 1.245219707489013672e+00
-1.478145122528076172e+00 -4.710194110870361328e+00 1.150618791580200195e+00
-1.877976298332214355e+00 -6.854001998901367188e+00 1.588519215583801270e+00
-1.962658166885375977e+00 -4.941275119781494141e+00 1.141761779785156250e+00
-1.697648286819458008e+00 -4.777359962463378906e+00 1.037039041519165039e+00
-1.473650217056274414e+00 -4.684420585632324219e+00 9.563316702842712402e-01
-1.878955245018005371e+00 -6.834168910980224609e+00 1.311079740524291992e+00
-1.950741171836853027e+00 -4.908774852752685547e+00 9.332927465438842773e-01
-1.686446070671081543e+00 -4.740590572357177734e+00 8.383953571319580078e-01
-1.468575119972229004e+00 -4.665443420410156250e+00 7.676784992218017578e-01
-1.875460982322692871e+00 -6.802875995635986328e+00 1.040778636932373047e+00
-1.943480491638183594e+00 -4.888018608093261719e+00 7.327224016189575195e-01
-1.693204879760742188e+00 -4.754333019256591797e+00 6.536791920661926270e-01
-1.474652767181396484e+00 -4.670516014099121094e+00 5.883611440658569336e-01
-1.406685352325439453e+00 -5.092074394226074219e+00 5.841599106788635254e-01
-1.940128207206726074e+00 -4.874630451202392578e+00 5.375496149063110352e-01
-1.700684547424316406e+00 -4.770066261291503906e+00 4.706807136535644531e-01
-1.834386587142944336e+00 -5.802808284759521484e+00 5.078341364860534668e-01
-1.870628356933593750e+00 -6.757718086242675781e+00 5.186092257499694824e-01
-2.057458162307739258e+00 -5.164177894592285156e+00 3.663012981414794922e-01
-1.947611093521118164e+00 -5.456621646881103516e+00 3.269658684730529785e-01
-1.851313471794128418e+00 -5.849248886108398438e+00 2.882570326328277588e-01
-2.045815229415893555e+00 -5.054836750030517578e+00 1.607014894485473633e+00
-1.764281988143920898e+00 -4.880594253540039062e+00 1.470491290092468262e+00
-1.524519801139831543e+00 -4.764209270477294922e+00 1.364690065383911133e+00
-1.893674969673156738e+00 -6.771258354187011719e+00 1.848502039909362793e+00
-2.033209800720214844e+00 -5.026213169097900391e+00 1.376981616020202637e+00
-1.755740523338317871e+00 -4.851667881011962891e+00 1.254909276962280273e+00
-1.512369990348815918e+00 -4.717729091644287109e+00 1.154704689979553223e+00
-1.908658742904663086e+00 -6.801945686340332031e+00 1.579138994216918945e+00
-2.006866693496704102e+00 -4.963583469390869141e+00 1.149740219116210938e+00
-1.739276766777038574e+00 -4.800935268402099609e+00 1.044453620910644531e+00
-1.511974930763244629e+00 -4.705194473266601562e+00 9.624485373497009277e-01
-1.912059426307678223e+00 -6.791275978088378906e+00 1.305077195167541504e+00
-1.993748903274536133e+00 -4.928663730621337891e+00 9.393824338912963867e-01
-1.724918603897094727e+00 -4.756117343902587891e+00 8.429973721504211426e-01
-1.504734039306640625e+00 -4.679856777191162109e+00 7.715549468994140625e-01
-1.912060618400573730e+00 -6.773150444030761719e+00 1.038006424903869629e+00
-1.987927675247192383e+00 -4.911807537078857422e+00 7.381029129028320312e-01
-1.727421641349792480e+00 -4.757836818695068359e+00 6.556059122085571289e-01
-1.527052521705627441e+00 -4.735085010528564453e+00 5.976642370223999023e-01
-1.433033704757690430e+00 -5.066132068634033203e+00 5.821815729141235352e-01
-1.993534326553344727e+00 -4.920720577239990234e+00 5.439708828926086426e-01
-1.738424301147460938e+00 -4.782936096191406250e+00 4.729942977428436279e-01
-1.595296740531921387e+00 -4.940792560577392578e+00 4.332431256771087646e-01
-1.899004340171813965e+00 -6.700057983398437500e+00 5.150687694549560547e-01
-2.090606212615966797e+00 -5.155155181884765625e+00 3.665643036365509033e-01
-1.975251913070678711e+00 -5.428618431091308594e+00 3.260080218315124512e-01
-1.870884299278259277e+00 -5.787404537200927734e+00 2.857696413993835449e-01
-1.709532141685485840e+00 -6.019547939300537109e+00 2.349237799644470215e-01
-2.091039657592773438e+00 -5.076778888702392578e+00 1.618039250373840332e+00
-1.763926625251770020e+00 -4.787522792816162109e+00 1.445683360099792480e+00
-1.558817863464355469e+00 -4.770354270935058594e+00 1.369164347648620605e+00
-1.943438649177551270e+00 -6.788334369659423828e+00 1.856384158134460449e+00
-2.078401565551757812e+00 -5.048596858978271484e+00 1.386581540107727051e+00
-1.790856719017028809e+00 -4.855389595031738281e+00 1.258690476417541504e+00
-1.547045707702636719e+00 -4.725946426391601562e+00 1.159017562866210938e+00
-1.947395086288452148e+00 -6.779788494110107422e+00 1.576739430427551270e+00
-2.053282499313354492e+00 -4.990055084228515625e+00 1.158768534660339355e+00
-1.777185916900634766e+00 -4.813149929046630859e+00 1.049463510513305664e+00
-1.548773527145385742e+00 -4.720077037811279297e+00 9.674184918403625488e-01
-1.958595156669616699e+00 -6.796423912048339844e+00 1.308351278305053711e+00
-2.044196367263793945e+00 -4.965510368347167969e+00 9.487780332565307617e-01
-1.771510720252990723e+00 -4.792630195617675781e+00 8.513796925544738770e-01
-1.541741132736206055e+00 -4.695878028869628906e+00 7.757413983345031738e-01
-1.951112389564514160e+00 -6.752737045288085938e+00 1.036693215370178223e+00
-2.036511421203613281e+00 -4.944391250610351562e+00 7.448630928993225098e-01
-1.776543855667114258e+00 -4.801093101501464844e+00 6.630559563636779785e-01
-1.543035387992858887e+00 -4.686017990112304688e+00 5.926548838615417480e-01
-1.354637265205383301e+00 -4.679167270660400391e+00 5.386580824851989746e-01
-2.052507400512695312e+00 -4.978291988372802734e+00 5.517171025276184082e-01
-1.776731729507446289e+00 -4.796455860137939453e+00 4.754004478454589844e-01
-1.572228789329528809e+00 -4.769071102142333984e+00 4.190234243869781494e-01
-1.920075654983520508e+00 -6.619318962097167969e+00 5.097579956054687500e-01
-2.164451837539672852e+00 -5.244613647460937500e+00 3.738627433776855469e-01
-1.992902994155883789e+00 -5.374270915985107422e+00 3.234725296497344971e-01
-1.900098323822021484e+00 -5.756844997406005859e+00 2.848309874534606934e-01
-1.743367433547973633e+00 -5.998389720916748047e+00 2.345111072063446045e-01
-2.132531642913818359e+00 -5.088623523712158203e+00 1.625954151153564453e+00
-1.847036719322204590e+00 -4.919826984405517578e+00 1.489029288291931152e+00
-1.413002133369445801e+00 -4.823494911193847656e+00 1.321411967277526855e+00
-2.123569488525390625e+00 -5.069720268249511719e+00 1.395935416221618652e+00
-1.835655927658081055e+00 -4.884330272674560547e+00 1.269088983535766602e+00
-1.591138601303100586e+00 -4.761625289916992188e+00 1.170140027999877930e+00
-2.091791629791259766e+00 -4.996301651000976562e+00 1.163177728652954102e+00
-1.829799294471740723e+00 -4.863591194152832031e+00 1.062889814376831055e+00
-1.583629250526428223e+00 -4.728168964385986328e+00 9.710503816604614258e-01
-1.397651672363281250e+00 -4.740411758422851562e+00 9.141906499862670898e-01
-2.089463472366333008e+00 -4.988296985626220703e+00 9.555637240409851074e-01
-1.808532834053039551e+00 -4.801978588104248047e+00 8.549956083297729492e-01
-1.581826448440551758e+00 -4.720050811767578125e+00 7.813233733177185059e-01
-1.381716370582580566e+00 -4.674331188201904297e+00 7.189003825187683105e-01
-2.085186243057250977e+00 -4.975648403167724609e+00 7.514853477478027344e-01
-1.810867428779602051e+00 -4.803093433380126953e+00 6.648542881011962891e-01
-1.582513809204101562e+00 -4.708460330963134766e+00 5.967100858688354492e-01
-1.380782365798950195e+00 -4.662190437316894531e+00 5.376689434051513672e-01
-2.235787630081176758e+00 -5.329791545867919922e+00 5.921811461448669434e-01
-1.824411630630493164e+00 -4.833905220031738281e+00 4.802127480506896973e-01
-1.929447770118713379e+00 -6.502244949340820312e+00 5.016443729400634766e-01
-2.154869318008422852e+00 -5.131871700286865234e+00 3.667615652084350586e-01
-2.002551794052124023e+00 -5.300299167633056641e+00 3.197537958621978760e-01
-1.935067057609558105e+00 -5.744131088256835938e+00 2.847840487957000732e-01
-1.757357954978942871e+00 -5.910951137542724609e+00 2.315098494291305542e-01
-2.167476415634155273e+00 -5.084266185760498047e+00 1.628780841827392578e+00
-1.886468768119812012e+00 -4.932664394378662109e+00 1.496389865875244141e+00
-1.634649872779846191e+00 -4.802010059356689453e+00 1.383903622627258301e+00
-1.418700218200683594e+00 -4.735060214996337891e+00 1.299545168876647949e+00
-2.164515256881713867e+00 -5.079777717590332031e+00 1.402335405349731445e+00
-1.889214873313903809e+00 -4.934681415557861328e+00 1.285159349441528320e+00
-1.630383729934692383e+00 -4.781270027160644531e+00 1.177403807640075684e+00
-1.409065008163452148e+00 -4.688017368316650391e+00 1.094206571578979492e+00
-2.133135795593261719e+00 -5.008559226989746094e+00 1.169056534767150879e+00
-1.869073629379272461e+00 -4.876972675323486328e+00 1.068300485610961914e+00
-1.627213358879089355e+00 -4.761088371276855469e+00 9.798433780670166016e-01
-1.411099314689636230e+00 -4.679966449737548828e+00 9.041866064071655273e-01
-1.850329399108886719e+00 -4.823024749755859375e+00 8.607482314109802246e-01
-1.614594221115112305e+00 -4.721473217010498047e+00 7.831840515136718750e-01
-1.406077742576599121e+00 -4.651560306549072266e+00 7.167117595672607422e-01
-2.191028833389282227e+00 -5.139513969421386719e+00 7.782502174377441406e-01
-1.841371297836303711e+00 -4.794669151306152344e+00 6.652396321296691895e-01
-1.611374616622924805e+00 -4.698661804199218750e+00 5.967100858688354492e-01
-1.406770229339599609e+00 -4.645068645477294922e+00 5.366797447204589844e-01
-2.267667531967163086e+00 -5.314142704010009766e+00 5.919772386550903320e-01
-1.868329644203186035e+00 -4.859795570373535156e+00 4.839145243167877197e-01
-1.637106299400329590e+00 -4.768268585205078125e+00 4.206865429878234863e-01
-1.950776696205139160e+00 -6.429207801818847656e+00 4.969237148761749268e-01
-2.173382759094238281e+00 -5.088271617889404297e+00 3.645917475223541260e-01
-2.042566776275634766e+00 -5.307479381561279297e+00 3.209370374679565430e-01
-2.027423143386840820e+00 -5.898408412933349609e+00 2.930441200733184814e-01
-1.781095743179321289e+00 -5.858944892883300781e+00 2.298966646194458008e-01
-2.226105451583862305e+00 -5.134235382080078125e+00 1.649133563041687012e+00
-1.942190289497375488e+00 -4.986442089080810547e+00 1.516290903091430664e+00
-1.680224299430847168e+00 -4.838367938995361328e+00 1.397326707839965820e+00
-1.453675866127014160e+00 -4.745685577392578125e+00 1.304884910583496094e+00
-2.206434726715087891e+00 -5.091301441192626953e+00 1.409227728843688965e+00
-1.928635239601135254e+00 -4.946534156799316406e+00 1.291303992271423340e+00
-1.665769815444946289e+00 -4.788652896881103516e+00 1.181716680526733398e+00
-1.447262763977050781e+00 -4.710067749023437500e+00 1.101405262947082520e+00
-2.229892730712890625e+00 -5.147893428802490234e+00 1.204749822616577148e+00
-1.910005569458007812e+00 -4.893705368041992188e+00 1.074512720108032227e+00
-1.665120840072631836e+00 -4.776039123535156250e+00 9.850044250488281250e-01
-1.439788579940795898e+00 -4.671220302581787109e+00 9.041866064071655273e-01
-2.236666440963745117e+00 -5.161060810089111328e+00 9.938419461250305176e-01
-1.897118330001831055e+00 -4.855680942535400391e+00 8.686374425888061523e-01
-1.649065971374511719e+00 -4.727334976196289062e+00 7.858200073242187500e-01
-1.422326326370239258e+00 -4.603147029876708984e+00 7.105835080146789551e-01
-2.240252971649169922e+00 -5.166864871978759766e+00 7.844585776329040527e-01
-1.893512845039367676e+00 -4.841466426849365234e+00 6.733319163322448730e-01
-1.652960419654846191e+00 -4.725235939025878906e+00 6.013616323471069336e-01
-1.447002410888671875e+00 -4.674329280853271484e+00 5.410760641098022461e-01
-2.180625915527343750e+00 -5.024536132812500000e+00 5.611960291862487793e-01
-1.905010581016540527e+00 -4.865856647491455078e+00 4.856728911399841309e-01
-1.654804825782775879e+00 -4.725215435028076172e+00 4.177761077880859375e-01
-1.974236488342285156e+00 -6.365680694580078125e+00 4.929406344890594482e-01
-2.176335096359252930e+00 -5.009860515594482422e+00 3.599234223365783691e-01
-2.071815490722656250e+00 -5.286480426788330078e+00 3.204299211502075195e-01
-2.094642877578735352e+00 -5.974465847015380859e+00 2.974557280540466309e-01
-1.814047098159790039e+00 -5.838363170623779297e+00 2.295215129852294922e-01
-2.261049270629882812e+00 -5.128378868103027344e+00 1.651677727699279785e+00
-1.978070139884948730e+00 -4.987846374511718750e+00 1.520380020141601562e+00
-1.722119092941284180e+00 -4.862524509429931641e+00 1.407328248023986816e+00
-1.487390160560607910e+00 -4.751443862915039062e+00 1.308953046798706055e+00
-2.250921726226806641e+00 -5.107822895050048828e+00 1.417596936225891113e+00
-1.974007964134216309e+00 -4.972537517547607422e+00 1.301229715347290039e+00
-1.704563736915588379e+00 -4.804959297180175781e+00 1.188299298286437988e+00
-1.483737468719482422e+00 -4.725307464599609375e+00 1.107077002525329590e+00
-2.259861230850219727e+00 -5.130534648895263672e+00 1.203909873962402344e+00
-1.964961290359497070e+00 -4.944715023040771484e+00 1.088339805603027344e+00
-1.702286243438720703e+00 -4.787928581237792969e+00 9.895920157432556152e-01
-1.474331498146057129e+00 -4.681056022644042969e+00 9.078244566917419434e-01
-2.265909433364868164e+00 -5.141832828521728516e+00 9.927980303764343262e-01
-1.934532880783081055e+00 -4.863196849822998047e+00 8.720889091491699219e-01
-1.687643289566040039e+00 -4.744119644165039062e+00 7.903165817260742188e-01
-1.474372148513793945e+00 -4.669804573059082031e+00 7.222563624382019043e-01
-2.280304908752441406e+00 -5.172052860260009766e+00 7.873557806015014648e-01
-1.958771228790283203e+00 -4.919128894805908203e+00 6.857915520668029785e-01
-1.688260912895202637e+00 -4.732772350311279297e+00 6.036278009414672852e-01
-1.473857879638671875e+00 -4.659676551818847656e+00 5.404165983200073242e-01
-2.207398653030395508e+00 -5.001960754394531250e+00 5.601768493652343750e-01
-1.953633666038513184e+00 -4.901248455047607422e+00 4.903926551342010498e-01
-1.704546093940734863e+00 -4.773159503936767578e+00 4.229318201541900635e-01
-1.984338402748107910e+00 -6.262181282043457031e+00 4.858596622943878174e-01
-2.230418682098388672e+00 -5.049351692199707031e+00 3.637369871139526367e-01
-2.086823701858520508e+00 -5.230084896087646484e+00 3.177817463874816895e-01
-2.131262063980102539e+00 -5.961500644683837891e+00 2.974557280540466309e-01
-1.861628293991088867e+00 -5.864267826080322266e+00 2.309846132993698120e-01
-3.063034772872924805e+00 -6.931003093719482422e+00 2.248998135328292847e-01
-2.295220375061035156e+00 -5.120535850524902344e+00 1.653656482696533203e+00
-2.032408714294433594e+00 -5.034498691558837891e+00 1.538372755050659180e+00
-1.758803129196166992e+00 -4.870921611785888672e+00 1.412855505943298340e+00
-1.526826858520507812e+00 -4.774468898773193359e+00 1.317852258682250977e+00
-2.285786867141723633e+00 -5.101875782012939453e+00 1.419812202453613281e+00
-2.021956443786621094e+00 -5.003574848175048828e+00 1.312573671340942383e+00
-1.749251127243041992e+00 -4.836538314819335938e+00 1.198740959167480469e+00
-1.516578316688537598e+00 -4.728195190429687500e+00 1.109912872314453125e+00
-2.271319150924682617e+00 -5.071956157684326172e+00 1.193411946296691895e+00
-2.003714323043823242e+00 -4.953454494476318359e+00 1.092948913574218750e+00
-1.740329027175903320e+00 -4.801386356353759766e+00 9.945619702339172363e-01
-1.515975475311279297e+00 -4.712172508239746094e+00 9.156458973884582520e-01
-2.276479482650756836e+00 -5.081101894378662109e+00 9.837504029273986816e-01
-1.986549139022827148e+00 -4.906092643737792969e+00 8.819504976272583008e-01
-1.719415307044982910e+00 -4.741104602813720703e+00 7.915570139884948730e-01
-1.510588645935058594e+00 -4.684208869934082031e+00 7.259041070938110352e-01
-2.282828569412231445e+00 -5.092890739440917969e+00 7.774224281311035156e-01
-2.009406566619873047e+00 -4.957567214965820312e+00 6.928562521934509277e-01
-1.742377996444702148e+00 -4.791372299194335938e+00 6.124537587165832520e-01
-1.515865921974182129e+00 -4.692161083221435547e+00 5.452525615692138672e-01
-2.232754707336425781e+00 -4.976523399353027344e+00 5.588518381118774414e-01
-1.996772527694702148e+00 -4.921461582183837891e+00 4.936316907405853271e-01
-1.739255905151367188e+00 -4.777593135833740234e+00 4.242622852325439453e-01
-2.012591600418090820e+00 -6.218576908111572266e+00 4.834255576133728027e-01
-2.256044864654541016e+00 -5.023737430572509766e+00 3.628822267055511475e-01
-2.106477975845336914e+00 -5.186655521392822266e+00 3.159224092960357666e-01
-2.067243337631225586e+00 -5.672387599945068359e+00 2.836576700210571289e-01
-1.846723079681396484e+00 -5.695888519287109375e+00 2.247945219278335571e-01
-3.115336418151855469e+00 -6.933960914611816406e+00 2.256118059158325195e-01
-2.336936473846435547e+00 -5.129051208496093750e+00 1.661006093025207520e+00
-2.073864936828613281e+00 -5.047741413116455078e+00 1.546278715133666992e+00
-1.790656685829162598e+00 -4.865470409393310547e+00 1.414434671401977539e+00
-1.566902041435241699e+00 -4.798107624053955078e+00 1.327005863189697266e+00
-2.321868896484375000e+00 -5.098339557647705078e+00 1.422766089439392090e+00
-2.069989681243896484e+00 -5.033310413360595703e+00 1.323681116104125977e+00
-1.785631537437438965e+00 -4.843989849090576172e+00 1.203280806541442871e+00
-1.542523741722106934e+00 -4.709526062011718750e+00 1.107731342315673828e+00
-2.308878421783447266e+00 -5.072161674499511719e+00 1.196771264076232910e+00
-2.054582834243774414e+00 -4.990893840789794922e+00 1.103970646858215332e+00
-1.778940796852111816e+00 -4.815477371215820312e+00 9.997230768203735352e-01
-1.550077319145202637e+00 -4.718663215637207031e+00 9.187380075454711914e-01
-2.310878753662109375e+00 -5.074207305908203125e+00 9.851423501968383789e-01
-2.039163827896118164e+00 -4.948531150817871094e+00 8.918120265007019043e-01
-1.776901602745056152e+00 -4.807375907897949219e+00 8.044266104698181152e-01
-1.547655940055847168e+00 -4.700222969055175781e+00 7.298436760902404785e-01
-2.293091773986816406e+00 -5.032821655273437500e+00 7.703862786293029785e-01
-2.058695793151855469e+00 -4.990983963012695312e+00 6.992787122726440430e-01
-1.784855842590332031e+00 -4.815968036651611328e+00 6.169860959053039551e-01
-1.549298167228698730e+00 -4.696930408477783203e+00 5.469011664390563965e-01
-2.272329092025756836e+00 -4.982641696929931641e+00 5.610941648483276367e-01
-2.040992736816406250e+00 -4.943170070648193359e+00 4.970558583736419678e-01
-1.786216378211975098e+00 -4.814481258392333984e+00 4.285032451152801514e-01
-2.038194417953491211e+00 -6.168233871459960938e+00 4.804751574993133545e-01
-2.294286012649536133e+00 -5.026139736175537109e+00 3.640657663345336914e-01
-2.113093376159667969e+00 -5.112734317779541016e+00 3.122036755084991455e-01
-2.070013523101806641e+00 -5.573447704315185547e+00 2.793399393558502197e-01
-2.376021862030029297e+00 -5.131153583526611328e+00 1.666376948356628418e+00
-2.124836921691894531e+00 -5.082856178283691406e+00 1.560999870300292969e+00
-1.825558423995971680e+00 -4.867941379547119141e+00 1.418382763862609863e+00
-1.605795145034790039e+00 -4.816845417022705078e+00 1.334888100624084473e+00
-2.359622001647949219e+00 -5.098070144653320312e+00 1.426704645156860352e+00
-2.115462779998779297e+00 -5.055472850799560547e+00 1.332898020744323730e+00
-1.833469867706298828e+00 -4.881262302398681641e+00 1.215311288833618164e+00
-1.584079384803771973e+00 -4.737920761108398438e+00 1.116675376892089844e+00
-2.344472885131835938e+00 -5.067659854888916016e+00 1.199080824851989746e+00
-2.096522569656372070e+00 -5.005302429199218750e+00 1.109982371330261230e+00
-1.828164339065551758e+00 -4.856833934783935547e+00 1.010618686676025391e+00
-1.588379740715026855e+00 -4.737032413482666016e+00 9.241948127746582031e-01
-2.327492952346801758e+00 -5.028654575347900391e+00 9.790526628494262695e-01
-2.091228961944580078e+00 -4.987777709960937500e+00 9.011805057525634766e-01
-1.811240196228027344e+00 -4.809325695037841797e+00 8.065973520278930664e-01
-1.592540502548217773e+00 -4.738463878631591797e+00 7.372851371765136719e-01
-2.323929309844970703e+00 -5.018656730651855469e+00 7.703862786293029785e-01
-2.087362051010131836e+00 -4.973685741424560547e+00 6.986364722251892090e-01
-1.821738004684448242e+00 -4.824431419372558594e+00 6.194907426834106445e-01
-1.577454566955566406e+00 -4.685451507568359375e+00 5.466814041137695312e-01
-2.327121973037719727e+00 -5.020954132080078125e+00 5.670057535171508789e-01
-2.223613739013671875e+00 -5.293161869049072266e+00 5.336108803749084473e-01
-1.846379280090332031e+00 -4.884528636932373047e+00 4.357378184795379639e-01
-2.098312377929687500e+00 -6.221760272979736328e+00 4.856383502483367920e-01
-2.334740638732910156e+00 -5.032786846160888672e+00 3.655780553817749023e-01
-2.138232469558715820e+00 -5.084946155548095703e+00 3.113021552562713623e-01
-2.089678049087524414e+00 -5.522337436676025391e+00 2.774157226085662842e-01
-2.409911870956420898e+00 -5.121685504913330078e+00 1.668073058128356934e+00
-2.153725385665893555e+00 -5.064410209655761719e+00 1.559364199638366699e+00
-1.640304207801818848e+00 -4.821551322937011719e+00 1.338956236839294434e+00
-2.402821063995361328e+00 -5.108930587768554688e+00 1.433843016624450684e+00
-2.162807464599609375e+00 -5.080841064453125000e+00 1.343060016632080078e+00
-1.873131394386291504e+00 -4.895389556884765625e+00 1.221667170524597168e+00
-1.621944308280944824e+00 -4.753973960876464844e+00 1.122783303260803223e+00
-2.384674310684204102e+00 -5.072645187377929688e+00 1.203699946403503418e+00
-1.864959120750427246e+00 -4.863854885101318359e+00 1.014441728591918945e+00
-1.630467057228088379e+00 -4.765342235565185547e+00 9.316523671150207520e-01
-2.380517005920410156e+00 -5.061507225036621094e+00 9.882742166519165039e-01
-1.856284856796264648e+00 -4.838706016540527344e+00 8.134198188781738281e-01
-1.629607915878295898e+00 -4.751997470855712891e+00 7.409328222274780273e-01
-2.384618997573852539e+00 -5.067932128906250000e+00 7.801817059516906738e-01
-2.226867437362670898e+00 -5.216166019439697266e+00 7.346023321151733398e-01
-1.859147310256958008e+00 -4.833549499511718750e+00 6.221146583557128906e-01
-1.612632513046264648e+00 -4.694484710693359375e+00 5.488795638084411621e-01
-2.365939378738403320e+00 -5.023680210113525391e+00 5.689423680305480957e-01
-2.157841920852661133e+00 -5.049599647521972656e+00 5.103822350502014160e-01
-1.880970478057861328e+00 -4.885197162628173828e+00 4.368188679218292236e-01
-2.043968915939331055e+00 -5.940010547637939453e+00 4.646166563034057617e-01
-2.372384786605834961e+00 -5.032807350158691406e+00 3.666300773620605469e-01
-2.171748876571655273e+00 -5.077238559722900391e+00 3.116402328014373779e-01
-2.118852853775024414e+00 -5.497294425964355469e+00 2.768056094646453857e-01
-1.922270774841308594e+00 -5.576848983764648438e+00 2.214556187391281128e-01
-2.452048778533935547e+00 -5.129302501678466797e+00 1.675422430038452148e+00
-2.213405847549438477e+00 -5.117329120635986328e+00 1.579810380935668945e+00
-1.680639266967773438e+00 -4.842460632324218750e+00 1.347601175308227539e+00
-2.437466621398925781e+00 -5.101087093353271484e+00 1.435812234878540039e+00
-2.208998203277587891e+00 -5.102250576019287109e+00 1.352276921272277832e+00
-1.920814156532287598e+00 -4.929175376892089844e+00 1.233016610145568848e+00
-1.664556622505187988e+00 -4.782642841339111328e+00 1.131945252418518066e+00
-2.434716463088989258e+00 -5.097618579864501953e+00 1.213148117065429688e+00
-2.247776508331298828e+00 -5.186852455139160156e+00 1.156273484230041504e+00
-1.905836105346679688e+00 -4.880664348602294922e+00 1.020367503166198730e+00
-1.667128682136535645e+00 -4.776601791381835938e+00 9.358359575271606445e-01
-2.424265861511230469e+00 -5.073461055755615234e+00 9.934939146041870117e-01
-2.255908966064453125e+00 -5.200641632080078125e+00 9.445712566375732422e-01
-1.900679111480712891e+00 -4.864951610565185547e+00 8.197770714759826660e-01
-1.660041570663452148e+00 -4.745644569396972656e+00 7.415165305137634277e-01
-2.428912878036499023e+00 -5.080905914306640625e+00 7.844585776329040527e-01
-2.261991024017333984e+00 -5.209681034088134766e+00 7.356299161911010742e-01
-1.905789732933044434e+00 -4.865501880645751953e+00 6.277204155921936035e-01
-1.656197309494018555e+00 -4.726712226867675781e+00 5.538253784179687500e-01
-2.413464784622192383e+00 -5.044065475463867188e+00 5.729174017906188965e-01
-2.182434797286987305e+00 -5.021653175354003906e+00 5.089015364646911621e-01
-1.927279949188232422e+00 -4.915313243865966797e+00 4.405608773231506348e-01
-2.071790695190429688e+00 -5.902891159057617188e+00 4.626988768577575684e-01
-2.413564682006835938e+00 -5.039755344390869141e+00 3.682081103324890137e-01
-2.190116405487060547e+00 -5.034520149230957031e+00 3.098371922969818115e-01
-2.137945413589477539e+00 -5.446996688842773438e+00 2.749283313751220703e-01
-1.998876929283142090e+00 -5.685618877410888672e+00 2.262576371431350708e-01
-3.028331279754638672e+00 -6.954724311828613281e+00 1.535945385694503784e-01
-2.495207786560058594e+00 -5.138320922851562500e+00 1.683337450027465820e+00
-2.247475147247314453e+00 -5.109816551208496094e+00 1.581718683242797852e+00
-1.977033972740173340e+00 -4.990475177764892578e+00 1.464442610740661621e+00
-1.722905874252319336e+00 -4.867613792419433594e+00 1.357517480850219727e+00
-2.475492238998413086e+00 -5.099986553192138672e+00 1.439750671386718750e+00
-2.242612600326538086e+00 -5.093935966491699219e+00 1.353694915771484375e+00
-1.961798071861267090e+00 -4.944454193115234375e+00 1.239826440811157227e+00
-1.707907795906066895e+00 -4.811886787414550781e+00 1.141325473785400391e+00
-2.474057912826538086e+00 -5.099296569824218750e+00 1.217137455940246582e+00
-2.287066459655761719e+00 -5.189996719360351562e+00 1.160080909729003906e+00
-1.959681391716003418e+00 -4.929078102111816406e+00 1.032983541488647461e+00
-1.709924459457397461e+00 -4.804264068603515625e+00 9.432935118675231934e-01
-2.467390775680541992e+00 -5.083295822143554688e+00 9.983657598495483398e-01
-2.282203912734985352e+00 -5.174066543579101562e+00 9.422702193260192871e-01
-1.949116349220275879e+00 -4.900013446807861328e+00 8.276849389076232910e-01
-1.701094508171081543e+00 -4.768913745880126953e+00 7.467692494392395020e-01
-2.468695878982543945e+00 -5.083725929260253906e+00 7.872177958488464355e-01
-2.293113470077514648e+00 -5.193889141082763672e+00 7.353730201721191406e-01
-1.951054573059082031e+00 -4.892449855804443359e+00 6.327297687530517578e-01
-1.704899787902832031e+00 -4.771684646606445312e+00 5.603098869323730469e-01
-2.455240726470947266e+00 -5.051529884338378906e+00 5.754655003547668457e-01
-2.214816093444824219e+00 -5.011810302734375000e+00 5.092716813087463379e-01
-1.958511829376220703e+00 -4.906171798706054688e+00 4.408103227615356445e-01
-2.101922273635864258e+00 -5.873166561126708984e+00 4.613711833953857422e-01
-2.465394973754882812e+00 -5.067921161651611328e+00 3.713641762733459473e-01
-2.249238491058349609e+00 -5.084902286529541016e+00 3.137813210487365723e-01
-2.171327352523803711e+00 -5.433775901794433594e+00 2.749283313751220703e-01
-2.021585941314697266e+00 -5.639382839202880859e+00 2.249070703983306885e-01
-2.545357942581176758e+00 -5.160765647888183594e+00 1.695775151252746582e+00
-2.279964447021484375e+00 -5.098565578460693359e+00 1.582536578178405762e+00
-2.027823925018310547e+00 -5.028355121612548828e+00 1.479181885719299316e+00
-1.759634613990783691e+00 -4.876054763793945312e+00 1.362857103347778320e+00
-2.527738809585571289e+00 -5.127297878265380859e+00 1.451812148094177246e+00
-2.276207923889160156e+00 -5.085401058197021484e+00 1.355112910270690918e+00
-2.005594253540039062e+00 -4.965735435485839844e+00 1.248225092887878418e+00
-1.747362852096557617e+00 -4.828846931457519531e+00 1.147869706153869629e+00
-2.510918378829956055e+00 -5.095421314239501953e+00 1.219866871833801270e+00
-2.284820795059204102e+00 -5.099868297576904297e+00 1.143047451972961426e+00
-2.009036540985107422e+00 -4.964274883270263672e+00 1.042923331260681152e+00
-1.756475925445556641e+00 -4.840824127197265625e+00 9.525700211524963379e-01
-2.505066394805908203e+00 -5.081309318542480469e+00 1.000975608825683594e+00
-2.288480758666992188e+00 -5.103262901306152344e+00 9.319155812263488770e-01
-1.989526867866516113e+00 -4.913600921630859375e+00 8.320264220237731934e-01
-1.738100051879882812e+00 -4.779770374298095703e+00 7.501252293586730957e-01
-2.511233329772949219e+00 -5.091577529907226562e+00 7.908048629760742188e-01
-2.313974618911743164e+00 -5.155292987823486328e+00 7.319049239158630371e-01
-2.005310297012329102e+00 -4.940184116363525391e+00 6.404823660850524902e-01
-1.719519257545471191e+00 -4.720975399017333984e+00 5.555838942527770996e-01
-2.486190080642700195e+00 -5.036369323730468750e+00 5.754655003547668457e-01
-2.238181114196777344e+00 -4.981777667999267578e+00 5.076059103012084961e-01
-2.027592420578002930e+00 -4.990078449249267578e+00 4.494585692882537842e-01
-2.110918045043945312e+00 -5.786145687103271484e+00 4.555441141128540039e-01
-2.496002674102783203e+00 -5.051803588867187500e+00 3.712984323501586914e-01
-2.275892257690429688e+00 -5.060988903045654297e+00 3.131615221500396729e-01
-2.242261886596679688e+00 -5.512879371643066406e+00 2.796215116977691650e-01
-2.045175313949584961e+00 -5.596837043762207031e+00 2.237065732479095459e-01
-3.116320848464965820e+00 -6.923420429229736328e+00 1.537362486124038696e-01
-2.592440366744995117e+00 -5.175926208496093750e+00 1.705951571464538574e+00
-2.313196420669555664e+00 -5.088859081268310547e+00 1.583899736404418945e+00
-2.073657512664794922e+00 -5.052410125732421875e+00 1.489972949028015137e+00
-1.798534750938415527e+00 -4.889673233032226562e+00 1.369722127914428711e+00
-2.575639963150024414e+00 -5.144625663757324219e+00 1.461166024208068848e+00
-2.314611911773681641e+00 -5.087258815765380859e+00 1.359366893768310547e+00
-2.050095319747924805e+00 -4.987565040588378906e+00 1.256850719451904297e+00
-1.788441061973571777e+00 -4.849165916442871094e+00 1.155286669731140137e+00
-2.560950279235839844e+00 -5.117515087127685547e+00 1.228895068168640137e+00
-2.316881895065307617e+00 -5.087536334991455078e+00 1.143448233604431152e+00
-2.049551486968994141e+00 -4.976358890533447266e+00 1.048084497451782227e+00
-1.785122394561767578e+00 -4.827188014984130859e+00 9.520242810249328613e-01
-2.552949905395507812e+00 -5.099303722381591797e+00 1.007587313652038574e+00
-2.311977386474609375e+00 -5.072071552276611328e+00 9.287928342819213867e-01
-2.047490596771240234e+00 -4.968892097473144531e+00 8.435004949569702148e-01
-1.772552132606506348e+00 -4.782929897308349609e+00 7.523138523101806641e-01
-2.559282541275024414e+00 -5.109724521636962891e+00 7.960474491119384766e-01
-2.323334217071533203e+00 -5.092276096343994141e+00 7.249686121940612793e-01
-2.047335863113403320e+00 -4.956233501434326172e+00 6.441797018051147461e-01
-1.773358106613159180e+00 -4.777426719665527344e+00 5.634972453117370605e-01
-2.525962114334106445e+00 -5.038805961608886719e+00 5.775039792060852051e-01
-2.294764757156372070e+00 -5.025012016296386719e+00 5.134361982345581055e-01
-2.190307140350341797e+00 -5.297101020812988281e+00 4.783137440681457520e-01
-2.124486923217773438e+00 -5.714194774627685547e+00 4.508972167968750000e-01
-2.555144548416137695e+00 -5.092580795288085938e+00 3.754407465457916260e-01
-2.320600032806396484e+00 -5.076894760131835938e+00 3.150208592414855957e-01
-2.274518013000488281e+00 -5.495326042175292969e+00 2.794338166713714600e-01
-2.069365262985229492e+00 -5.557025432586669922e+00 2.226186096668243408e-01
-2.635020971298217773e+00 -5.181296825408935547e+00 1.713018536567687988e+00
-2.350026607513427734e+00 -5.086797714233398438e+00 1.587716341018676758e+00
-2.125067234039306641e+00 -5.088553905487060547e+00 1.504448890686035156e+00
-1.835970878601074219e+00 -4.898469448089599609e+00 1.375316023826599121e+00
-2.622530698776245117e+00 -5.158965110778808594e+00 1.469781398773193359e+00
-2.348230123519897461e+00 -5.078252315521240234e+00 1.360784888267517090e+00
-2.103582143783569336e+00 -5.029699325561523438e+00 1.270697116851806641e+00
-1.832236886024475098e+00 -4.875555992126464844e+00 1.164230585098266602e+00
-2.603375196456909180e+00 -5.123496055603027344e+00 1.234144091606140137e+00
-2.352993011474609375e+00 -5.083893775939941406e+00 1.145852923393249512e+00
-2.095601081848144531e+00 -5.000806331634521484e+00 1.055921673774719238e+00
-1.821988821029663086e+00 -4.835467338562011719e+00 9.558440446853637695e-01
-2.602040290832519531e+00 -5.118656635284423828e+00 1.014546990394592285e+00
-2.336006879806518555e+00 -5.042574405670166016e+00 9.259986877441406250e-01
-2.093219757080078125e+00 -4.992678642272949219e+00 8.497027754783630371e-01
-1.817592501640319824e+00 -4.813611984252929688e+00 7.588798403739929199e-01
-2.604954004287719727e+00 -5.122175216674804688e+00 8.004622459411621094e-01
-2.318659067153930664e+00 -5.000549793243408203e+00 7.139219641685485840e-01
-2.094634532928466797e+00 -4.983851432800292969e+00 6.494275927543640137e-01
-1.834633827209472656e+00 -4.851056098937988281e+00 5.734989047050476074e-01
-2.620008230209350586e+00 -5.147329330444335938e+00 5.917733907699584961e-01
-2.313817739486694336e+00 -4.985548019409179688e+00 5.108450055122375488e-01
-2.245568037033081055e+00 -5.337756633758544922e+00 4.832199513912200928e-01
-2.098747014999389648e+00 -5.540642261505126953e+00 4.382104575634002686e-01
-2.575926065444946289e+00 -5.056357860565185547e+00 3.739284873008728027e-01
-2.349183797836303711e+00 -5.057126998901367188e+00 3.146828114986419678e-01
-2.289585590362548828e+00 -5.437077045440673828e+00 2.771810591220855713e-01
-2.112285137176513672e+00 -5.567580699920654297e+00 2.235565036535263062e-01
-3.534424543380737305e+00 -6.934828758239746094e+00 2.310110479593276978e-01
-2.678644895553588867e+00 -5.188043594360351562e+00 1.720650792121887207e+00
-2.393868923187255859e+00 -5.099281311035156250e+00 1.596167445182800293e+00
-2.155118227005004883e+00 -5.072755336761474609e+00 1.503659367561340332e+00
-1.884621620178222656e+00 -4.935901641845703125e+00 1.389046311378479004e+00
-2.667026758193969727e+00 -5.167754173278808594e+00 1.476919889450073242e+00
-2.387196779251098633e+00 -5.080457687377929688e+00 1.365275144577026367e+00
-2.143554925918579102e+00 -5.038205146789550781e+00 1.276144981384277344e+00
-1.870491981506347656e+00 -4.886095523834228516e+00 1.169465899467468262e+00
-2.655382394790649414e+00 -5.147395610809326172e+00 1.243802309036254883e+00
-2.388312339782714844e+00 -5.078225612640380859e+00 1.147856831550598145e+00
-1.876993894577026367e+00 -4.890294551849365234e+00 9.689402580261230469e-01
-2.651915073394775391e+00 -5.138472557067871094e+00 1.021680593490600586e+00
-2.386648654937744141e+00 -5.070091724395751953e+00 9.337235689163208008e-01
-2.159857749938964844e+00 -5.064251422882080078e+00 8.641229271888732910e-01
-1.855617523193359375e+00 -4.824529647827148438e+00 7.623817324638366699e-01
-2.657235622406005859e+00 -5.146577835083007812e+00 8.068085312843322754e-01
-2.392412424087524414e+00 -5.077735900878906250e+00 7.270238399505615234e-01
-2.897185802459716797e+00 -6.776681423187255859e+00 8.853445649147033691e-01
-1.864722132682800293e+00 -4.840635299682617188e+00 5.736087560653686523e-01
-2.614550590515136719e+00 -5.059571266174316406e+00 5.835175514221191406e-01
-2.342241287231445312e+00 -4.966753959655761719e+00 5.103822350502014160e-01
-2.166147470474243164e+00 -5.061852455139160156e+00 4.594372808933258057e-01
-1.957162618637084961e+00 -5.072681903839111328e+00 4.021416008472442627e-01
-2.627989053726196289e+00 -5.081227302551269531e+00 3.769530355930328369e-01
-2.380169630050659180e+00 -5.042617797851562500e+00 3.146828114986419678e-01
-2.159374475479125977e+00 -5.588071823120117188e+00 2.249070703983306885e-01
-3.566344499588012695e+00 -6.892592906951904297e+00 2.303287386894226074e-01
-2.727348327636718750e+00 -5.203794956207275391e+00 1.731392502784729004e+00
-2.440437555313110352e+00 -5.116627693176269531e+00 1.606254220008850098e+00
-1.938707351684570312e+00 -4.985538482666015625e+00 1.406336307525634766e+00
-2.727921009063720703e+00 -5.207097530364990234e+00 1.492919683456420898e+00
-2.429208755493164062e+00 -5.088513374328613281e+00 1.371419668197631836e+00
-1.921706914901733398e+00 -4.929082393646240234e+00 1.182554602622985840e+00
-2.703244686126708984e+00 -5.162186622619628906e+00 1.251360893249511719e+00
-2.430408716201782227e+00 -5.086459159851074219e+00 1.153067111968994141e+00
-2.221234083175659180e+00 -5.123306274414062500e+00 1.087461709976196289e+00
-1.912334680557250977e+00 -4.892423152923583984e+00 9.716687202453613281e-01
-2.699388504028320312e+00 -5.152634143829345703e+00 1.027770400047302246e+00
-2.430054903030395508e+00 -5.081158161163330078e+00 9.384899735450744629e-01
-2.240031480789184570e+00 -5.164192676544189453e+00 8.835048079490661621e-01
-1.901060461997985840e+00 -4.853583812713623047e+00 7.688017487525939941e-01
-2.699799060821533203e+00 -5.151230812072753906e+00 8.101196885108947754e-01
-2.428662061691284180e+00 -5.073695182800292969e+00 7.285652160644531250e-01
-2.182161092758178711e+00 -5.018776416778564453e+00 6.574187278747558594e-01
-1.902374029159545898e+00 -4.849458694458007812e+00 5.760267376899719238e-01
-2.691294670104980469e+00 -5.130647659301757812e+00 5.936080813407897949e-01
-2.419566869735717773e+00 -5.050166606903076172e+00 5.204695463180541992e-01
-2.197563409805297852e+00 -5.049379825592041016e+00 4.595204889774322510e-01
-1.977310776710510254e+00 -5.032731533050537109e+00 3.999288082122802734e-01
-2.670713186264038086e+00 -5.087093830108642578e+00 3.785968422889709473e-01
-2.438694715499877930e+00 -5.085534572601318359e+00 3.182888329029083252e-01
-2.220894098281860352e+00 -5.098123073577880859e+00 2.612710893154144287e-01
-2.211185216903686523e+00 -5.619351863861083984e+00 2.267078310251235962e-01
-3.614611864089965820e+00 -6.882084369659423828e+00 2.307143956422805786e-01
-2.767786026000976562e+00 -5.203052043914794922e+00 1.736763238906860352e+00
-2.479338169097900391e+00 -5.117142200469970703e+00 1.611161231994628906e+00
-2.252135515213012695e+00 -5.125418186187744141e+00 1.527347326278686523e+00
-1.974602222442626953e+00 -4.987037658691406250e+00 1.410150289535522461e+00
-2.768010616302490234e+00 -5.205665111541748047e+00 1.497350573539733887e+00
-2.468017101287841797e+00 -5.089249134063720703e+00 1.375673532485961914e+00
-2.240914583206176758e+00 -5.092639923095703125e+00 1.296801209449768066e+00
-1.963797211647033691e+00 -4.947131156921386719e+00 1.189753293991088867e+00
-2.748175621032714844e+00 -5.170539379119873047e+00 1.257449626922607422e+00
-2.473551273345947266e+00 -5.096129417419433594e+00 1.158678174018859863e+00
-2.277969837188720703e+00 -5.167062282562255859e+00 1.099695444107055664e+00
-1.960497617721557617e+00 -4.926278591156005859e+00 9.807632565498352051e-01
-2.741587162017822266e+00 -5.155972003936767578e+00 1.031772255897521973e+00
-2.471100330352783203e+00 -5.086558818817138672e+00 9.422702193260192871e-01
-2.268486499786376953e+00 -5.143119812011718750e+00 8.822643160820007324e-01
-1.950593948364257812e+00 -4.891449928283691406e+00 7.766809463500976562e-01
-2.742984533309936523e+00 -5.156428337097167969e+00 8.135687708854675293e-01
-2.461916208267211914e+00 -5.063156604766845703e+00 7.292073965072631836e-01
-2.215724945068359375e+00 -5.011649131774902344e+00 6.582536101341247559e-01
-1.950526475906372070e+00 -4.883847236633300781e+00 5.815221667289733887e-01
-2.737217664718627930e+00 -5.141258716583251953e+00 5.967677235603332520e-01
-2.431772470474243164e+00 -4.996727466583251953e+00 5.164901614189147949e-01
