-6.260179519653320312e+00 -3.659390211105346680e+00 4.778157472610473633e-01
-6.136885643005371094e+00 -3.892848968505859375e+00 4.101300239562988281e-01
-6.343648910522460938e+00 -4.354725837707519531e+00 3.615180850028991699e-01
-6.052983283996582031e+00 -4.483623027801513672e+00 2.827939093112945557e-01
-7.850114822387695312e+00 -4.586949825286865234e+00 2.698441743850708008e-01
-7.989573478698730469e+00 -5.478451728820800781e+00 1.031414344906806946e-01
-6.692178249359130859e+00 -4.953476428985595703e+00 1.017212588340044022e-02
-6.468071937561035156e+00 -3.733872652053833008e+00 2.200917720794677734e+00
-5.765225887298583984e+00 -3.624499320983886719e+00 1.929576992988586426e+00
-7.976537704467773438e+00 -5.438548088073730469e+00 2.633838653564453125e+00
-7.467700481414794922e+00 -5.507047176361083984e+00 2.439412593841552734e+00
-6.417444229125976562e+00 -3.706140041351318359e+00 1.882088184356689453e+00
-5.732399463653564453e+00 -3.601070404052734375e+00 1.646507143974304199e+00
-8.079257011413574219e+00 -5.502388954162597656e+00 2.278311491012573242e+00
-7.526996135711669922e+00 -5.540639877319335938e+00 2.089158058166503906e+00
-6.371344089508056641e+00 -3.680999755859375000e+00 1.580157995223999023e+00
-5.741282463073730469e+00 -3.603856563568115234e+00 1.386526107788085938e+00
-8.202708244323730469e+00 -5.578087329864501953e+00 1.931778550148010254e+00
-7.562009811401367188e+00 -5.556245803833007812e+00 1.735798239707946777e+00
-6.334278583526611328e+00 -3.658110857009887695e+00 1.292412161827087402e+00
-5.645517826080322266e+00 -3.540997505187988281e+00 1.110409498214721680e+00
-8.261616706848144531e+00 -5.616037845611572266e+00 1.567918658256530762e+00
-7.590357780456542969e+00 -5.568918704986572266e+00 1.388483166694641113e+00
-6.387820720672607422e+00 -3.687545299530029297e+00 1.027411699295043945e+00
-5.576344013214111328e+00 -3.494898557662963867e+00 8.523904681205749512e-01
-6.580167293548583984e+00 -4.464640617370605469e+00 9.552370905876159668e-01
-6.738235473632812500e+00 -4.938305377960205078e+00 9.237750172615051270e-01
-6.337921142578125000e+00 -3.655790567398071289e+00 7.496544122695922852e-01
-5.575545787811279297e+00 -3.491688013076782227e+00 6.114407181739807129e-01
-6.309144973754882812e+00 -4.277536869049072266e+00 6.360607743263244629e-01
-6.264523506164550781e+00 -4.586092472076416016e+00 5.742245912551879883e-01
-6.298076629638671875e+00 -3.629878520965576172e+00 4.789992868900299072e-01
-6.187739849090576172e+00 -3.872068405151367188e+00 4.119330346584320068e-01
-6.182524681091308594e+00 -4.188539981842041016e+00 3.508644700050354004e-01
-7.883308410644531250e+00 -4.541689395904541016e+00 2.700221538543701172e-01
-8.069414138793945312e+00 -5.460708618164062500e+00 1.037376224994659424e-01
-6.702260971069335938e+00 -4.897571086883544922e+00 1.014158315956592560e-02
-6.581729888916015625e+00 -3.745831012725830078e+00 2.231729507446289062e+00
-5.876481056213378906e+00 -3.644326925277709961e+00 1.959292054176330566e+00
-8.056982040405273438e+00 -5.421278476715087891e+00 2.649367332458496094e+00
-7.582665920257568359e+00 -5.520321369171142578e+00 2.465856075286865234e+00
-6.534399032592773438e+00 -3.720403909683227539e+00 1.909657359123229980e+00
-5.776687622070312500e+00 -3.579648256301879883e+00 1.652888059616088867e+00
-5.365468978881835938e+00 -3.606167554855346680e+00 1.506768226623535156e+00
-7.609798908233642578e+00 -5.529920578002929688e+00 2.102682828903198242e+00
-6.462625026702880859e+00 -3.681032419204711914e+00 1.597164750099182129e+00
-5.844918251037597656e+00 -3.619105577468872070e+00 1.406164765357971191e+00
-5.396370887756347656e+00 -3.621470212936401367e+00 1.265614986419677734e+00
-7.657250404357910156e+00 -5.554198265075683594e+00 1.749804019927978516e+00
-6.426777362823486328e+00 -3.659128665924072266e+00 1.306679487228393555e+00
-5.774508476257324219e+00 -3.572721004486083984e+00 1.131447434425354004e+00
-8.336940765380859375e+00 -5.592758178710937500e+00 1.575671434402465820e+00
-7.715723514556884766e+00 -5.588395595550537109e+00 1.405116796493530273e+00
-6.441315174102783203e+00 -3.665917396545410156e+00 1.032378315925598145e+00
-5.666009902954101562e+00 -3.502857923507690430e+00 8.627948760986328125e-01
-5.416135311126708984e+00 -3.626513957977294922e+00 7.830105423927307129e-01
-6.807868003845214844e+00 -4.925415515899658203e+00 9.291604757308959961e-01
-6.451896667480468750e+00 -3.668958663940429688e+00 7.604584097862243652e-01
-5.626513957977294922e+00 -3.475726604461669922e+00 6.146797537803649902e-01
-5.229560852050781250e+00 -3.498944997787475586e+00 5.250474214553833008e-01
-6.282037258148193359e+00 -4.539973735809326172e+00 5.732656717300415039e-01
-6.448630809783935547e+00 -3.664123058319091797e+00 4.887305200099945068e-01
-6.055056571960449219e+00 -3.737535238265991211e+00 4.015657007694244385e-01
-6.192330837249755859e+00 -4.139977455139160156e+00 3.499727547168731689e-01
-6.130234718322753906e+00 -4.425383090972900391e+00 2.838443517684936523e-01
-6.914662361145019531e+00 -4.987986564636230469e+00 1.041647139936685562e-02
-6.715851783752441406e+00 -3.767796993255615234e+00 2.269325494766235352e+00
-6.119513511657714844e+00 -3.743251085281372070e+00 2.032625675201416016e+00
-5.430634975433349609e+00 -3.605885505676269531e+00 1.778439760208129883e+00
-7.666657447814941406e+00 -5.509813308715820312e+00 2.482128858566284180e+00
-6.638244152069091797e+00 -3.725780248641967773e+00 1.933288097381591797e+00
-6.075454235076904297e+00 -3.713387012481689453e+00 1.731822013854980469e+00
-5.411031246185302734e+00 -3.588788032531738281e+00 1.513350844383239746e+00
-7.728435516357421875e+00 -5.543990135192871094e+00 2.126024007797241211e+00
-6.582276344299316406e+00 -3.695878505706787109e+00 1.621100068092346191e+00
-6.036745548248291016e+00 -3.686834096908569336e+00 1.446844696998596191e+00
-5.400485992431640625e+00 -3.576367616653442383e+00 1.261409759521484375e+00
-7.767138004302978516e+00 -5.561493396759033203e+00 1.767083644866943359e+00
-6.540134429931640625e+00 -3.670715093612670898e+00 1.325122594833374023e+00
-5.869575500488281250e+00 -3.581925392150878906e+00 1.145746707916259766e+00
-5.367652416229248047e+00 -3.553277015686035156e+00 1.010339975357055664e+00
-7.798153877258300781e+00 -5.575470447540283203e+00 1.413871526718139648e+00
-6.544019222259521484e+00 -3.671393632888793945e+00 1.045208930969238281e+00
-5.822870731353759766e+00 -3.550634860992431641e+00 8.833467960357666016e-01
-5.343850135803222656e+00 -3.530817270278930664e+00 7.694137096405029297e-01
-6.848476409912109375e+00 -4.891059875488281250e+00 9.305892586708068848e-01
-6.452593803405761719e+00 -3.617140531539916992e+00 7.579103112220764160e-01
-5.818646430969238281e+00 -3.545273303985595703e+00 6.332811713218688965e-01
-5.383161544799804688e+00 -3.554092407226562500e+00 5.382692813873291016e-01
-6.283796310424804688e+00 -4.482809066772460938e+00 5.709053277969360352e-01
-6.512779712677001953e+00 -3.647891759872436523e+00 4.918865859508514404e-01
-6.187033176422119141e+00 -3.766768693923950195e+00 4.087777435779571533e-01
-6.253469944000244141e+00 -4.125557422637939453e+00 3.519908487796783447e-01
-6.991569519042968750e+00 -4.978527545928955078e+00 1.048611011356115341e-02
-6.838734149932861328e+00 -3.781756639480590820e+00 2.302963972091674805e+00
-6.245343208312988281e+00 -3.767757177352905273e+00 2.066702842712402344e+00
-5.442974567413330078e+00 -3.566151380538940430e+00 1.775281429290771484e+00
-7.776834964752197266e+00 -5.516947746276855469e+00 2.506792545318603516e+00
-6.722043514251708984e+00 -3.718759775161743164e+00 1.951011180877685547e+00
-6.216292381286621094e+00 -3.747271776199340820e+00 1.765380740165710449e+00
-5.429690361022949219e+00 -3.553385734558105469e+00 1.512442946434020996e+00
-7.828413963317871094e+00 -5.543274879455566406e+00 2.144129991531372070e+00
-6.666421413421630859e+00 -3.689508438110351562e+00 1.636217236518859863e+00
-6.194370746612548828e+00 -3.731109857559204102e+00 1.479108214378356934e+00
-5.383708953857421875e+00 -3.517928123474121094e+00 1.252425670623779297e+00
-7.857326984405517578e+00 -5.553459167480468750e+00 1.779816269874572754e+00
-6.646117210388183594e+00 -3.676756143569946289e+00 1.341999769210815430e+00
-6.205834388732910156e+00 -3.735063314437866211e+00 1.206888318061828613e+00
-5.375293254852294922e+00 -3.511090517044067383e+00 1.007704019546508789e+00
-7.938910484313964844e+00 -5.602814674377441406e+00 1.433131694793701172e+00
-6.657431125640869141e+00 -3.681497573852539062e+00 1.059695005416870117e+00
-6.220189571380615234e+00 -3.740746021270751953e+00 9.401214122772216797e-01
-5.332145690917968750e+00 -3.476272106170654297e+00 7.646428942680358887e-01
-6.101730346679687500e+00 -4.301456928253173828e+00 8.255174160003662109e-01
-6.741106986999511719e+00 -3.724697589874267578e+00 7.890992164611816406e-01
-5.913688659667968750e+00 -3.553609848022460938e+00 6.412400007247924805e-01
-5.426577091217041016e+00 -3.535137653350830078e+00 5.404313206672668457e-01
-6.277752876281738281e+00 -4.420626640319824219e+00 5.678811669349670410e-01
-6.197189807891845703e+00 -3.721025705337524414e+00 4.079326093196868896e-01
-6.292060375213623047e+00 -4.095828056335449219e+00 3.527417480945587158e-01
-6.095805168151855469e+00 -4.287731170654296875e+00 2.797926366329193115e-01
-7.009714126586914062e+00 -4.926909446716308594e+00 1.046778541058301926e-02
-6.960352897644042969e+00 -3.793430328369140625e+00 2.336036920547485352e+00
-6.310513496398925781e+00 -3.754454374313354492e+00 2.080606222152709961e+00
-5.510934352874755859e+00 -3.562540531158447266e+00 1.790283799171447754e+00
-7.858865737915039062e+00 -5.502964973449707031e+00 2.522302627563476562e+00
-6.838340282440185547e+00 -3.728481054306030273e+00 1.978087902069091797e+00
-6.298469543457031250e+00 -3.744312286376953125e+00 1.782160162925720215e+00
-5.514389514923095703e+00 -3.560681343078613281e+00 1.529921293258666992e+00
-7.928671836853027344e+00 -5.541539192199707031e+00 2.162235975265502930e+00
-6.779058456420898438e+00 -3.697693586349487305e+00 1.658263087272644043e+00
-6.262632846832275391e+00 -3.720050096511840820e+00 1.489929437637329102e+00
-5.429117202758789062e+00 -3.500252246856689453e+00 1.257969021797180176e+00
-7.977545261383056641e+00 -5.565341949462890625e+00 1.799278616905212402e+00
-6.750688076019287109e+00 -3.680690288543701172e+00 1.358529090881347656e+00
-6.310066223144531250e+00 -3.745246887207031250e+00 1.222666740417480469e+00
-5.403379440307617188e+00 -3.482323646545410156e+00 1.008944511413574219e+00
-8.039703369140625000e+00 -5.600364685058593750e+00 1.445096254348754883e+00
-6.794690608978271484e+00 -3.703143358230590820e+00 1.077906131744384766e+00
-6.280556678771972656e+00 -3.724767923355102539e+00 9.457731842994689941e-01
-5.453578948974609375e+00 -3.507943868637084961e+00 7.789553403854370117e-01
-5.884063243865966797e+00 -4.094196796417236328e+00 7.926549911499023438e-01
-6.767328739166259766e+00 -3.685167789459228516e+00 7.895068526268005371e-01
-6.204354286193847656e+00 -3.676648139953613281e+00 6.702989339828491211e-01
-5.416310787200927734e+00 -3.481299400329589844e+00 5.372713804244995117e-01
-6.279372692108154297e+00 -4.364379405975341797e+00 5.655946135520935059e-01
-6.643827438354492188e+00 -3.614908456802368164e+00 4.983959794044494629e-01
-6.269732952117919922e+00 -3.712434530258178711e+00 4.112005829811096191e-01
-6.293540000915527344e+00 -4.042029380798339844e+00 3.514276742935180664e-01
-6.263188362121582031e+00 -4.348268985748291016e+00 2.862453758716583252e-01
-7.016806602478027344e+00 -4.867845058441162109e+00 1.043357606977224350e-02
-7.018990516662597656e+00 -3.769713163375854492e+00 2.347909688949584961e+00
-6.374924182891845703e+00 -3.740005493164062500e+00 2.094237089157104492e+00
-5.618096351623535156e+00 -3.583129644393920898e+00 1.817919731140136719e+00
-7.972840785980224609e+00 -5.510176658630371094e+00 2.547983407974243164e+00
-6.953298568725585938e+00 -3.735995531082153320e+00 2.004672527313232422e+00
-6.343120098114013672e+00 -3.718371391296386719e+00 1.788304805755615234e+00
-5.633878231048583984e+00 -3.589046716690063477e+00 1.556933164596557617e+00
-8.066152572631835938e+00 -5.564271450042724609e+00 2.190376281738281250e+00
-6.884293079376220703e+00 -3.700467586517333984e+00 1.678419232368469238e+00
-6.319155216217041016e+00 -3.701359987258911133e+00 1.497945189476013184e+00
-5.510951995849609375e+00 -3.505330324172973633e+00 1.271923065185546875e+00
-8.089294433593750000e+00 -5.569822788238525391e+00 1.816740393638610840e+00
-6.842542171478271484e+00 -3.676486253738403320e+00 1.372448444366455078e+00
-6.326117515563964844e+00 -3.702472448348999023e+00 1.221351861953735352e+00
-5.536355495452880859e+00 -3.520131587982177734e+00 1.029721856117248535e+00
-8.135056495666503906e+00 -5.592964172363281250e+00 1.456039547920227051e+00
-6.872255802154541016e+00 -3.690905809402465820e+00 1.086597919464111328e+00
-6.259633064270019531e+00 -3.660628557205200195e+00 9.392222762107849121e-01
-5.509371280670166016e+00 -3.496227025985717773e+00 7.838454246520996094e-01
-5.923822402954101562e+00 -4.068143844604492188e+00 7.946333885192871094e-01
-6.879221916198730469e+00 -3.691553831100463867e+00 7.999031543731689453e-01
-6.172636032104492188e+00 -3.606861829757690430e+00 6.644686460494995117e-01
-5.584007740020751953e+00 -3.540857315063476562e+00 5.517405271530151367e-01
-6.292875766754150391e+00 -4.316741943359375000e+00 5.644144415855407715e-01
-6.803070068359375000e+00 -3.647630929946899414e+00 5.086532235145568848e-01
-6.251870632171630859e+00 -3.650233983993530273e+00 4.085524082183837891e-01
-6.233001708984375000e+00 -3.949338912963867188e+00 3.466875255107879639e-01
-6.210613727569580078e+00 -4.255531787872314453e+00 2.826438546180725098e-01
-7.052318572998046875e+00 -4.828653812408447266e+00 1.044212747365236282e-02
-7.118292808532714844e+00 -3.766953945159912109e+00 2.373350381851196289e+00
-6.420238971710205078e+00 -3.713826894760131836e+00 2.101597785949707031e+00
-5.727347850799560547e+00 -3.603563308715820312e+00 1.846082091331481934e+00
-8.099181175231933594e+00 -5.524368762969970703e+00 2.577477931976318359e+00
-7.050614833831787109e+00 -3.732714653015136719e+00 2.026087760925292969e+00
-6.420498371124267578e+00 -3.710986375808715820e+00 1.803666234016418457e+00
-5.736603260040283203e+00 -3.605195045471191406e+00 1.579178333282470703e+00
-8.159839630126953125e+00 -5.555315971374511719e+00 2.206519126892089844e+00
-7.007957458496093750e+00 -3.711697101593017578e+00 1.702984452247619629e+00
-6.357018947601318359e+00 -3.671336174011230469e+00 1.501552343368530273e+00
-5.653745651245117188e+00 -3.547619342803955078e+00 1.299831151962280273e+00
-8.196515083312988281e+00 -5.569823265075683594e+00 1.833110570907592773e+00
-7.011183738708496094e+00 -3.711838960647583008e+00 1.401679158210754395e+00
-6.349570751190185547e+00 -3.664079427719116211e+00 1.221516132354736328e+00
-5.630660533905029297e+00 -3.531764268875122070e+00 1.043211698532104492e+00
-8.277281761169433594e+00 -5.616263866424560547e+00 1.475299715995788574e+00
-6.986691951751708984e+00 -3.697311639785766602e+00 1.101083993911743164e+00
-6.395381927490234375e+00 -3.687540292739868164e+00 9.561775922775268555e-01
-5.595520019531250000e+00 -3.502922296524047852e+00 7.930292487144470215e-01
-5.884495735168457031e+00 -3.988223552703857422e+00 7.860605716705322266e-01
-6.951870441436767578e+00 -3.675778865814208984e+00 8.057128190994262695e-01
-6.326653957366943359e+00 -3.644969940185546875e+00 6.786279082298278809e-01
-5.651250839233398438e+00 -3.535066127777099609e+00 5.562309622764587402e-01
-6.307682991027832031e+00 -4.270221233367919922e+00 5.633817911148071289e-01
-6.323471069335937500e+00 -3.640197038650512695e+00 4.117640256881713867e-01
-6.218152999877929688e+00 -3.886664867401123047e+00 3.445286452770233154e-01
-6.223363399505615234e+00 -4.208387374877929688e+00 2.820435762405395508e-01
-7.989449024200439453e+00 -4.219043731689453125e+00 2.681531906127929688e-01
-7.071871757507324219e+00 -4.778572559356689453e+00 1.042746845632791519e-02
-7.291820526123046875e+00 -3.801696300506591797e+00 2.423383951187133789e+00
-6.568269729614257812e+00 -3.745857715606689453e+00 2.142490148544311523e+00
-5.854272365570068359e+00 -3.633472681045532227e+00 1.879771590232849121e+00
-8.218771934509277344e+00 -5.532355308532714844e+00 2.604684352874755859e+00
-7.161040306091308594e+00 -3.735102176666259766e+00 2.051195383071899414e+00
-6.465941905975341797e+00 -3.684509992599487305e+00 1.810047030448913574e+00
-5.825663566589355469e+00 -3.611492633819580078e+00 1.597564578056335449e+00
-8.250476837158203125e+00 -5.543241024017333984e+00 2.221789121627807617e+00
-7.134615898132324219e+00 -3.722903490066528320e+00 1.728179574012756348e+00
-6.469672679901123047e+00 -3.683645009994506836e+00 1.522794127464294434e+00
-5.811450004577636719e+00 -3.597067117691040039e+00 1.330988883972167969e+00
-5.401545047760009766e+00 -3.622294187545776367e+00 1.203035712242126465e+00
-7.087087154388427734e+00 -3.696528911590576172e+00 1.412292599678039551e+00
-6.440522670745849609e+00 -3.664071559906005859e+00 1.234664916992187500e+00
-5.706831932067871094e+00 -3.530935049057006836e+00 1.053290247917175293e+00
-8.352688789367675781e+00 -5.592891216278076172e+00 1.482595205307006836e+00
-7.146252155303955078e+00 -3.725802421569824219e+00 1.122606158256530762e+00
-6.432544708251953125e+00 -3.656561136245727539e+00 9.583612680435180664e-01
-5.730952739715576172e+00 -3.538947343826293945e+00 8.091307878494262695e-01
-5.383404254913330078e+00 -3.600601911544799805e+00 7.161591649055480957e-01
-7.081047534942626953e+00 -3.688663959503173828e+00 8.180456757545471191e-01
-6.359289646148681641e+00 -3.611982822418212891e+00 6.797384619712829590e-01
-5.721176147460937500e+00 -3.530152082443237305e+00 5.609708428382873535e-01
-6.294791221618652344e+00 -4.205399513244628906e+00 5.599150657653808594e-01
-6.983628749847412109e+00 -3.634817838668823242e+00 5.187789201736450195e-01
-6.401260375976562500e+00 -3.632866859436035156e+00 4.153700470924377441e-01
-6.216375350952148438e+00 -3.832710742950439453e+00 3.431206643581390381e-01
-6.261537075042724609e+00 -4.178442955017089844e+00 2.826063334941864014e-01
-7.901683807373046875e+00 -4.110891819000244141e+00 2.643558979034423828e-01
-7.074435234069824219e+00 -4.717337131500244141e+00 1.038837153464555740e-02
-7.414842128753662109e+00 -3.808155298233032227e+00 2.456457138061523438e+00
-6.650676250457763672e+00 -3.738961458206176758e+00 2.161845922470092773e+00
-6.054182052612304688e+00 -3.706284046173095703e+00 1.936622738838195801e+00
-5.435380935668945312e+00 -3.610489130020141602e+00 1.715521812438964844e+00
-7.297620296478271484e+00 -3.749561786651611328e+00 2.083687543869018555e+00
-6.631598472595214844e+00 -3.725190162658691406e+00 1.849986791610717773e+00
-5.998933315277099609e+00 -3.668144702911376953e+00 1.638877034187316895e+00
-5.420403003692626953e+00 -3.593726634979248047e+00 1.453706622123718262e+00
-7.230368137359619141e+00 -3.716602563858032227e+00 1.745816349983215332e+00
-6.585276603698730469e+00 -3.696146011352539062e+00 1.544636964797973633e+00
-5.995101451873779297e+00 -3.660053968429565430e+00 1.367881178855895996e+00
-5.409729003906250000e+00 -3.579857587814331055e+00 1.199943542480468750e+00
-7.203355312347412109e+00 -3.701127767562866211e+00 1.430909633636474609e+00
-6.533431529998779297e+00 -3.664048433303833008e+00 1.248142361640930176e+00
-5.941739559173583984e+00 -3.626052618026733398e+00 1.092519283294677734e+00
-5.381582260131835938e+00 -3.555831909179687500e+00 9.513356685638427734e-01
-7.231532573699951172e+00 -3.714010238647460938e+00 1.132401585578918457e+00
-6.550891399383544922e+00 -3.670834779739379883e+00 9.726191759109497070e-01
-5.810220718383789062e+00 -3.538836002349853516e+00 8.172411322593688965e-01
-5.338201999664306641e+00 -3.523154735565185547e+00 7.072566747665405273e-01
-7.269940853118896484e+00 -3.730529785156250000e+00 8.372075557708740234e-01
-6.321385860443115234e+00 -3.539330959320068359e+00 6.733528971672058105e-01
-5.912984848022460938e+00 -3.598597526550292969e+00 5.776020884513854980e-01
-6.211402416229248047e+00 -4.094790458679199219e+00 5.502524971961975098e-01
-7.178059577941894531e+00 -3.680216550827026367e+00 5.315347313880920410e-01
-6.471354007720947266e+00 -3.620331287384033203e+00 4.184689819812774658e-01
-6.165523052215576172e+00 -3.749341487884521484e+00 3.390375971794128418e-01
-6.461489200592041016e+00 -4.254805088043212891e+00 2.904471457004547119e-01
-7.567381858825683594e+00 -3.878155708312988281e+00 2.523707449436187744e-01
-6.793320655822753906e+00 -4.469913005828857422e+00 9.935109876096248627e-03
-7.527941226959228516e+00 -3.808049678802490234e+00 2.486138105392456055e+00
-6.785419464111328125e+00 -3.760106801986694336e+00 2.198103904724121094e+00
-6.194910049438476562e+00 -3.740373611450195312e+00 1.974260330200195312e+00
-5.374118804931640625e+00 -3.522462844848632812e+00 1.689332604408264160e+00
-7.457127094268798828e+00 -3.773862600326538086e+00 2.122579813003540039e+00
-6.667932033538818359e+00 -3.691959857940673828e+00 1.853767991065979004e+00
-6.221482753753662109e+00 -3.751973867416381836e+00 1.693355083465576172e+00
-5.435817718505859375e+00 -3.556125640869140625e+00 1.451961398124694824e+00
-7.383007049560546875e+00 -3.737971067428588867e+00 1.777100443840026855e+00
-6.678985118865966797e+00 -3.695034503936767578e+00 1.561269760131835938e+00
-6.201602935791015625e+00 -3.734083414077758789e+00 1.409743428230285645e+00
-5.393718719482421875e+00 -3.521866798400878906e+00 1.191576480865478516e+00
-7.335759162902832031e+00 -3.712441205978393555e+00 1.452658653259277344e+00
-6.649889469146728516e+00 -3.675906419754028320e+00 1.266057491302490234e+00
-6.213570594787597656e+00 -3.739811897277832031e+00 1.138260602951049805e+00
-5.393353939056396484e+00 -3.516260623931884766e+00 9.495847225189208984e-01
-7.369078636169433594e+00 -3.727687835693359375e+00 1.150336861610412598e+00
-6.663574695587158203e+00 -3.680435419082641602e+00 9.859778881072998047e-01
-6.241210460662841797e+00 -3.749032020568847656e+00 8.746102452278137207e-01
-5.332233428955078125e+00 -3.472434759140014648e+00 7.036297321319580078e-01
-7.369047641754150391e+00 -3.724442243576049805e+00 8.459730148315429688e-01
-6.176761627197265625e+00 -3.707384824752807617e+00 6.011352539062500000e-01
-5.657076358795166016e+00 -3.679760932922363281e+00 4.991365075111389160e-01
-7.171112537384033203e+00 -3.621260643005371094e+00 5.293648838996887207e-01
-6.523172378540039062e+00 -3.596946954727172852e+00 4.203847050666809082e-01
-6.220964908599853516e+00 -3.730963230133056641e+00 3.408210277557373047e-01
-6.519316673278808594e+00 -4.235766887664794922e+00 2.918727099895477295e-01
-7.592820644378662109e+00 -3.832551240921020508e+00 2.524300813674926758e-01
-1.125191688537597656e+01 -6.740219593048095703e+00 1.396476179361343384e-01
-7.304572105407714844e+00 -4.742341995239257812e+00 1.064004842191934586e-02
-7.637882232666015625e+00 -3.804987192153930664e+00 2.514688730239868164e+00
-6.869159221649169922e+00 -3.751605272293090820e+00 2.217732191085815430e+00
-6.260848045349121094e+00 -3.727957725524902344e+00 1.987946629524230957e+00
-5.528816223144531250e+00 -3.575553894042968750e+00 1.731031894683837891e+00
-7.533926010131835938e+00 -3.754840373992919922e+00 2.137841463088989258e+00
-6.817548274993896484e+00 -3.720328569412231445e+00 1.888981103897094727e+00
-6.298795700073242188e+00 -3.746087312698364258e+00 1.708109498023986816e+00
-5.511651515960693359e+00 -3.557635784149169922e+00 1.466358900070190430e+00
-7.474926471710205078e+00 -3.727064609527587891e+00 1.793687105178833008e+00
-6.766904354095458984e+00 -3.689627647399902344e+00 1.576499700546264648e+00
-6.258157253265380859e+00 -3.716006517410278320e+00 1.417389512062072754e+00
-5.405307769775390625e+00 -3.482315063476562500e+00 1.189393758773803711e+00
-7.472095012664794922e+00 -3.724024534225463867e+00 1.475103735923767090e+00
-6.745079517364501953e+00 -3.674673557281494141e+00 1.279863595962524414e+00
-6.312008857727050781e+00 -3.746492862701416016e+00 1.152060508728027344e+00
-5.402347564697265625e+00 -3.475073337554931641e+00 9.473960995674133301e-01
-7.434365749359130859e+00 -3.703600883483886719e+00 1.156959176063537598e+00
-6.752230167388916016e+00 -3.675513505935668945e+00 9.957399964332580566e-01
-6.241032123565673828e+00 -3.697003602981567383e+00 8.713899254798889160e-01
-5.352602958679199219e+00 -3.439114093780517578e+00 7.035198211669921875e-01
-7.489725112915039062e+00 -3.727916717529296875e+00 8.571847677230834961e-01
-6.750961303710937500e+00 -3.671768665313720703e+00 7.142574787139892578e-01
-6.220832347869873047e+00 -3.682104825973510742e+00 6.032141447067260742e-01
-5.562885761260986328e+00 -3.570109605789184570e+00 4.888838231563568115e-01
-7.305771827697753906e+00 -3.633174896240234375e+00 5.376495718955993652e-01
-6.669688224792480469e+00 -3.624548912048339844e+00 4.283855557441711426e-01
-6.269534111022949219e+00 -3.707976579666137695e+00 3.422289788722991943e-01
-6.701663494110107422e+00 -4.295993804931640625e+00 2.988506555557250977e-01
-2.577816009521484375e+00 -1.281391859054565430e+00 8.543878793716430664e-02
-1.164519119262695312e+01 -6.879062175750732422e+00 1.440019607543945312e-01
-7.146594524383544922e+00 -4.577691078186035156e+00 1.036882493644952774e-02
-7.847961902618408203e+00 -3.849720478057861328e+00 2.576029300689697266e+00
-6.961520671844482422e+00 -3.746776580810546875e+00 2.240086555480957031e+00
-6.347663402557373047e+00 -3.727084398269653320e+00 2.008213043212890625e+00
-5.609354019165039062e+00 -3.579017400741577148e+00 1.749338865280151367e+00
-7.679507255554199219e+00 -3.768750190734863281e+00 2.172549009323120117e+00
-6.942084789276123047e+00 -3.733191490173339844e+00 1.917104244232177734e+00
-6.333423614501953125e+00 -3.714265584945678711e+00 1.711287379264831543e+00
-5.605816841125488281e+00 -3.569880723953247070e+00 1.485555529594421387e+00
-7.831157207489013672e+00 -3.844868898391723633e+00 1.873471856117248535e+00
-6.890389919281005859e+00 -3.702291488647460938e+00 1.599945783615112305e+00
-6.304557800292968750e+00 -3.691424131393432617e+00 1.422741651535034180e+00
-5.563502788543701172e+00 -3.536114454269409180e+00 1.219406008720397949e+00
-7.596467971801757812e+00 -3.727998256683349609e+00 1.495112776756286621e+00
-6.850931167602539062e+00 -3.678008794784545898e+00 1.295642137527465820e+00
-6.328057289123535156e+00 -3.703700542449951172e+00 1.150820016860961914e+00
-5.462827682495117188e+00 -3.466773986816406250e+00 9.542538523674011230e-01
-7.550317764282226562e+00 -3.703714847564697266e+00 1.171445131301879883e+00
-6.884769916534423828e+00 -3.693080186843872070e+00 1.011924624443054199e+00
-6.268743038177490234e+00 -3.661644220352172852e+00 8.721055388450622559e-01
-5.495331287384033203e+00 -3.483366250991821289e+00 7.194564342498779297e-01
-7.585706710815429688e+00 -3.717789888381958008e+00 8.655425310134887695e-01
-6.925189495086669922e+00 -3.711649417877197266e+00 7.302676439285278320e-01
-6.340564250946044922e+00 -3.700628042221069336e+00 6.126108169555664062e-01
-5.593955516815185547e+00 -3.541777610778808594e+00 4.896951913833618164e-01
-2.613212108612060547e+00 -1.279616236686706543e+00 1.917312145233154297e-01
-6.954088687896728516e+00 -3.724014043807983398e+00 4.451761841773986816e-01
-6.314602851867675781e+00 -3.682521343231201172e+00 3.434492051601409912e-01
-6.795463085174560547e+00 -4.297521591186523438e+00 3.018519282341003418e-01
-2.613461494445800781e+00 -1.279172897338867188e+00 8.635844290256500244e-02
-1.124564933776855469e+01 -6.550298213958740234e+00 1.385616958141326904e-01
-7.167785167694091797e+00 -4.529479980468750000e+00 1.035905070602893829e-02
-8.000135421752929688e+00 -3.863648891448974609e+00 2.618147850036621094e+00
-7.113578319549560547e+00 -3.772508382797241211e+00 2.281524419784545898e+00
-6.435535907745361328e+00 -3.725767850875854492e+00 2.028742551803588867e+00
-5.689321517944335938e+00 -3.581110477447509766e+00 1.767391681671142578e+00
-7.832520484924316406e+00 -3.784385919570922852e+00 2.209225893020629883e+00
-7.056729793548583984e+00 -3.739204883575439453e+00 1.942391633987426758e+00
-6.371270179748535156e+00 -3.684109449386596680e+00 1.715373158454895020e+00
-5.644969463348388672e+00 -3.546319007873535156e+00 1.490136504173278809e+00
-7.860763072967529297e+00 -3.799724102020263672e+00 1.874941587448120117e+00
-6.976183891296386719e+00 -3.693407058715820312e+00 1.614574432373046875e+00
-6.361092090606689453e+00 -3.672300577163696289e+00 1.430387735366821289e+00
-5.700063228607177734e+00 -3.573996782302856445e+00 1.244507193565368652e+00
-7.689247131347656250e+00 -3.715161323547363281e+00 1.508858203887939453e+00
-6.971025466918945312e+00 -3.687561035156250000e+00 1.314050316810607910e+00
-6.360075950622558594e+00 -3.670234203338623047e+00 1.152525663375854492e+00
-5.583781719207763672e+00 -3.495658636093139648e+00 9.716171622276306152e-01
-7.642467498779296875e+00 -3.690913915634155273e+00 1.182206273078918457e+00
-7.010761260986328125e+00 -3.705449104309082031e+00 1.027081727981567383e+00
-6.411545753479003906e+00 -3.692481279373168945e+00 8.888034224510192871e-01
-5.526713848114013672e+00 -3.455905437469482422e+00 7.207753062248229980e-01
-7.716785907745361328e+00 -3.723484516143798828e+00 8.778754472732543945e-01
-6.887081146240234375e+00 -3.637004613876342773e+00 7.238821387290954590e-01
-6.343285560607910156e+00 -3.650221586227416992e+00 6.106982231140136719e-01
-5.632498741149902344e+00 -3.517952919006347656e+00 4.911704063415527344e-01
-2.626407623291015625e+00 -1.266157746315002441e+00 1.921257227659225464e-01
-7.064227104187011719e+00 -3.727400779724121094e+00 4.507542252540588379e-01
-6.405489921569824219e+00 -3.683041334152221680e+00 3.471568524837493896e-01
-7.834870338439941406e+00 -4.887811660766601562e+00 3.466832637786865234e-01
-2.625763416290283203e+00 -1.265282392501831055e+00 8.650676906108856201e-02
-7.937624454498291016e+00 -4.184702873229980469e+00 1.816938221454620361e-01
-1.147726440429687500e+01 -6.591226100921630859e+00 1.409145295619964600e-01
-7.409294605255126953e+00 -4.618722915649414062e+00 1.066692639142274857e-02
-7.274735927581787109e+00 -3.800967931747436523e+00 2.325688123703002930e+00
-6.511061668395996094e+00 -3.716338872909545898e+00 2.045324087142944336e+00
-5.850044250488281250e+00 -3.632351398468017578e+00 1.810362458229064941e+00
-7.761939048767089844e+00 -3.691711425781250000e+00 2.182887315750122070e+00
-7.149310111999511719e+00 -3.732258081436157227e+00 1.961534142494201660e+00
-6.454672813415527344e+00 -3.679674148559570312e+00 1.731716513633728027e+00
-5.818429946899414062e+00 -3.605690479278564453e+00 1.530056834220886230e+00
-7.913064002990722656e+00 -3.765282869338989258e+00 1.881870269775390625e+00
-7.126407146453857422e+00 -3.717136621475219727e+00 1.644032478332519531e+00
-6.437248706817626953e+00 -3.663788795471191406e+00 1.442430377006530762e+00
-5.803841590881347656e+00 -3.589644193649291992e+00 1.262332558631896973e+00
-7.815944671630859375e+00 -3.717397451400756836e+00 1.529215216636657715e+00
-7.064374446868896484e+00 -3.681643962860107422e+00 1.327363371849060059e+00
-6.461473464965820312e+00 -3.676083803176879883e+00 1.166790723800659180e+00
-5.720443248748779297e+00 -3.532543659210205078e+00 9.916068911552429199e-01
-7.828664302825927734e+00 -3.721771955490112305e+00 1.207453608512878418e+00
-7.061513423919677734e+00 -3.677019119262695312e+00 1.031192183494567871e+00
-6.453076839447021484e+00 -3.663856267929077148e+00 8.914273977279663086e-01
-5.638332843780517578e+00 -3.477761507034301758e+00 7.325354814529418945e-01
-7.805083751678466797e+00 -3.707221746444702148e+00 8.853158950805664062e-01
-7.091229915618896484e+00 -3.689347267150878906e+00 7.429463267326354980e-01
-6.388966083526611328e+00 -3.624507665634155273e+00 6.129434108734130859e-01
-5.923134803771972656e+00 -3.649149179458618164e+00 5.145524144172668457e-01
-2.616999149322509766e+00 -1.241890430450439453e+00 1.908764541149139404e-01
-7.093165874481201172e+00 -3.687208890914916992e+00 4.511486589908599854e-01
-6.597422599792480469e+00 -3.739723205566406250e+00 3.563086092472076416e-01
-7.833224296569824219e+00 -4.820268630981445312e+00 3.452951908111572266e-01
-2.639799356460571289e+00 -1.252145886421203613e+00 8.671443164348602295e-02
-7.953392505645751953e+00 -4.130850791931152344e+00 1.814711391925811768e-01
-1.155403804779052734e+01 -6.541369915008544922e+00 1.413616836071014404e-01
-7.290125846862792969e+00 -4.482558727264404297e+00 1.045556738972663879e-02
-7.408276081085205078e+00 -3.813059329986572266e+00 2.360855817794799805e+00
-6.655655860900878906e+00 -3.744914531707763672e+00 2.083488225936889648e+00
-6.012429237365722656e+00 -3.682256698608398438e+00 1.853587388992309570e+00
-7.678229808807373047e+00 -3.594294786453247070e+00 2.153103113174438477e+00
-7.261079788208007812e+00 -3.734091520309448242e+00 1.985876202583312988e+00
-6.584105491638183594e+00 -3.700118064880371094e+00 1.760317444801330566e+00
-5.998654365539550781e+00 -3.666625738143920898e+00 1.571503996849060059e+00
-7.773986816406250000e+00 -3.640774488449096680e+00 1.843447685241699219e+00
-7.209208488464355469e+00 -3.704234600067138672e+00 1.657859683036804199e+00
-6.519529819488525391e+00 -3.657841444015502930e+00 1.455810904502868652e+00
-5.894592761993408203e+00 -3.595956802368164062e+00 1.277247786521911621e+00
-7.689665317535400391e+00 -3.599647998809814453e+00 1.500158548355102539e+00
-7.156155586242675781e+00 -3.673818111419677734e+00 1.340347886085510254e+00
-6.516650199890136719e+00 -3.654730558395385742e+00 1.172682762145996094e+00
-5.871282100677490234e+00 -3.576114416122436523e+00 1.013931155204772949e+00
-7.829823017120361328e+00 -3.663591861724853516e+00 1.204142570495605469e+00
-7.246304512023925781e+00 -3.716903209686279297e+00 1.054826855659484863e+00
-6.584601879119873047e+00 -3.685290098190307617e+00 9.064554572105407715e-01
-5.841283321380615234e+00 -3.553650856018066406e+00 7.560557126998901367e-01
-7.885358810424804688e+00 -3.686222791671752930e+00 8.918389678001403809e-01
-6.316280841827392578e+00 -3.532220363616943359e+00 6.038794517517089844e-01
-6.145697116851806641e+00 -3.734438896179199219e+00 5.318861603736877441e-01
-7.812232017517089844e+00 -3.648715257644653320e+00 5.681582689285278320e-01
-7.204524993896484375e+00 -3.689122200012207031e+00 4.567830860614776611e-01
-6.628092765808105469e+00 -3.703556776046752930e+00 3.567309975624084473e-01
-7.845567703247070312e+00 -4.761744499206542969e+00 3.445448577404022217e-01
-2.651055574417114258e+00 -1.237616062164306641e+00 8.683309704065322876e-02
-1.139556789398193359e+01 -5.830152034759521484e+00 2.591895163059234619e-01
-1.143242073059082031e+01 -6.380202293395996094e+00 1.393921077251434326e-01
-7.381621360778808594e+00 -4.476634025573730469e+00 1.054719742387533188e-02
-7.474439620971679688e+00 -3.789283275604248047e+00 2.374486207962036133e+00
-6.740097045898437500e+00 -3.738163471221923828e+00 2.102701663970947266e+00
-6.217861175537109375e+00 -3.755804538726806641e+00 1.909779667854309082e+00
-7.856835842132568359e+00 -3.619297266006469727e+00 2.196918249130249023e+00
-7.393940448760986328e+00 -3.745229244232177734e+00 2.015890121459960938e+00
-6.656948566436767578e+00 -3.687491655349731445e+00 1.773710012435913086e+00
-6.210763931274414062e+00 -3.744123935699462891e+00 1.621022462844848633e+00
-7.599055767059326172e+00 -3.502157211303710938e+00 1.796836614608764648e+00
-7.362048625946044922e+00 -3.725846529006958008e+00 1.687718272209167480e+00
-6.635478019714355469e+00 -3.669547080993652344e+00 1.476646423339843750e+00
-6.171845436096191406e+00 -3.713322877883911133e+00 1.332361102104187012e+00
-7.667780876159667969e+00 -3.532208204269409180e+00 1.491632819175720215e+00
-7.390707015991210938e+00 -3.737110376358032227e+00 1.379958391189575195e+00
-6.637516975402832031e+00 -3.669162034988403320e+00 1.190359115600585938e+00
-6.234031200408935547e+00 -3.744812011718750000e+00 1.072587132453918457e+00
-7.680321693420410156e+00 -3.536360502243041992e+00 1.177791595458984375e+00
-7.338016510009765625e+00 -3.707251548767089844e+00 1.064845800399780273e+00
-6.664467811584472656e+00 -3.676470756530761719e+00 9.143273234367370605e-01
-6.278901100158691406e+00 -3.767293214797973633e+00 8.096907138824462891e-01
-7.724367141723632812e+00 -3.553373336791992188e+00 8.711482882499694824e-01
-6.193302631378173828e+00 -3.711525917053222656e+00 5.340251922607421875e-01
-7.669460296630859375e+00 -3.524871826171875000e+00 5.561915040016174316e-01
-7.338457584381103516e+00 -3.701045513153076172e+00 4.638261198997497559e-01
-6.628818035125732422e+00 -3.650770664215087891e+00 3.555576801300048828e-01
-7.862633705139160156e+00 -4.706329822540283203e+00 3.440196514129638672e-01
-8.150193214416503906e+00 -3.744093179702758789e+00 2.661952376365661621e-01
-2.622292995452880859e+00 -1.321367859840393066e+00 5.945790931582450867e-02
-1.163782215118408203e+01 -6.401501655578613281e+00 1.414149105548858643e-01
-7.142046451568603516e+00 -4.271623134613037109e+00 1.016723923385143280e-02
-7.612896919250488281e+00 -3.800940036773681641e+00 2.411017179489135742e+00
-6.844173431396484375e+00 -3.741158485412597656e+00 2.127968788146972656e+00
-6.318892955780029297e+00 -3.764107465744018555e+00 1.933680653572082520e+00
-7.951283931732177734e+00 -3.603829860687255859e+00 2.217102766036987305e+00
-7.549814224243164062e+00 -3.766152381896972656e+00 2.052048444747924805e+00
-6.769203186035156250e+00 -3.695576429367065430e+00 1.797544002532958984e+00
-6.308279514312744141e+00 -3.750330686569213867e+00 1.640437245368957520e+00
-7.843011856079101562e+00 -3.556406974792480469e+00 1.849326610565185547e+00
-7.453165054321289062e+00 -3.714691400527954102e+00 1.703348994255065918e+00
-6.779391288757324219e+00 -3.694997072219848633e+00 1.503598809242248535e+00
-6.222420692443847656e+00 -3.691941261291503906e+00 1.338363528251647949e+00
-7.796941280364990234e+00 -3.533875703811645508e+00 1.512511968612670898e+00
-7.439104080200195312e+00 -3.704442262649536133e+00 1.384724736213684082e+00
-6.754464626312255859e+00 -3.679882287979125977e+00 1.207260131835937500e+00
-6.290937900543212891e+00 -3.726658821105957031e+00 1.078423500061035156e+00
-7.714506149291992188e+00 -3.494890213012695312e+00 1.179723024368286133e+00
-7.496474266052246094e+00 -3.729745626449584961e+00 1.084498643875122070e+00
-6.781979560852050781e+00 -3.687201023101806641e+00 9.273278117179870605e-01
-6.311307907104492188e+00 -3.734262943267822266e+00 8.108996748924255371e-01
-7.761431694030761719e+00 -3.512883901596069336e+00 8.728810548782348633e-01
-7.493186950683593750e+00 -3.724847555160522461e+00 7.777429223060607910e-01
-6.614847660064697266e+00 -3.593344688415527344e+00 6.281609535217285156e-01
-6.228837490081787109e+00 -3.681065320968627930e+00 5.351315736770629883e-01
-7.770953178405761719e+00 -3.513925790786743164e+00 5.619775652885437012e-01
-2.652187824249267578e+00 -1.317242622375488281e+00 1.671171337366104126e-01
-6.723083496093750000e+00 -3.649102210998535156e+00 3.594061136245727539e-01
-7.881036281585693359e+00 -4.651901721954345703e+00 3.435694575309753418e-01
-8.186676025390625000e+00 -3.700189352035522461e+00 2.666402161121368408e-01
-2.612439632415771484e+00 -1.296364545822143555e+00 5.905302241444587708e-02
-1.190368461608886719e+01 -6.452921390533447266e+00 1.441616564989089966e-01
-6.932974815368652344e+00 -4.089031219482421875e+00 9.833707474172115326e-03
-7.703422546386718750e+00 -3.787266492843627930e+00 2.432281255722045898e+00
-6.946839332580566406e+00 -3.742100715637207031e+00 2.152709722518920898e+00
-6.355212211608886719e+00 -3.733101844787597656e+00 1.937748789787292480e+00
-8.283077239990234375e+00 -3.693115472793579102e+00 2.303256511688232422e+00
-7.690519332885742188e+00 -3.777590036392211914e+00 2.083952903747558594e+00
-6.916111469268798828e+00 -3.720877408981323242e+00 1.830457687377929688e+00
-6.349694252014160156e+00 -3.722411394119262695e+00 1.645236372947692871e+00
-8.070053100585937500e+00 -3.599824666976928711e+00 1.897617220878601074e+00
-7.647322177886962891e+00 -3.753058671951293945e+00 1.742425918579101562e+00
-6.864195823669433594e+00 -3.686769962310791016e+00 1.517361760139465332e+00
-6.344258308410644531e+00 -3.711789369583129883e+00 1.359645009040832520e+00
-7.942594528198242188e+00 -3.541307210922241211e+00 1.536522746086120605e+00
-7.564431190490722656e+00 -3.709102392196655273e+00 1.403790354728698730e+00
-6.858734130859375000e+00 -3.682294368743896484e+00 1.221835374832153320e+00
-6.268411159515380859e+00 -3.661542177200317383e+00 1.070690274238586426e+00
-7.849792957305908203e+00 -3.498287916183471680e+00 1.197106361389160156e+00
-7.582448959350585938e+00 -3.714654684066772461e+00 1.093618392944335938e+00
-6.835981845855712891e+00 -3.662397623062133789e+00 9.316214919090270996e-01
-6.351272583007812500e+00 -3.705484628677368164e+00 8.130978345870971680e-01
-7.923702716827392578e+00 -3.527911424636840820e+00 8.886793851852416992e-01
-7.530210018157958984e+00 -3.685803890228271484e+00 7.792236208915710449e-01
-6.817758083343505859e+00 -3.649571895599365234e+00 6.452910900115966797e-01
-6.343504428863525391e+00 -3.696501970291137695e+00 5.430239439010620117e-01
-8.075909614562988281e+00 -3.592302322387695312e+00 5.824263095855712891e-01
-2.670086383819580078e+00 -1.305769205093383789e+00 1.677369326353073120e-01
-6.947056293487548828e+00 -3.715666294097900391e+00 3.701535761356353760e-01
-7.891294956207275391e+00 -4.592900753021240234e+00 3.427816331386566162e-01
-1.118858623504638672e+01 -4.974534511566162109e+00 3.634115159511566162e-01
-2.632022857666015625e+00 -1.286016464233398438e+00 5.931619927287101746e-02
-1.193511772155761719e+01 -6.375520229339599609e+00 1.440658420324325562e-01
-7.408310890197753906e+00 -4.308332920074462891e+00 1.047022826969623566e-02
-7.888458728790283203e+00 -3.818314313888549805e+00 2.483260154724121094e+00
-7.074482440948486328e+00 -3.755038499832153320e+00 2.185083150863647461e+00
-6.412311553955078125e+00 -3.713910102844238281e+00 1.948173642158508301e+00
-8.813307762145996094e+00 -3.864873886108398438e+00 2.444056272506713867e+00
-7.780909061431884766e+00 -3.762904405593872070e+00 2.102150201797485352e+00
-7.048952102661132812e+00 -3.736757755279541016e+00 1.859512567520141602e+00
-6.378329753875732422e+00 -3.686799049377441406e+00 1.646763443946838379e+00
-8.208382606506347656e+00 -3.601305723190307617e+00 1.924912095069885254e+00
-7.731074333190917969e+00 -3.735474824905395508e+00 1.756253242492675781e+00
-6.977782249450683594e+00 -3.692791461944580078e+00 1.537432670593261719e+00
-6.381394386291503906e+00 -3.681144714355468750e+00 1.362737178802490234e+00
-8.156267166137695312e+00 -3.576743602752685547e+00 1.573583126068115234e+00
-7.722958564758300781e+00 -3.728228807449340820e+00 1.428937315940856934e+00
-6.974637031555175781e+00 -3.689568758010864258e+00 1.238426327705383301e+00
-6.336195945739746094e+00 -3.649178743362426758e+00 1.078423500061035156e+00
-8.039835929870605469e+00 -3.524012327194213867e+00 1.222767591476440430e+00
-7.699783802032470703e+00 -3.713727712631225586e+00 1.107234239578247070e+00
-7.026030540466308594e+00 -3.708912372589111328e+00 9.544022083282470703e-01
-6.391120910644531250e+00 -3.676356315612792969e+00 8.152959942817687988e-01
-8.074597358703613281e+00 -3.535889387130737305e+00 9.031525850296020508e-01
-7.698894023895263672e+00 -3.709986448287963867e+00 7.943083643913269043e-01
-6.778322219848632812e+00 -3.575126886367797852e+00 6.394702196121215820e-01
-6.335800647735595703e+00 -3.640120983123779297e+00 5.404422879219055176e-01
-8.031978607177734375e+00 -3.513885736465454102e+00 5.776922106742858887e-01
-2.662755250930786133e+00 -1.281998395919799805e+00 1.667790710926055908e-01
-7.118185043334960938e+00 -3.751207351684570312e+00 3.780381679534912109e-01
-7.885525703430175781e+00 -4.524997234344482422e+00 3.413185179233551025e-01
-1.120149803161621094e+01 -4.898180007934570312e+00 3.628478646278381348e-01
-2.607428789138793945e+00 -1.254240274429321289e+00 5.858739838004112244e-02
-1.202179527282714844e+01 -6.327316761016845703e+00 1.446407288312911987e-01
-7.432003974914550781e+00 -4.261302947998046875e+00 1.046656258404254913e-02
-8.028125762939453125e+00 -3.825296878814697266e+00 2.519790649414062500e+00
-7.153813362121582031e+00 -3.741065979003906250e+00 2.202454328536987305e+00
-6.514765262603759766e+00 -3.720054626464843750e+00 1.972328782081604004e+00
-8.981926918029785156e+00 -3.873282194137573242e+00 2.484179019927978516e+00
-7.885443687438964844e+00 -3.753933429718017578e+00 2.124129056930541992e+00
-7.102824687957763672e+00 -3.709666967391967773e+00 1.867684364318847656e+00
-6.442378997802734375e+00 -3.671269178390502930e+00 1.657452464103698730e+00
-8.403585433959960938e+00 -3.625623226165771484e+00 1.965434312820434570e+00
-7.889214515686035156e+00 -3.752351284027099609e+00 1.786913394927978516e+00
-7.097790241241455078e+00 -3.700732946395874023e+00 1.558841705322265625e+00
-6.481644153594970703e+00 -3.686155557632446289e+00 1.379289269447326660e+00
-8.326356887817382812e+00 -3.590580463409423828e+00 1.602117776870727539e+00
-7.853491306304931641e+00 -3.731999158859252930e+00 1.448824763298034668e+00
-7.062849044799804688e+00 -3.680947303771972656e+00 1.250055432319641113e+00
-6.451380252838134766e+00 -3.662986040115356445e+00 1.094181895256042480e+00
-8.221386909484863281e+00 -3.543612718582153320e+00 1.247049093246459961e+00
-7.855014801025390625e+00 -3.729362726211547852e+00 1.126244664192199707e+00
-7.086532115936279297e+00 -3.685429573059082031e+00 9.595307707786560059e-01
-6.434308528900146484e+00 -3.648839235305786133e+00 8.179337978363037109e-01
-8.255122184753417969e+00 -3.554737091064453125e+00 9.208875298500061035e-01
-6.923930644989013672e+00 -3.597796916961669922e+00 6.511120796203613281e-01
-6.420495033264160156e+00 -3.636564254760742188e+00 5.457530617713928223e-01
-2.654331445693969727e+00 -1.257939457893371582e+00 1.657648831605911255e-01
-7.307737350463867188e+00 -3.793990612030029297e+00 3.868613839149475098e-01
-7.890528202056884766e+00 -4.463734626770019531e+00 3.403431177139282227e-01
-1.121573066711425781e+01 -4.822644233703613281e+00 3.623435199260711670e-01
-2.625919103622436523e+00 -1.243352055549621582e+00 5.883033573627471924e-02
-1.201689434051513672e+01 -6.230879306793212891e+00 1.441190689802169800e-01
-7.532878875732421875e+00 -4.257939338684082031e+00 1.057163253426551819e-02
-8.213469505310058594e+00 -3.851950407028198242e+00 2.570497512817382812e+00
-7.317285060882568359e+00 -3.769558429718017578e+00 2.245619058609008789e+00
-6.609105110168457031e+00 -3.720335960388183594e+00 1.993941307067871094e+00
-9.158114433288574219e+00 -3.882791757583618164e+00 2.526271343231201172e+00
-7.659323692321777344e+00 -3.588806390762329102e+00 2.057247638702392578e+00
-7.307313442230224609e+00 -3.759581327438354492e+00 1.915352582931518555e+00
-6.599218845367431641e+00 -3.707190752029418945e+00 1.691919088363647461e+00
-8.664196014404296875e+00 -3.675167798995971680e+00 2.021073818206787109e+00
-7.826908111572265625e+00 -3.663997411727905273e+00 1.767675518989562988e+00
-7.212041854858398438e+00 -3.704199075698852539e+00 1.578912615776062012e+00
-6.547883987426757812e+00 -3.670839071273803711e+00 1.388565778732299805e+00
-8.523210525512695312e+00 -3.613609790802001953e+00 1.635698080062866211e+00
-7.791359424591064453e+00 -3.644040822982788086e+00 1.433210611343383789e+00
-7.196037769317626953e+00 -3.694391965866088867e+00 1.269592404365539551e+00
-6.551429271697998047e+00 -3.666817903518676758e+00 1.107313752174377441e+00
-8.411683082580566406e+00 -3.564593076705932617e+00 1.272572159767150879e+00
-7.828334331512451172e+00 -3.658004283905029297e+00 1.119179964065551758e+00
-7.273371696472167969e+00 -3.726078033447265625e+00 9.817150831222534180e-01
