-8.121385239064693451e-03 -7.288134694099426270e-01 6.774248927831649780e-02
-3.432690352201461792e-02 -7.100396156311035156e-01 4.011712968349456787e-02
-9.925342351198196411e-02 -7.331604957580566406e-01 1.498088333755731583e-02
-7.379827648401260376e-02 -7.473224997520446777e-01 7.995377294719219208e-03
-1.180965006351470947e-01 -6.837725043296813965e-01 3.915927559137344360e-02
-5.348973274230957031e-01 -2.465533494949340820e+00 7.487760484218597412e-02
-5.478363633155822754e-01 -2.452449798583984375e+00 7.458094507455825806e-02
-5.666133761405944824e-01 -2.467284679412841797e+00 1.668114215135574341e-01
-5.613067746162414551e-01 -2.442223072052001953e+00 7.437328249216079712e-02
-5.783501863479614258e-01 -2.447487592697143555e+00 7.464027404785156250e-02
-5.928851366043090820e-01 -2.441950321197509766e+00 7.458094507455825806e-02
-6.018127799034118652e-01 -2.414019584655761719e+00 7.383928447961807251e-02
-5.219914913177490234e-01 -2.470948457717895508e+00 5.113744735717773438e-02
-5.404157638549804688e-01 -2.486910581588745117e+00 1.436215639114379883e-01
-5.367178916931152344e-01 -2.465745210647583008e+00 5.109696090221405029e-02
-5.526130795478820801e-01 -2.469907522201538086e+00 1.428327560424804688e-01
-5.494322776794433594e-01 -2.451673984527587891e+00 5.087426677346229553e-02
-5.699974298477172852e-01 -2.476199865341186523e+00 1.433961987495422363e-01
-5.640159249305725098e-01 -2.446308135986328125e+00 5.083378404378890991e-02
-5.840307474136352539e-01 -2.467797994613647461e+00 1.431144773960113525e-01
-5.822438001632690430e-01 -2.456421136856079102e+00 5.111720412969589233e-02
-5.840579867362976074e-01 -2.398403406143188477e+00 4.998351633548736572e-02
-5.089984536170959473e-01 -2.476081848144531250e+00 2.691386640071868896e-02
-6.019160151481628418e-01 -2.407383918762207031e+00 5.024669319391250610e-02
-5.243892073631286621e-01 -2.473890066146850586e+00 2.692451141774654388e-02
-5.440809130668640137e-01 -2.497605562210083008e+00 1.200992688536643982e-01
-5.404122471809387207e-01 -2.474533796310424805e+00 2.696709893643856049e-02
-5.552423596382141113e-01 -2.475701332092285156e+00 1.192075684666633606e-01
-5.558048486709594727e-01 -2.472146749496459961e+00 2.697774395346641541e-02
-5.699733495712280273e-01 -2.470300912857055664e+00 1.191136986017227173e-01
-5.664567947387695312e-01 -2.449205398559570312e+00 2.676481939852237701e-02
-5.881171822547912598e-01 -2.479392290115356445e+00 1.197238191962242126e-01
-5.844810009002685547e-01 -2.458330392837524414e+00 2.690322138369083405e-02
-5.964696407318115234e-01 -2.442069768905639648e+00 2.676481939852237701e-02
-5.123447775840759277e-01 -2.483704805374145508e+00 3.098307643085718155e-03
-5.263385176658630371e-01 -2.478953838348388672e+00 9.514000266790390015e-02
-5.259105563163757324e-01 -2.472689390182495117e+00 3.088534111157059669e-03
-5.417528152465820312e-01 -2.476654052734375000e+00 9.517752379179000854e-02
-5.387184619903564453e-01 -2.458670854568481445e+00 3.075095126405358315e-03
-5.560609698295593262e-01 -2.469383716583251953e+00 9.502746164798736572e-02
-5.577548146247863770e-01 -2.472877979278564453e+00 3.097085980698466301e-03
-5.712023377418518066e-01 -2.465925455093383789e+00 9.502746164798736572e-02
-5.726916193962097168e-01 -2.468435049057006836e+00 3.095864551141858101e-03
-5.884054303169250488e-01 -2.471122980117797852e+00 9.536509960889816284e-02
-5.887547731399536133e-01 -2.468765497207641602e+00 3.100751200690865517e-03
-6.007985472679138184e-01 -2.452479839324951172e+00 3.084868891164660454e-03
-3.840411186218261719e+00 -6.962007522583007812e+00 9.713976643979549408e-03
-3.882072687149047852e+00 -6.741087913513183594e+00 9.503839537501335144e-03
-3.928910017013549805e+00 -6.726639747619628906e+00 9.517278522253036499e-03
-3.996611356735229492e+00 -6.747145652770996094e+00 9.580808691680431366e-03
-3.947311401367187500e+00 -6.571621417999267578e+00 9.365784004330635071e-03
-3.999523401260375977e+00 -6.566920757293701172e+00 9.393883869051933289e-03
-4.015573978424072266e+00 -6.503117084503173828e+00 9.337684139609336853e-03
-4.060176372528076172e+00 -6.485984325408935547e+00 9.348680265247821808e-03
-4.099896907806396484e+00 -6.460949420928955078e+00 9.348680265247821808e-03
-4.204379081726074219e+00 -6.536596298217773438e+00 9.495287202298641205e-03
-4.238400459289550781e+00 -6.501461029052734375e+00 9.481848217546939850e-03
-4.273803234100341797e+00 -6.468657493591308594e+00 9.472073987126350403e-03
-4.147063732147216797e+00 -6.193860054016113281e+00 9.106777608394622803e-03
-4.240573406219482422e+00 -6.250221252441406250e+00 9.227728471159934998e-03
-4.231257438659667969e+00 -6.154863357543945312e+00 9.125103242695331573e-03
-4.322669506072998047e+00 -6.205917835235595703e+00 9.239945560693740845e-03
-4.241314888000488281e+00 -6.010150432586669922e+00 8.987047709524631500e-03
-4.197854518890380859e+00 -5.871751785278320312e+00 8.818448521196842194e-03
-4.212100982666015625e+00 -5.815917015075683594e+00 8.773244917392730713e-03
-4.296212196350097656e+00 -5.856078624725341797e+00 8.873427286744117737e-03
-4.301047801971435547e+00 -5.787869930267333984e+00 8.809897117316722870e-03
-4.370157241821289062e+00 -5.806112289428710938e+00 8.878313004970550537e-03
-4.388119220733642578e+00 -5.756125450134277344e+00 8.842883631587028503e-03
-4.422744274139404297e+00 -5.728300571441650391e+00 8.841661736369132996e-03
-4.452881336212158203e+00 -5.694753646850585938e+00 8.831888437271118164e-03
-4.468495368957519531e+00 -5.643020629882812500e+00 8.794014342129230499e-03
-4.160209655761718750e+00 -5.187975406646728516e+00 8.124506101012229919e-03
-4.199528694152832031e+00 -5.171667098999023438e+00 8.139166980981826782e-03
-4.513811588287353516e+00 -5.489524841308593750e+00 8.682836778461933136e-03
-4.550609111785888672e+00 -5.465568065643310547e+00 8.688945323228836060e-03
-4.587926864624023438e+00 -5.442130088806152344e+00 8.696275763213634491e-03
-4.613441944122314453e+00 -5.404749870300292969e+00 8.681614883244037628e-03
-4.617093086242675781e+00 -5.342293739318847656e+00 8.626637049019336700e-03
-4.633322715759277344e+00 -5.295049190521240234e+00 8.596093393862247467e-03
-4.670367240905761719e+00 -5.271759510040283203e+00 8.604645729064941406e-03
-4.704629421234130859e+00 -5.245236873626708984e+00 8.608311414718627930e-03
-4.617063522338867188e+00 -5.084494590759277344e+00 8.390843868255615234e-03
-4.439723968505859375e+00 -4.829326152801513672e+00 8.014550432562828064e-03
-4.536720275878906250e+00 -4.874463081359863281e+00 8.135501295328140259e-03
-4.650893688201904297e+00 -4.936056137084960938e+00 8.285774849355220795e-03
-4.757017612457275391e+00 -4.987020969390869141e+00 8.420164696872234344e-03
-4.785444259643554688e+00 -4.955580711364746094e+00 8.416499942541122437e-03
-4.775216102600097656e+00 -4.884650230407714844e+00 8.345639333128929138e-03
-4.797359943389892578e+00 -4.847439765930175781e+00 8.332200348377227783e-03
-7.407745838165283203e+00 -6.877906799316406250e+00 1.076235249638557434e-01
-4.826305389404296875e+00 -4.817205905914306641e+00 8.330978453159332275e-03
-4.798092842102050781e+00 -4.730632781982421875e+00 8.232017979025840759e-03
-7.489367961883544922e+00 -6.784471035003662109e+00 1.075915917754173279e-01
-4.841356754302978516e+00 -4.715057373046875000e+00 8.256453089416027069e-03
-4.822633266448974609e+00 -4.639505386352539062e+00 8.175819180905818939e-03
-4.771271228790283203e+00 -4.534052848815917969e+00 8.041428402066230774e-03
-4.750151634216308594e+00 -4.458837032318115234e+00 7.959572598338127136e-03
-7.882326126098632812e+00 -6.795817852020263672e+00 1.108067780733108521e-01
-4.790620326995849609e+00 -4.441844940185546875e+00 7.981563918292522430e-03
-7.964225769042968750e+00 -6.781683444976806641e+00 1.113710254430770874e-01
-4.806722640991210938e+00 -4.402235507965087891e+00 7.963237352669239044e-03
-8.265886306762695312e+00 -6.951511859893798828e+00 1.149907708168029785e-01
-4.771351337432861328e+00 -4.316307067871093750e+00 7.860612124204635620e-03
-8.333768844604492188e+00 -6.921746253967285156e+00 1.153421029448509216e-01
-4.831301212310791016e+00 -4.316932678222656250e+00 7.915589958429336548e-03
-8.371443748474121094e+00 -6.866675376892089844e+00 1.152782142162322998e-01
-4.925926685333251953e+00 -4.347422599792480469e+00 8.026767522096633911e-03
-8.229269027709960938e+00 -6.666011810302734375e+00 1.127550452947616577e-01
-4.948740482330322266e+00 -4.313830375671386719e+00 8.020658977329730988e-03
-8.266111373901367188e+00 -6.612269401550292969e+00 1.127018108963966370e-01
-4.934951782226562500e+00 -4.248804092407226562e+00 7.955906912684440613e-03
-7.831017494201660156e+00 -6.185813426971435547e+00 1.062501519918441772e-01
-4.954072475433349609e+00 -4.212613582611083984e+00 7.944911718368530273e-03
-7.812056541442871094e+00 -6.093367099761962891e+00 1.054836213588714600e-01
-4.913205146789550781e+00 -4.126186370849609375e+00 7.838620804250240326e-03
-8.207380294799804688e+00 -6.321104049682617188e+00 1.102957502007484436e-01
-4.973067283630371094e+00 -4.124689579010009766e+00 7.893599569797515869e-03
-8.265113830566406250e+00 -6.285152435302734375e+00 1.105512604117393494e-01
-5.012207031250000000e+00 -4.105503559112548828e+00 7.915589958429336548e-03
-7.966872215270996094e+00 -5.981561183929443359e+00 1.060691624879837036e-01
-5.044301033020019531e+00 -4.080332279205322266e+00 7.926586084067821503e-03
-8.404278755187988281e+00 -6.229699134826660156e+00 1.113816797733306885e-01
-5.077055931091308594e+00 -4.055545330047607422e+00 7.938803173601627350e-03
-8.202680587768554688e+00 -6.002630233764648438e+00 1.082197204232215881e-01
-5.115977287292480469e+00 -4.035464286804199219e+00 7.960794493556022644e-03
-8.022126197814941406e+00 -5.795256614685058594e+00 1.053665056824684143e-01
-5.125652313232421875e+00 -3.992322206497192383e+00 7.937581278383731842e-03
-8.051021575927734375e+00 -5.741280555725097656e+00 1.052813455462455750e-01
-4.838528156280517578e+00 -3.721210002899169922e+00 7.457441184669733047e-03
-8.213656425476074219e+00 -5.781560420989990234e+00 1.069421544671058655e-01
-5.084264278411865234e+00 -3.860784053802490234e+00 7.799525745213031769e-03
-8.191493034362792969e+00 -5.691115856170654297e+00 1.061969175934791565e-01
-5.097456455230712891e+00 -3.821716785430908203e+00 7.783643435686826706e-03
-7.740518093109130859e+00 -5.307673931121826172e+00 9.992624819278717041e-02
-5.120810508728027344e+00 -3.790367364883422852e+00 7.783643435686826706e-03
-8.057820320129394531e+00 -5.452862739562988281e+00 1.035885736346244812e-01
-5.157697200775146484e+00 -3.768905401229858398e+00 7.804412860423326492e-03
-4.646490097045898438e+00 -2.639070987701416016e+00 1.585957407951354980e-01
-8.260765075683593750e+00 -5.516604423522949219e+00 1.057604178786277771e-01
-5.209110736846923828e+00 -3.757663488388061523e+00 7.847173139452934265e-03
-4.652129650115966797e+00 -2.604651212692260742e+00 1.582397520542144775e-01
-8.174225807189941406e+00 -5.386583328247070312e+00 1.042273566126823425e-01
-5.233698368072509766e+00 -3.726790428161621094e+00 7.849616929888725281e-03
-4.649645805358886719e+00 -2.565915346145629883e+00 1.576167643070220947e-01
-7.898622989654541016e+00 -5.135736942291259766e+00 1.003095135092735291e-01
-5.263830661773681641e+00 -3.699782371520996094e+00 7.860612124204635620e-03
-8.431607246398925781e+00 -5.408970355987548828e+00 1.066547110676765442e-01
-5.320941448211669922e+00 -3.691354513168334961e+00 7.911925204098224640e-03
-1.305386161804199219e+01 -6.996211528778076172e+00 4.395647644996643066e-01
-8.434219360351562500e+00 -5.337882041931152344e+00 1.062714457511901855e-01
-5.360818862915039062e+00 -3.670500278472900391e+00 7.937581278383731842e-03
-1.209935474395751953e+01 -6.959545135498046875e+00 2.826325893402099609e-01
-8.292930603027343750e+00 -5.177471160888671875e+00 1.040889546275138855e-01
-5.371639728546142578e+00 -3.629699468612670898e+00 7.920476607978343964e-03
-4.648526668548583984e+00 -2.636004209518432617e+00 1.082065179944038391e-01
-8.376481056213378906e+00 -5.158473968505859375e+00 1.047383770346641541e-01
-5.385489940643310547e+00 -3.591123819351196289e+00 7.908260449767112732e-03
-4.654140949249267578e+00 -2.601577758789062500e+00 1.079635843634605408e-01
-8.307126998901367188e+00 -5.045724868774414062e+00 1.034821122884750366e-01
-5.395727634429931641e+00 -3.550315856933593750e+00 7.891155779361724854e-03
-4.651627063751220703e+00 -2.562839984893798828e+00 1.075384542346000671e-01
-7.983654022216796875e+00 -4.782436847686767578e+00 9.908518195152282715e-02
-5.400635719299316406e+00 -3.506250858306884766e+00 7.866720668971538544e-03
-1.245716857910156250e+01 -6.764042377471923828e+00 2.870256304740905762e-01
-8.108413696289062500e+00 -4.789812564849853516e+00 1.002669259905815125e-01
-5.402680873870849609e+00 -3.460641622543334961e+00 7.838620804250240326e-03
-1.251606845855712891e+01 -6.696913242340087891e+00 2.874305248260498047e-01
-8.129874229431152344e+00 -4.735440254211425781e+00 1.001711115241050720e-01
-5.412823677062988281e+00 -3.420481443405151367e+00 7.822738960385322571e-03
-1.258876228332519531e+01 -6.636775016784667969e+00 2.881593108177185059e-01
-4.633914947509765625e+00 -2.661190032958984375e+00 5.689387023448944092e-02
-5.485475063323974609e+00 -3.419473886489868164e+00 7.897264324128627777e-03
-4.667381286621093750e+00 -2.645686626434326172e+00 2.520723938941955566e-01
-1.267982196807861328e+01 -6.585674285888671875e+00 2.893132567405700684e-01
-4.646676063537597656e+00 -2.630736112594604492e+00 5.685128271579742432e-02
-5.488464355468750000e+00 -3.374751806259155273e+00 7.871608249843120575e-03
-4.693990707397460938e+00 -2.622845411300659180e+00 2.526355683803558350e-01
-1.276182556152343750e+01 -6.529150962829589844e+00 2.902647256851196289e-01
-4.637408733367919922e+00 -2.588043689727783203e+00 5.654254183173179626e-02
-5.439809322357177734e+00 -3.299009323120117188e+00 7.772647775709629059e-03
-1.282932567596435547e+01 -6.464669704437255859e+00 2.908923029899597168e-01
-4.661086082458496094e+00 -2.563877582550048828e+00 5.663835629820823669e-02
-5.480546474456787109e+00 -3.277888059616088867e+00 7.801969069987535477e-03
-1.288218498229980469e+01 -6.392495155334472656e+00 2.911959886550903320e-01
-8.290647506713867188e+00 -4.494313716888427734e+00 1.004053354263305664e-01
-5.550514221191406250e+00 -3.273663282394409180e+00 7.872829213738441467e-03
-1.296518230438232422e+01 -6.334837913513183594e+00 2.921879589557647705e-01
-8.486528396606445312e+00 -4.533347129821777344e+00 1.024387776851654053e-01
-5.541105270385742188e+00 -3.222451925277709961e+00 7.831290364265441895e-03
-1.303804588317871094e+01 -6.271635055541992188e+00 2.929572463035583496e-01
-8.516839027404785156e+00 -4.482586383819580078e+00 1.024707108736038208e-01
-4.640339851379394531e+00 -2.660640716552734375e+00 6.535035092383623123e-03
-4.655863761901855469e+00 -2.633859157562255859e+00 2.008219361305236816e-01
-1.310339069366455078e+01 -6.204352378845214844e+00 2.935645878314971924e-01
-8.176672935485839844e+00 -4.239686012268066406e+00 9.806314110755920410e-02
-4.626978874206542969e+00 -2.615387201309204102e+00 6.493495777249336243e-03
-4.658845901489257812e+00 -2.597941637039184570e+00 2.002592086791992188e-01
-1.315661907196044922e+01 -6.131013870239257812e+00 2.939087450504302979e-01
-8.277336120605468750e+00 -4.227640628814697266e+00 9.895742684602737427e-02
-4.640318870544433594e+00 -2.585487365722656250e+00 6.489831022918224335e-03
-4.678201675415039062e+00 -2.571231842041015625e+00 2.004092782735824585e-01
-1.325578880310058594e+01 -6.078509330749511719e+00 2.952853441238403320e-01
-8.244163513183593750e+00 -4.147114753723144531e+00 9.825477004051208496e-02
-4.663984298706054688e+00 -2.561298370361328125e+00 6.500826217234134674e-03
-1.332473373413085938e+01 -6.011448860168457031e+00 2.959938943386077881e-01
-8.237197875976562500e+00 -4.080472469329833984e+00 9.787151217460632324e-02
-4.700719833374023438e+00 -2.544055700302124023e+00 6.530147977173328400e-03
-1.342990779876708984e+01 -5.959993362426757812e+00 2.975122630596160889e-01
-8.511928558349609375e+00 -4.151717185974121094e+00 1.008311808109283447e-01
-5.669195175170898438e+00 -3.023373842239379883e+00 7.849616929888725281e-03
-1.347172164916992188e+01 -5.879876136779785156e+00 2.976337075233459473e-01
-8.522820472717285156e+00 -4.092485904693603516e+00 1.006608456373214722e-01
-5.649574756622314453e+00 -2.968530654907226562e+00 7.797082420438528061e-03
-1.355899620056152344e+01 -5.819185733795166016e+00 2.987673878669738770e-01
-8.277460098266601562e+00 -3.912350893020629883e+00 9.747759252786636353e-02
-5.660578250885009766e+00 -2.930131673812866211e+00 7.787308190017938614e-03
-1.363958454132080078e+01 -5.754924774169921875e+00 2.997593879699707031e-01
-8.538852691650390625e+00 -3.971984624862670898e+00 1.002669259905815125e-01
-5.742593765258789062e+00 -2.928049325942993164e+00 7.875273004174232483e-03
-1.372081470489501953e+01 -5.690275192260742188e+00 3.007715940475463867e-01
-8.462140083312988281e+00 -3.873321294784545898e+00 9.908518195152282715e-02
-5.665725231170654297e+00 -2.845189094543457031e+00 7.745769340544939041e-03
-1.384250259399414062e+01 -5.641448020935058594e+00 3.026745915412902832e-01
-8.201278686523437500e+00 -3.693222999572753906e+00 9.576354175806045532e-02
-5.718035221099853516e+00 -2.827659130096435547e+00 7.793417200446128845e-03
-1.391584014892578125e+01 -5.572014808654785156e+00 3.035248517990112305e-01
-8.654402732849121094e+00 -3.833578824996948242e+00 1.007779538631439209e-01
-5.693919658660888672e+00 -2.772383213043212891e+00 7.737217471003532410e-03
-1.393860244750976562e+01 -5.482132434844970703e+00 3.032819032669067383e-01
-8.492583274841308594e+00 -3.699732303619384766e+00 9.862740337848663330e-02
-5.755911827087402344e+00 -2.759006023406982422e+00 7.798304315656423569e-03
-1.409228897094726562e+01 -5.442972183227539062e+00 3.058934509754180908e-01
-8.496740341186523438e+00 -3.639678239822387695e+00 9.841446578502655029e-02
-5.753739833831787109e+00 -2.714675903320312500e+00 7.772647775709629059e-03
-1.417309761047363281e+01 -5.374480247497558594e+00 3.069258928298950195e-01
-8.580657958984375000e+00 -3.613476514816284180e+00 9.912777692079544067e-02
-5.699542999267578125e+00 -2.646471261978149414e+00 7.677352987229824066e-03
-1.419456481933593750e+01 -5.283229827880859375e+00 3.066829741001129150e-01
-8.607287406921386719e+00 -3.562670469284057617e+00 9.918099641799926758e-02
-5.704759597778320312e+00 -2.606462717056274414e+00 7.662692107260227203e-03
-1.435912990570068359e+01 -5.244396686553955078e+00 3.095374405384063721e-01
-8.638248443603515625e+00 -3.513557672500610352e+00 9.928746521472930908e-02
-5.720644950866699219e+00 -2.571409940719604492e+00 7.662692107260227203e-03
-1.440139198303222656e+01 -5.159901142120361328e+00 3.097601234912872314e-01
-8.371794700622558594e+00 -3.345460414886474609e+00 9.598711133003234863e-02
-5.741802692413330078e+00 -2.538686513900756836e+00 7.670022547245025635e-03
-1.449692249298095703e+01 -5.093976974487304688e+00 3.111367523670196533e-01
-8.367032051086425781e+00 -3.284164428710937500e+00 9.569966048002243042e-02
-5.780198097229003906e+00 -2.513376712799072266e+00 7.700565736740827560e-03
-1.456760787963867188e+01 -5.018607139587402344e+00 3.119870424270629883e-01
-8.781699180603027344e+00 -3.384889364242553711e+00 1.002030521631240845e-01
-5.804706096649169922e+00 -2.481793880462646484e+00 7.712782826274633408e-03
-1.461517810821533203e+01 -4.934884548187255859e+00 3.123514354228973389e-01
-8.650796890258789062e+00 -3.273609399795532227e+00 9.847833961248397827e-02
-5.798621654510498047e+00 -2.437218427658081055e+00 7.684683427214622498e-03
-1.471542358398437500e+01 -4.868352890014648438e+00 3.138495087623596191e-01
-8.626664161682128906e+00 -3.204104185104370117e+00 9.797796607017517090e-02
-5.797754764556884766e+00 -2.395102024078369141e+00 7.663913536816835403e-03
-1.484773731231689453e+01 -4.811254024505615234e+00 3.160359263420104980e-01
-8.800238609313964844e+00 -3.207265377044677734e+00 9.972396492958068848e-02
-5.861449718475341797e+00 -2.379417657852172852e+00 7.728665135800838470e-03
-1.492462825775146484e+01 -4.735177516937255859e+00 3.170481324195861816e-01
-8.666275024414062500e+00 -3.098337173461914062e+00 9.798862040042877197e-02
-5.887085437774658203e+00 -2.347852945327758789e+00 7.743326015770435333e-03
-8.783260345458984375e+00 -3.079511642456054688e+00 9.909583628177642822e-02
-5.919071674346923828e+00 -2.318616151809692383e+00 7.766539230942726135e-03
-8.874804496765136719e+00 -3.050589323043823242e+00 9.991559386253356934e-02
-5.873454093933105469e+00 -2.259276866912841797e+00 7.688348181545734406e-03
-8.902832031250000000e+00 -2.999269485473632812e+00 1.000220626592636108e-01
-5.868495464324951172e+00 -2.216129779815673828e+00 7.663913536816835403e-03
-8.922966003417968750e+00 -2.945213079452514648e+00 1.000433564186096191e-01
-6.040449142456054688e+00 -2.238812923431396484e+00 7.870386354625225067e-03
-8.943724632263183594e+00 -2.891330242156982422e+00 1.000752970576286316e-01
-5.914044857025146484e+00 -2.150783061981201172e+00 7.688348181545734406e-03
-9.055676460266113281e+00 -2.866270780563354492e+00 1.011292785406112671e-01
-6.091014385223388672e+00 -2.172918796539306641e+00 7.900930009782314301e-03
-8.984262466430664062e+00 -2.783134460449218750e+00 1.001391708850860596e-01
-6.073083877563476562e+00 -2.124607086181640625e+00 7.860612124204635620e-03
-8.754769325256347656e+00 -1.976234078407287598e+00 2.663732171058654785e-01
-8.915043830871582031e+00 -2.701853513717651367e+00 9.918099641799926758e-02
-6.071816444396972656e+00 -2.082437038421630859e+00 7.842286489903926849e-03
-8.769659996032714844e+00 -1.923121094703674316e+00 2.664622068405151367e-01
-8.707114219665527344e+00 -2.580611228942871094e+00 9.668976813554763794e-02
-6.074053287506103516e+00 -2.041637182235717773e+00 7.828847505152225494e-03
-8.769562721252441406e+00 -1.866777896881103516e+00 2.661062180995941162e-01
-8.739110946655273438e+00 -2.531866788864135742e+00 9.687075018882751465e-02
-6.049423217773437500e+00 -1.992130517959594727e+00 7.781200110912322998e-03
-9.057555198669433594e+00 -2.563990354537963867e+00 1.002243459224700928e-01
-6.112926006317138672e+00 -1.971549749374389648e+00 7.847173139452934265e-03
-9.156967163085937500e+00 -2.531547069549560547e+00 1.011505722999572754e-01
-6.153515338897705078e+00 -1.943037509918212891e+00 7.883825339376926422e-03
-9.103783607482910156e+00 -2.456815719604492188e+00 1.003946810960769653e-01
-6.148124694824218750e+00 -1.899929285049438477e+00 7.861834019422531128e-03
-8.727948188781738281e+00 -1.963876962661743164e+00 1.811472177505493164e-01
-8.918520927429199219e+00 -2.348206758499145508e+00 9.819089621305465698e-02
-6.174982070922851562e+00 -1.866799473762512207e+00 7.881381548941135406e-03
-8.753508567810058594e+00 -1.913275361061096191e+00 1.814306527376174927e-01
-8.929856300354003906e+00 -2.292693376541137695e+00 9.815895557403564453e-02
-6.196868896484375000e+00 -1.831993937492370605e+00 7.894820533692836761e-03
-8.758237838745117188e+00 -1.858076333999633789e+00 1.812889426946640015e-01
-9.205666542053222656e+00 -2.303391695022583008e+00 1.010334640741348267e-01
-6.219521522521972656e+00 -1.797267556190490723e+00 7.909481413662433624e-03
-9.232255935668945312e+00 -2.249941110610961914e+00 1.011718586087226868e-01
-6.235243797302246094e+00 -1.760429859161376953e+00 7.915589958429336548e-03
-9.247833251953125000e+00 -2.193712234497070312e+00 1.011931523680686951e-01
-6.269064903259277344e+00 -1.728517293930053711e+00 7.944911718368530273e-03
-9.240657806396484375e+00 -2.132206201553344727e+00 1.009695827960968018e-01
-6.278587341308593750e+00 -1.689758658409118652e+00 7.943689823150634766e-03
-8.692538261413574219e+00 -1.949634194374084473e+00 9.484795480966567993e-02
-6.281099796295166016e+00 -1.649170517921447754e+00 7.933916524052619934e-03
-8.731694221496582031e+00 -1.902220726013183594e+00 9.514605253934860229e-02
-6.253319263458251953e+00 -1.600926876068115234e+00 7.886269129812717438e-03
-8.750049591064453125e+00 -1.850056290626525879e+00 9.522057324647903442e-02
-6.240708351135253906e+00 -1.556959509849548340e+00 7.858168333768844604e-03
-9.260815620422363281e+00 -1.898761630058288574e+00 1.006501913070678711e-01
-6.254031181335449219e+00 -1.519582390785217285e+00 7.863055914640426636e-03
-9.504735946655273438e+00 -1.888076782226562500e+00 1.031733676791191101e-01
-6.301190853118896484e+00 -1.490155339241027832e+00 7.910703308880329132e-03
-9.550511360168457031e+00 -1.836329579353332520e+00 1.035459935665130615e-01
-6.528514862060546875e+00 -1.501676678657531738e+00 8.184370584785938263e-03
-9.580277442932128906e+00 -1.781167030334472656e+00 1.037482768297195435e-01
-6.452702045440673828e+00 -1.442608475685119629e+00 8.078080601990222931e-03
-8.771601676940917969e+00 -1.907808065414428711e+00 3.370042145252227783e-01
-9.785898208618164062e+00 -1.757344841957092285e+00 1.058562397956848145e-01
-6.556223392486572266e+00 -1.423570513725280762e+00 8.196587674319744110e-03
-9.740336418151855469e+00 -1.687536716461181641e+00 1.052493974566459656e-01
-6.402401924133300781e+00 -1.349088311195373535e+00 7.993781007826328278e-03
-9.564097404479980469e+00 -1.596620321273803711e+00 1.032372489571571350e-01
-6.290048599243164062e+00 -1.285156250000000000e+00 7.843507453799247742e-03
-9.778081893920898438e+00 -1.570735454559326172e+00 1.054410338401794434e-01
-6.429265975952148438e+00 -1.272555232048034668e+00 8.007219992578029633e-03
-9.897231101989746094e+00 -1.527640104293823242e+00 1.066227704286575317e-01
-6.439899444580078125e+00 -1.233646392822265625e+00 8.010884746909141541e-03
-9.944995880126953125e+00 -1.472595453262329102e+00 1.070379838347434998e-01
-6.443414688110351562e+00 -1.193380355834960938e+00 8.005998097360134125e-03
-9.847909927368164062e+00 -1.396523833274841309e+00 1.058988273143768311e-01
-6.445693969726562500e+00 -1.152941346168518066e+00 7.999889552593231201e-03
-9.980153083801269531e+00 -1.352861881256103516e+00 1.072296127676963806e-01
-6.452646732330322266e+00 -1.113369703292846680e+00 7.999889552593231201e-03
-9.838521957397460938e+00 -1.272235512733459473e+00 1.056220233440399170e-01
-6.466262340545654297e+00 -1.074903845787048340e+00 8.008441887795925140e-03
-9.860036849975585938e+00 -1.213553667068481445e+00 1.057710647583007812e-01
-6.495447635650634766e+00 -1.038839697837829590e+00 8.036541752517223358e-03
-9.756061553955078125e+00 -1.140032410621643066e+00 1.045786887407302856e-01
-6.610423088073730469e+00 -1.015669941902160645e+00 8.170931600034236908e-03
-9.824492454528808594e+00 -1.086966395378112793e+00 1.052387505769729614e-01
-6.522546291351318359e+00 -9.612393379211425781e-01 8.054867386817932129e-03
-9.876726150512695312e+00 -1.031441569328308105e+00 1.057284846901893616e-01
-6.477821826934814453e+00 -9.140737056732177734e-01 7.992559112608432770e-03
-9.871921539306640625e+00 -9.697443246841430664e-01 1.056113690137863159e-01
-6.552680492401123047e+00 -8.836645483970642090e-01 8.078080601990222931e-03
-1.008778667449951172e+01 -9.284909963607788086e-01 1.078577414155006409e-01
-6.551036357879638672e+00 -8.425484895706176758e-01 8.069528266787528992e-03
-1.008432769775390625e+01 -8.658062219619750977e-01 1.077619269490242004e-01
-6.573949337005615234e+00 -8.045226931571960449e-01 8.091518655419349670e-03
-1.032070350646972656e+01 -8.223395943641662598e-01 1.102318689227104187e-01
-6.602602005004882812e+00 -7.669397592544555664e-01 8.120840415358543396e-03
-1.028267383575439453e+01 -7.558454275131225586e-01 1.097740828990936279e-01
-6.315938472747802734e+00 -6.943922042846679688e-01 7.762873545289039612e-03
-9.938926696777343750e+00 -6.692905426025390625e-01 1.060585230588912964e-01
-6.342957496643066406e+00 -6.579985022544860840e-01 7.790973875671625137e-03
-1.008557128906250000e+01 -6.170256137847900391e-01 1.075809374451637268e-01
-6.651429653167724609e+00 -6.487722992897033691e-01 8.164823055267333984e-03
-1.041565418243408203e+01 -5.730941891670227051e-01 1.110622808337211609e-01
-6.657277584075927734e+00 -6.081296205520629883e-01 8.167266845703125000e-03
-1.037702751159667969e+01 -5.071241855621337891e-01 1.106151342391967773e-01
-6.664868831634521484e+00 -5.676093101501464844e-01 8.172153495252132416e-03
-9.880427360534667969e+00 -4.221025109291076660e-01 1.052919849753379822e-01
-6.682182788848876953e+00 -5.278061628341674805e-01 8.189258165657520294e-03
-1.031951522827148438e+01 -3.774413168430328369e-01 1.099444255232810974e-01
-6.783036708831787109e+00 -4.939121901988983154e-01 8.308987133204936981e-03
-1.021269321441650391e+01 -3.107994198799133301e-01 1.087839752435684204e-01
-6.821859836578369141e+00 -4.546770751476287842e-01 8.352969773113727570e-03
-1.030137729644775391e+01 -2.502423226833343506e-01 1.097102016210556030e-01
-6.739676475524902344e+00 -4.076781570911407471e-01 8.249122649431228638e-03
-1.036970424652099609e+01 -1.882455796003341675e-01 1.104235053062438965e-01
-6.795971393585205078e+00 -3.692462742328643799e-01 8.315095677971839905e-03
-1.043665599822998047e+01 -1.254076808691024780e-01 1.111261621117591858e-01
-6.758155345916748047e+00 -3.256150186061859131e-01 8.266226388514041901e-03
-1.043022918701171875e+01 -6.132605299353599548e-02 1.110516414046287537e-01
-6.652122020721435547e+00 -2.796061038970947266e-01 8.134280331432819366e-03
-1.037441253662109375e+01 2.659431193023920059e-03 1.104554459452629089e-01
-6.617734909057617188e+00 -2.374930828809738159e-01 8.090297691524028778e-03
-1.074017238616943359e+01 6.865499913692474365e-02 1.143519878387451172e-01
-6.954918861389160156e+00 -2.068727761507034302e-01 8.500798605382442474e-03
-1.070655345916748047e+01 1.341407597064971924e-01 1.140006631612777710e-01
-6.941061496734619141e+00 -1.638403385877609253e-01 8.482472971081733704e-03
-1.189142131805419922e+01 1.084166049957275391e+00 3.543929457664489746e-01
-1.062154865264892578e+01 1.982648223638534546e-01 1.131063774228096008e-01
-6.916940212249755859e+00 -1.208111122250556946e-01 8.451929315924644470e-03
-1.187857627868652344e+01 1.156528830528259277e+00 3.542149662971496582e-01
-1.070510101318359375e+01 2.655413448810577393e-01 1.140113100409507751e-01
-6.885553359985351562e+00 -7.800479233264923096e-02 8.412834256887435913e-03
-1.037544536590576172e+01 3.210768103599548340e-01 1.105193197727203369e-01
-6.893902301788330078e+00 -3.579590842127799988e-02 8.422608487308025360e-03
-1.036528587341308594e+01 3.844367861747741699e-01 1.104341447353363037e-01
-6.964992046356201172e+00 6.571949925273656845e-03 8.509350940585136414e-03
-1.044065475463867188e+01 4.513987302780151367e-01 1.112645566463470459e-01
-6.903821945190429688e+00 4.887636750936508179e-02 8.434825576841831207e-03
-1.079123687744140625e+01 5.329124927520751953e-01 1.150333508849143982e-01
-6.909391880035400391e+00 9.131579846143722534e-02 8.442156016826629639e-03
-1.188749885559082031e+01 1.092046141624450684e+00 2.417185753583908081e-01
-1.082570362091064453e+01 6.012232899665832520e-01 1.154379174113273621e-01
-6.908701419830322266e+00 1.337093114852905273e-01 8.442156016826629639e-03
-1.185669326782226562e+01 1.162624239921569824e+00 2.412327080965042114e-01
-1.089965820312500000e+01 6.724399328231811523e-01 1.162683293223381042e-01
-7.015715599060058594e+00 1.788500994443893433e-01 8.574102073907852173e-03
-1.079456520080566406e+01 7.324690818786621094e-01 1.151930540800094604e-01
-7.040472984313964844e+00 2.227164208889007568e-01 8.605867624282836914e-03
-1.080382823944091797e+01 7.997229099273681641e-01 1.153421029448509216e-01
-6.888081550598144531e+00 2.602114975452423096e-01 8.421386592090129852e-03
-1.079373455047607422e+01 8.655992150306701660e-01 1.152888685464859009e-01
-6.652581214904785156e+00 2.922029495239257812e-01 8.135501295328140259e-03
-1.049134159088134766e+01 9.061697125434875488e-01 1.121162623167037964e-01
-6.977253913879394531e+00 3.493702113628387451e-01 8.535007946193218231e-03
-1.047662258148193359e+01 9.696969389915466309e-01 1.120204478502273560e-01
-6.913076400756835938e+00 3.886947333812713623e-01 8.459259755909442902e-03
-1.103768539428710938e+01 1.089974045753479004e+00 1.180888488888740540e-01
-7.098196506500244141e+00 4.428106248378753662e-01 8.688945323228836060e-03
-1.110239219665527344e+01 1.165194153785705566e+00 1.188553795218467712e-01
-7.094348430633544922e+00 4.862876236438751221e-01 8.687724359333515167e-03
-1.117453861236572266e+01 1.242132902145385742e+00 1.197070851922035217e-01
-7.092227935791015625e+00 5.298830866813659668e-01 8.688945323228836060e-03
-1.128091621398925781e+01 1.324080348014831543e+00 1.209314092993736267e-01
-7.309123516082763672e+00 5.912078022956848145e-01 8.958947844803333282e-03
-1.126662540435791016e+01 1.392537951469421387e+00 1.208675354719161987e-01
-7.228648662567138672e+00 6.293658614158630371e-01 8.864874951541423798e-03
-1.125588607788085938e+01 1.461384892463684082e+00 1.208462417125701904e-01
-6.519709587097167969e+00 6.079714894294738770e-01 7.999889552593231201e-03
-1.125760555267333984e+01 1.531905293464660645e+00 1.209633499383926392e-01
-6.972603321075439453e+00 6.933850646018981934e-01 8.560664020478725433e-03
-1.124898433685302734e+01 1.601092815399169922e+00 1.209739968180656433e-01
-7.367992401123046875e+00 7.783892154693603516e-01 9.051799774169921875e-03
-1.100948143005371094e+01 1.635986685752868652e+00 1.185040548443794250e-01
-7.317362785339355469e+00 8.184703588485717773e-01 8.995600044727325439e-03
-1.157829952239990234e+01 1.793191432952880859e+00 1.247427910566329956e-01
-7.297306537628173828e+00 8.615946173667907715e-01 8.977274410426616669e-03
-1.170726108551025391e+01 1.886793136596679688e+00 1.262545585632324219e-01
-7.288905620574951172e+00 9.059837460517883301e-01 8.973608724772930145e-03
-1.173787021636962891e+01 1.965693831443786621e+00 1.267123520374298096e-01
-7.291141986846923828e+00 9.517260193824768066e-01 8.983382023870944977e-03
-1.185366153717041016e+01 2.059935569763183594e+00 1.280963718891143799e-01
-7.343620777130126953e+00 1.004441142082214355e+00 9.055464528501033783e-03
-1.184571933746337891e+01 2.133515834808349609e+00 1.281496137380599976e-01
-7.393744945526123047e+00 1.057552576065063477e+00 9.125103242695331573e-03
-1.206636047363281250e+01 2.249780654907226562e+00 1.306834220886230469e-01
-7.398985385894775391e+00 1.104671835899353027e+00 9.139764122664928436e-03
-1.171358680725097656e+01 2.258464097976684570e+00 1.270104497671127319e-01
-7.419734954833984375e+00 1.154354810714721680e+00 9.173972532153129578e-03
-1.185837936401367188e+01 2.361938476562500000e+00 1.287351548671722412e-01
-7.337489128112792969e+00 1.187715768814086914e+00 9.081120602786540985e-03
-1.183484745025634766e+01 2.432843446731567383e+00 1.286393404006958008e-01
-7.242295742034912109e+00 1.217955231666564941e+00 8.972386829555034637e-03
-1.225402164459228516e+01 2.597478628158569336e+00 1.333663016557693481e-01
-7.502637386322021484e+00 1.309124588966369629e+00 9.304697625339031219e-03
-1.224176120758056641e+01 2.673472404479980469e+00 1.334088742733001709e-01
-7.408851623535156250e+00 1.339655160903930664e+00 9.198406711220741272e-03
-1.226707744598388672e+01 2.757967710494995117e+00 1.338666677474975586e-01
-7.408355712890625000e+00 1.386561512947082520e+00 9.208180941641330719e-03
-1.222167205810546875e+01 2.826650857925415039e+00 1.335579305887222290e-01
-7.417380809783935547e+00 1.435412168502807617e+00 9.230172261595726013e-03
-1.277320098876953125e+01 3.036895751953125000e+00 1.397860199213027954e-01
-7.465308189392089844e+00 1.492266297340393066e+00 9.301031939685344696e-03
-1.242113971710205078e+01 3.033833503723144531e+00 1.361343413591384888e-01
-7.457970142364501953e+00 1.538448452949523926e+00 9.303475730121135712e-03
-1.232178783416748047e+01 3.089804172515869141e+00 1.352506875991821289e-01
-7.513924121856689453e+00 1.598119020462036133e+00 9.385331533849239349e-03
-1.258052825927734375e+01 3.236860275268554688e+00 1.383061856031417847e-01
-7.569424629211425781e+00 1.658533811569213867e+00 9.467187337577342987e-03
-1.277313899993896484e+01 3.370113849639892578e+00 1.406483650207519531e-01
-7.511305809020996094e+00 1.694166541099548340e+00 9.407322853803634644e-03
-1.272036647796630859e+01 3.439811229705810547e+00 1.402970403432846069e-01
-7.584544181823730469e+00 1.759659409523010254e+00 9.512391872704029083e-03
-1.178547763824462891e+01 3.264733552932739258e+00 1.302043497562408447e-01
-7.523995399475097656e+00 1.794333338737487793e+00 9.450082667171955109e-03
-1.273395442962646484e+01 3.611748933792114258e+00 1.409251689910888672e-01
-7.507987976074218750e+00 1.839276313781738281e+00 9.443975053727626801e-03
-1.360700702667236328e+01 5.040557384490966797e+00 4.306648969650268555e-01
-1.305726337432861328e+01 3.790165185928344727e+00 1.447578519582748413e-01
-7.490742206573486328e+00 1.883846521377563477e+00 9.436644613742828369e-03
-1.302225875854492188e+01 3.866796016693115234e+00 1.446300894021987915e-01
-7.467422485351562500e+00 1.926775217056274414e+00 9.421983733773231506e-03
-1.340110492706298828e+01 4.068932533264160156e+00 1.491121798753738403e-01
-7.513463497161865234e+00 1.987904906272888184e+00 9.495287202298641205e-03
-1.388108730316162109e+01 4.307868003845214844e+00 1.547440886497497559e-01
-7.532974243164062500e+00 2.042605400085449219e+00 9.535604156553745270e-03
-1.377432632446289062e+01 4.367571830749511719e+00 1.538497954607009888e-01
-7.634958744049072266e+00 2.120635509490966797e+00 9.680990129709243774e-03
-6.930929660797119141e+00 2.812157154083251953e+00 2.219925075769424438e-01
-1.369196319580078125e+01 4.987357616424560547e+00 2.950626611709594727e-01
-1.471664428710937500e+01 4.765936851501464844e+00 1.646983772516250610e-01
-7.622764587402343750e+00 2.167716264724731445e+00 9.682212024927139282e-03
-6.896913528442382812e+00 2.847764968872070312e+00 2.214585095643997192e-01
-1.359174346923828125e+01 5.045527935028076172e+00 2.935645878314971924e-01
-1.370165443420410156e+01 4.530311107635498047e+00 1.536475121974945068e-01
-7.672691345214843750e+00 2.232889890670776367e+00 9.762845933437347412e-03
-1.388203716278076172e+01 4.684637546539306641e+00 1.559897065162658691e-01
-7.628176689147949219e+00 2.270796775817871094e+00 9.723750874400138855e-03
-1.365259170532226562e+01 4.700714588165283203e+00 1.537326872348785400e-01
-7.742292404174804688e+00 2.356578588485717773e+00 9.887462481856346130e-03
-7.710500240325927734e+00 2.398693323135375977e+00 9.865472093224525452e-03
-1.365036392211914062e+01 4.888125896453857422e+00 1.543714702129364014e-01
-7.812857627868652344e+00 2.483216047286987305e+00 1.001574378460645676e-02
-6.924142360687255859e+00 2.814946651458740234e+00 1.513474136590957642e-01
-1.358066272735595703e+01 4.957389831542968750e+00 1.539243161678314209e-01
-7.846933364868164062e+00 2.547162771224975586e+00 1.007927395403385162e-02
-6.964942932128906250e+00 2.881458520889282227e+00 1.526228189468383789e-01
-1.354436492919921875e+01 5.038533687591552734e+00 1.538604348897933960e-01
-7.734335422515869141e+00 2.563176155090332031e+00 9.954658336937427521e-03
-7.794245243072509766e+00 2.636216640472412109e+00 1.005239691585302353e-02
-7.887577533721923828e+00 2.721831083297729492e+00 1.019411720335483551e-02
-7.832053661346435547e+00 2.756565093994140625e+00 1.014402601867914200e-02
-6.973827838897705078e+00 2.790964603424072266e+00 7.997506856918334961e-02
-7.816874504089355469e+00 2.805245161056518555e+00 1.014646980911493301e-02
-6.932493686676025391e+00 2.823894977569580078e+00 7.969826459884643555e-02
-7.941324234008789062e+00 2.905031442642211914e+00 1.033095084130764008e-02
-6.917807102203369141e+00 2.867527484893798828e+00 7.973019778728485107e-02
-8.334696769714355469e+00 3.107047796249389648e+00 1.086729019880294800e-02
-8.315475463867187500e+00 3.158129930496215820e+00 1.086729019880294800e-02
-8.334179878234863281e+00 3.223885297775268555e+00 1.091738138347864151e-02
-8.306797981262207031e+00 3.272030115127563477e+00 1.090760715305805206e-02
-1.286805343627929688e+01 5.707962989807128906e+00 1.498787254095077515e-01
-6.973226070404052734e+00 2.796285152435302734e+00 9.178859181702136993e-03
-6.933528900146484375e+00 2.827050685882568359e+00 2.811056971549987793e-01
-6.939271450042724609e+00 2.832217454910278320e+00 9.156867861747741699e-03
-6.884669780731201172e+00 2.856519937515258789e+00 2.798301875591278076e-01
-6.922686100006103516e+00 2.875126361846923828e+00 9.158089756965637207e-03
-6.910441398620605469e+00 2.919884204864501953e+00 9.165420196950435638e-03
-8.536942481994628906e+00 3.669028520584106445e+00 1.135231740772724152e-02
-8.725017547607421875e+00 3.813453197479248047e+00 1.163331512361764908e-02
-8.721558570861816406e+00 3.875851631164550781e+00 1.166019309312105179e-02
-8.985589027404785156e+00 4.059391021728515625e+00 1.204625982791185379e-02
-9.012311935424804688e+00 4.138234615325927734e+00 1.211589947342872620e-02
-9.024810791015625000e+00 4.211215019226074219e+00 1.216721162199974060e-02
-8.964465141296386719e+00 4.250231742858886719e+00 1.212078519165515900e-02
-3.593562602996826172e+00 2.239243745803833008e+00 1.256662160158157349e-01
-9.146334648132324219e+00 4.405397415161132812e+00 1.240300480276346207e-02
-9.296986579895019531e+00 4.548449039459228516e+00 1.264490745961666107e-02
-9.262634277343750000e+00 4.602293968200683594e+00 1.263635605573654175e-02
-9.335999488830566406e+00 4.710393905639648438e+00 1.277563348412513733e-02
-9.353202819824218750e+00 4.791297912597656250e+00 1.283916365355253220e-02
-3.616775512695312500e+00 2.226442098617553711e+00 8.599837124347686768e-02
-9.586239814758300781e+00 4.985164642333984375e+00 1.320079527795314789e-02
-3.588627576828002930e+00 2.239593982696533203e+00 8.565422147512435913e-02
-9.581117630004882812e+00 5.057428359985351562e+00 1.323622558265924454e-02
-9.564008712768554688e+00 5.123677730560302734e+00 1.325577311217784882e-02
-9.400606155395507812e+00 5.110620498657226562e+00 1.307251397520303726e-02
-9.551198959350585938e+00 5.268671512603759766e+00 1.332663372159004211e-02
-9.858145713806152344e+00 5.517154693603515625e+00 1.380188670009374619e-02
-3.647274255752563477e+00 2.248674631118774414e+00 4.561943188309669495e-02
-9.860631942749023438e+00 5.598275661468505859e+00 1.385319884866476059e-02
-3.702820062637329102e+00 2.311701297760009766e+00 2.050933390855789185e-01
-3.643583297729492188e+00 2.277371406555175781e+00 4.574718698859214783e-02
-9.791432380676269531e+00 5.638711929321289062e+00 1.380433049052953720e-02
-3.675904750823974609e+00 2.326364994049072266e+00 2.043893486261367798e-01
-3.647279024124145508e+00 2.310924053192138672e+00 4.597075656056404114e-02
-9.760967254638671875e+00 5.701206684112548828e+00 1.381043903529644012e-02
-3.574121475219726562e+00 2.292783737182617188e+00 1.995084285736083984e-01
-3.622092962265014648e+00 2.326235055923461914e+00 4.583235457539558411e-02
-9.715476989746093750e+00 5.754875659942626953e+00 1.379577815532684326e-02
-3.603560924530029297e+00 2.345688581466674805e+00 4.577912390232086182e-02
-9.692841529846191406e+00 5.822103977203369141e+00 1.381410285830497742e-02
-9.097520828247070312e+00 5.540762901306152344e+00 1.301387045532464981e-02
-3.656142234802246094e+00 2.257611274719238281e+00 5.249775014817714691e-03
-3.701453924179077148e+00 2.315283775329589844e+00 1.639064252376556396e-01
-3.655782699584960938e+00 2.288491964340209961e+00 5.269322544336318970e-03
-3.673674583435058594e+00 2.329389810562133789e+00 1.633061617612838745e-01
-3.654337167739868164e+00 2.318917274475097656e+00 5.287648178637027740e-03
-3.587857961654663086e+00 2.305962324142456055e+00 1.601173281669616699e-01
-3.632470369338989258e+00 2.336427450180053711e+00 5.276652984321117401e-03
-3.593772649765014648e+00 2.342834711074829102e+00 5.241223145276308060e-03
-9.680876731872558594e+00 6.396096706390380859e+00 1.417573634535074234e-02
-9.793511390686035156e+00 6.557189941406250000e+00 1.439931243658065796e-02
-9.639722824096679688e+00 6.540240764617919922e+00 1.423193514347076416e-02
-9.758454322814941406e+00 6.708602428436279297e+00 1.446773018687963486e-02
-9.445500373840332031e+00 6.579167842864990234e+00 1.406333688646554947e-02
-9.556105613708496094e+00 6.743667602539062500e+00 1.428935583680868149e-02
-9.578000068664550781e+00 6.847538948059082031e+00 1.438465155661106110e-02
-9.489640235900878906e+00 6.872745990753173828e+00 1.431501377373933792e-02
-8.250447273254394531e+00 6.699578285217285156e+00 1.298454869538545609e-02
-8.287308365106582642e-02 7.050003409385681152e-01 1.437355019152164459e-02
-9.784103184938430786e-02 6.607576012611389160e-01 7.111733779311180115e-03
-9.502200037240982056e-02 7.046212553977966309e-01 8.686502114869654179e-04
-8.572062943130731583e-04 7.666619420051574707e-01 2.275400981307029724e-02
-5.204638093709945679e-02 7.080494761466979980e-01 7.558878511190414429e-03
-1.388814114034175873e-02 7.237150669097900391e-01 4.084960371255874634e-02
-1.346420496702194214e-02 7.708818912506103516e-01 9.419539710506796837e-04
-4.518200643360614777e-03 7.449514865875244141e-01 5.509900674223899841e-02
