-3.571431152522563934e-03 -7.373921871185302734e-01 4.859031736850738525e-02
-1.219159830361604691e-02 -7.270908355712890625e-01 7.450677454471588135e-02
-5.272534862160682678e-02 -7.259507775306701660e-01 6.764993816614151001e-02
-3.519923985004425049e-02 -7.256219387054443359e-01 6.062077730894088745e-02
-4.277018830180168152e-02 -7.032519578933715820e-01 5.879134312272071838e-02
-7.346538454294204712e-02 -7.070625424385070801e-01 4.011712968349456787e-02
-8.024292439222335815e-02 -7.264317274093627930e-01 1.479868311434984207e-02
-9.844866394996643066e-02 -7.272160053253173828e-01 1.485941652208566666e-02
-1.130977869033813477e-01 -7.048375606536865234e-01 1.445452868938446045e-02
-1.216648742556571960e-01 -7.044332027435302734e-01 4.034250602126121521e-02
-1.197804957628250122e-01 -7.160679101943969727e-01 5.369755998253822327e-02
-4.708824634552001953e+00 -6.849541187286376953e+00 1.015502121299505234e-02
-4.770768165588378906e+00 -6.849239349365234375e+00 1.019778195768594742e-02
-4.792231082916259766e+00 -6.703135967254638672e+00 1.006705779582262039e-02
-4.999498367309570312e+00 -6.727766036987304688e+00 1.024054270237684250e-02
-5.115856170654296875e+00 -6.796834468841552734e+00 1.039325818419456482e-02
-5.089563369750976562e+00 -6.676246643066406250e+00 1.025642547756433487e-02
-5.132876873016357422e+00 -6.648057937622070312e+00 1.026131212711334229e-02
-5.277055740356445312e+00 -6.748782634735107422e+00 1.046656258404254913e-02
-5.147399425506591797e+00 -6.419047355651855469e+00 1.005239691585302353e-02
-4.655916690826416016e+00 -5.733703613281250000e+00 9.023698978126049042e-03
-4.644646644592285156e+00 -5.648641586303710938e+00 8.934512734413146973e-03
-4.533333301544189453e+00 -5.444818496704101562e+00 8.655958808958530426e-03
-4.557632446289062500e+00 -5.406195640563964844e+00 8.638854138553142548e-03
-4.764063835144042969e+00 -5.581206321716308594e+00 8.965056389570236206e-03
-4.281649112701416016e+00 -4.954162120819091797e+00 7.999889552593231201e-03
-5.442639827728271484e+00 -6.219951629638671875e+00 1.009760051965713501e-02
-5.661734580993652344e+00 -6.390782356262207031e+00 1.043113227933645248e-02
-5.356974601745605469e+00 -5.972542762756347656e+00 9.801941923797130585e-03
-5.160247325897216797e+00 -5.682670593261718750e+00 9.378001093864440918e-03
-5.422418594360351562e+00 -5.898256301879882812e+00 9.788502007722854614e-03
-5.483034133911132812e+00 -5.891226291656494141e+00 9.832484647631645203e-03
-5.263972282409667969e+00 -5.586724281311035156e+00 9.378001093864440918e-03
-5.678465366363525391e+00 -5.953021049499511719e+00 1.005117408931255341e-02
-5.940646648406982422e+00 -6.151854038238525391e+00 1.044823694974184036e-02
-5.114255905151367188e+00 -5.231459617614746094e+00 8.938178420066833496e-03
-5.517667293548583984e+00 -5.575266361236572266e+00 9.583251550793647766e-03
-6.001916408538818359e+00 -5.990601062774658203e+00 1.036027260124683380e-02
-5.942428112030029297e+00 -5.858879566192626953e+00 1.019533816725015640e-02
-5.942446231842041016e+00 -5.787422180175781250e+00 1.013425178825855255e-02
-5.827949523925781250e+00 -5.606647014617919922e+00 9.880132973194122314e-03
-5.938355445861816406e+00 -5.643111228942871094e+00 1.000841427594423294e-02
-5.747573852539062500e+00 -5.395090103149414062e+00 9.630898945033550262e-03
-5.943361282348632812e+00 -5.510661602020263672e+00 9.902123361825942993e-03
-5.669543743133544922e+00 -5.192449569702148438e+00 9.392661973834037781e-03
-6.040201187133789062e+00 -5.464147090911865234e+00 9.950992651283740997e-03
-6.143709182739257812e+00 -5.489614009857177734e+00 1.006583496928215027e-02
-6.214015483856201172e+00 -5.484237194061279297e+00 1.012569945305585861e-02
-6.305592536926269531e+00 -5.496602058410644531e+00 1.021977420896291733e-02
-6.203549861907958984e+00 -5.341018199920654297e+00 1.000108383595943451e-02
-5.982520580291748047e+00 -5.087137222290039062e+00 9.594247676432132721e-03
-6.484573364257812500e+00 -5.445845603942871094e+00 1.034561172127723694e-02
-5.954442024230957031e+00 -4.938647270202636719e+00 9.451305493712425232e-03
-6.755146503448486328e+00 -5.533146858215332031e+00 1.066814828664064407e-02
-6.862831115722656250e+00 -5.551340103149414062e+00 1.078421343117952347e-02
-6.433437347412109375e+00 -5.139021396636962891e+00 1.005972642451524734e-02
-6.636009693145751953e+00 -5.234460830688476562e+00 1.032606419175863266e-02
-6.614356040954589844e+00 -5.151859283447265625e+00 1.024298649281263351e-02
-6.389013767242431641e+00 -4.913655757904052734e+00 9.847145527601242065e-03
-6.649204730987548828e+00 -5.049136161804199219e+00 1.020022481679916382e-02
-6.892087936401367188e+00 -5.167205810546875000e+00 1.052398420870304108e-02
-6.909999370574951172e+00 -5.114705562591552734e+00 1.050321478396654129e-02
-7.214962959289550781e+00 -5.272219657897949219e+00 1.091738138347864151e-02
-6.682714462280273438e+00 -4.820667743682861328e+00 1.006705779582262039e-02
-6.345604896545410156e+00 -4.518552303314208984e+00 9.517278522253036499e-03
-6.518837451934814453e+00 -4.581887722015380859e+00 9.734746068716049194e-03
-6.771136283874511719e+00 -4.697413921356201172e+00 1.006827875971794128e-02
-6.796531200408935547e+00 -4.653518676757812500e+00 1.006339211016893387e-02
-6.769442081451416016e+00 -4.574216365814208984e+00 9.981535375118255615e-03
-6.793221473693847656e+00 -4.529819488525390625e+00 9.975426830351352692e-03
-7.279512882232666016e+00 -4.789821147918701172e+00 1.064615789800882339e-02
-7.315474987030029297e+00 -4.749420642852783203e+00 1.065593026578426361e-02
-7.357953071594238281e+00 -4.713074684143066406e+00 1.067547965794801712e-02
-7.390959262847900391e+00 -4.670508861541748047e+00 1.068158727139234543e-02
-7.186956882476806641e+00 -4.480124473571777344e+00 1.034683361649513245e-02
-7.570383548736572266e+00 -4.654883861541748047e+00 1.085751596838235855e-02
-7.256784439086914062e+00 -4.400926113128662109e+00 1.036882493644952774e-02
-7.425256252288818359e+00 -4.441009521484375000e+00 1.057040970772504807e-02
-7.035474777221679688e+00 -4.149485111236572266e+00 9.979092516005039215e-03
-6.324294090270996094e+00 -3.677918434143066406e+00 8.938178420066833496e-03
-8.022781372070312500e+00 -4.600038051605224609e+00 1.129856053739786148e-02
-7.184658050537109375e+00 -4.061108589172363281e+00 1.008293963968753815e-02
-7.248751163482666016e+00 -4.038850307464599609e+00 1.013791747391223907e-02
-7.635401248931884766e+00 -4.193097114562988281e+00 1.064249221235513687e-02
-7.663624286651611328e+00 -4.147596359252929688e+00 1.064615789800882339e-02
-3.243175745010375977e+00 -1.301180601119995117e+00 1.037131920456886292e-01
-7.500102519989013672e+00 -3.999794244766235352e+00 1.038470678031444550e-02
-3.239009380340576172e+00 -1.276491999626159668e+00 1.033275350928306580e-01
-7.705091953277587891e+00 -4.048588275909423828e+00 1.063393987715244293e-02
-3.228137016296386719e+00 -1.249378085136413574e+00 1.027342081069946289e-01
-8.175601005554199219e+00 -4.232004165649414062e+00 1.124724838882684708e-02
-3.224529981613159180e+00 -1.225286602973937988e+00 1.023782119154930115e-01
-8.200524330139160156e+00 -4.181305885314941406e+00 1.124602742493152618e-02
-3.233860492706298828e+00 -1.206176757812500000e+00 1.024375408887863159e-01
-8.259090423583984375e+00 -4.147513866424560547e+00 1.129123102873563766e-02
-8.204606056213378906e+00 -4.057307720184326172e+00 1.118249725550413132e-02
-3.241119861602783203e+00 -1.297770619392395020e+00 7.069357484579086304e-02
-7.872408390045166016e+00 -3.833094596862792969e+00 1.069747004657983780e-02
-3.322116136550903320e+00 -1.307946681976318359e+00 2.014871537685394287e-01
-3.239717721939086914e+00 -1.274199604988098145e+00 7.049112766981124878e-02
-8.283535003662109375e+00 -3.970582962036132812e+00 1.122281420975923538e-02
-3.326354265213012695e+00 -1.286097764968872070e+00 2.012617886066436768e-01
-3.228822231292724609e+00 -1.247092604637145996e+00 7.008624076843261719e-02
-8.590816497802734375e+00 -4.053238868713378906e+00 1.160521525889635086e-02
-3.293112277984619141e+00 -1.250072836875915527e+00 1.987826228141784668e-01
-3.234543800354003906e+00 -1.226548552513122559e+00 7.004575431346893311e-02
-8.159307479858398438e+00 -3.788614511489868164e+00 1.099068485200405121e-02
-3.250441789627075195e+00 -1.209817409515380859e+00 7.022795081138610840e-02
-8.564415931701660156e+00 -3.913018703460693359e+00 1.150381192564964294e-02
-3.270604372024536133e+00 -1.330299377441406250e+00 3.759211301803588867e-02
-8.603770256042480469e+00 -3.867364406585693359e+00 1.152458135038614273e-02
-3.270348310470581055e+00 -1.306866765022277832e+00 3.749629482626914978e-02
-8.523988723754882812e+00 -3.768805265426635742e+00 1.138652581721544266e-02
-3.303953886032104492e+00 -1.298839807510375977e+00 1.667967289686203003e-01
-3.245727300643920898e+00 -1.273988366127014160e+00 3.712367638945579529e-02
-7.959121704101562500e+00 -3.460827827453613281e+00 1.060339715331792831e-02
-3.307201862335205078e+00 -1.276744008064270020e+00 1.665620803833007812e-01
-3.234822750091552734e+00 -1.246856331825256348e+00 3.691074997186660767e-02
-7.941587924957275391e+00 -3.395414829254150391e+00 1.055208314210176468e-02
-3.314973592758178711e+00 -1.256427407264709473e+00 1.665620803833007812e-01
-3.258311033248901367e+00 -1.233000636100769043e+00 3.709173575043678284e-02
-8.315352439880371094e+00 -3.495025396347045898e+00 1.102000661194324493e-02
-3.282687902450561523e+00 -1.219251632690429688e+00 3.728336840867996216e-02
-7.094462871551513672e+00 -2.930783271789550781e+00 9.378001093864440918e-03
-3.309689998626708984e+00 -1.343547224998474121e+00 4.364020656794309616e-03
-3.276097536087036133e+00 -1.307879686355590820e+00 1.324306875467300415e-01
-3.239847660064697266e+00 -1.292096972465515137e+00 4.261394962668418884e-03
-3.268245220184326172e+00 -1.281551599502563477e+00 1.317929178476333618e-01
-3.270061254501342773e+00 -1.280946969985961914e+00 4.290716256946325302e-03
-3.282574892044067383e+00 -1.263987541198730469e+00 1.320555359125137329e-01
-3.280659437179565430e+00 -1.261935234069824219e+00 4.294381476938724518e-03
-3.276247739791870117e+00 -1.238521814346313477e+00 1.314927935600280762e-01
-3.285534381866455078e+00 -1.240721821784973145e+00 4.290716256946325302e-03
-3.281833410263061523e+00 -1.216368436813354492e+00 4.276055842638015747e-03
-8.781318664550781250e+00 -3.193535327911376953e+00 1.141584757715463638e-02
-7.026282310485839844e+00 -2.506567955017089844e+00 9.114108048379421234e-03
-8.898190498352050781e+00 -3.112942218780517578e+00 1.151724997907876968e-02
-8.921853065490722656e+00 -3.059907436370849609e+00 1.152335945516824722e-02
-8.945199966430664062e+00 -3.006699323654174805e+00 1.152946799993515015e-02
-8.874197006225585938e+00 -2.922354221343994141e+00 1.141462568193674088e-02
-9.085161209106445312e+00 -2.930159568786621094e+00 1.166263688355684280e-02
-8.942766189575195312e+00 -2.823772907257080078e+00 1.145738549530506134e-02
-9.149097442626953125e+00 -2.827307224273681641e+00 1.169928815215826035e-02
-9.193074226379394531e+00 -2.779218912124633789e+00 1.173349656164646149e-02
-9.221462249755859375e+00 -2.726161003112792969e+00 1.174815744161605835e-02
-9.138104438781738281e+00 -2.640655994415283203e+00 1.162109710276126862e-02
-8.588257789611816406e+00 -2.424768924713134766e+00 1.090272050350904465e-02
-9.604597091674804688e+00 -2.648195981979370117e+00 1.217209827154874802e-02
-9.470025062561035156e+00 -2.548671483993530273e+00 1.198150776326656342e-02
-9.120844841003417969e+00 -2.394776344299316406e+00 1.152091566473245621e-02
-9.421151161193847656e+00 -2.411930799484252930e+00 1.188132632523775101e-02
-9.687069892883300781e+00 -2.416773080825805664e+00 1.219775434583425522e-02
-9.691999435424804688e+00 -2.354927778244018555e+00 1.218553818762302399e-02
-9.686803817749023438e+00 -2.290811777114868164e+00 1.216110307723283768e-02
-9.657796859741210938e+00 -2.221468210220336914e+00 1.210734713822603226e-02
-9.648799896240234375e+00 -2.157149076461791992e+00 1.207924634218215942e-02
-9.569994926452636719e+00 -2.077958822250366211e+00 1.196440402418375015e-02
-9.496456146240234375e+00 -2.001055002212524414e+00 1.185689214617013931e-02
-9.844612121582031250e+00 -2.011409759521484375e+00 1.227594539523124695e-02
-9.824397087097167969e+00 -1.944559097290039062e+00 1.223562844097614288e-02
-9.770340919494628906e+00 -1.871635675430297852e+00 1.215377263724803925e-02
-9.993044853210449219e+00 -1.850804686546325684e+00 1.241644378751516342e-02
-1.021683883666992188e+01 -1.827486038208007812e+00 1.268033869564533234e-02
-9.777514457702636719e+00 -1.687057733535766602e+00 1.212200801819562912e-02
-7.287985801696777344e+00 -1.211501121520996094e+00 9.026142768561840057e-03
-1.031490421295166016e+01 -1.649698853492736816e+00 1.276219356805086136e-02
-1.031989097595214844e+01 -1.585617542266845703e+00 1.275608595460653305e-02
-9.795195579528808594e+00 -1.443535566329956055e+00 1.209635008126497269e-02
-1.038214015960693359e+01 -1.465005040168762207e+00 1.280984189361333847e-02
-9.972720146179199219e+00 -1.344875454902648926e+00 1.229427196085453033e-02
-1.029816913604736328e+01 -1.324478507041931152e+00 1.268522441387176514e-02
-1.032496166229248047e+01 -1.263573169708251953e+00 1.270843762904405594e-02
-1.044675254821777344e+01 -1.213465452194213867e+00 1.284893602132797241e-02
-1.044008541107177734e+01 -1.147812604904174805e+00 1.283183228224515915e-02
-1.082888126373291016e+01 -1.123354077339172363e+00 1.330097671598196030e-02
-1.081267929077148438e+01 -1.054655432701110840e+00 1.327287685126066208e-02
-1.076616668701171875e+01 -9.834688901901245117e-01 1.320812571793794632e-02
-1.058069133758544922e+01 -9.010978341102600098e-01 1.297355350106954575e-02
-1.037069225311279297e+01 -8.191507458686828613e-01 1.270966045558452606e-02
-1.050617694854736328e+01 -7.650156021118164062e-01 1.286970637738704681e-02
-1.037297916412353516e+01 -6.913592219352722168e-01 1.270110812038183212e-02
-1.062457275390625000e+01 -6.426727175712585449e-01 1.300409622490406036e-02
-1.065427780151367188e+01 -5.788800120353698730e-01 1.303586084395647049e-02
-1.068559741973876953e+01 -5.148432850837707520e-01 1.307007018476724625e-02
-1.070254230499267578e+01 -4.498559236526489258e-01 1.308717485517263412e-02
-1.048724174499511719e+01 -3.763594627380371094e-01 1.282083708792924881e-02
-1.055432510375976562e+01 -3.139364421367645264e-01 1.290025003254413605e-02
-1.059704113006591797e+01 -2.501379251480102539e-01 1.295034028589725494e-02
-1.062837123870849609e+01 -1.856348812580108643e-01 1.298699155449867249e-02
-1.062731075286865234e+01 -1.203942745923995972e-01 1.298454869538545609e-02
-1.069484806060791016e+01 -5.553194507956504822e-02 1.306640543043613434e-02
-1.076998805999755859e+01 1.016222499310970306e-02 1.315803453326225281e-02
-1.035273361206054688e+01 7.329331338405609131e-02 1.264857314527034760e-02
-1.071005725860595703e+01 1.415460854768753052e-01 1.308595202863216400e-02
-1.074198055267333984e+01 2.078976482152938843e-01 1.312626991420984268e-02
-1.101141452789306641e+01 2.807115912437438965e-01 1.345735788345336914e-02
-1.095351314544677734e+01 3.465004861354827881e-01 1.338894199579954147e-02
-1.099415016174316406e+01 4.153267145156860352e-01 1.344147603958845139e-02
-1.098939704895019531e+01 4.826899766921997070e-01 1.343903318047523499e-02
-1.099521732330322266e+01 5.505606532096862793e-01 1.345002837479114532e-02
-1.098863601684570312e+01 6.178472638130187988e-01 1.344636268913745880e-02
-1.084490966796875000e+01 6.765438318252563477e-01 1.327532064169645309e-02
-1.099020385742187500e+01 7.533320784568786621e-01 1.345858070999383926e-02
-1.104121875762939453e+01 8.249247670173645020e-01 1.352699752897024155e-02
-1.098810482025146484e+01 8.887869715690612793e-01 1.346835400909185410e-02
-1.104520797729492188e+01 9.616565108299255371e-01 1.354532316327095032e-02
-1.103412055969238281e+01 1.028946280479431152e+00 1.353921461850404739e-02
-1.106740379333496094e+01 1.100589275360107422e+00 1.358808390796184540e-02
-1.082077598571777344e+01 1.143157362937927246e+00 1.329364627599716187e-02
-1.095169639587402344e+01 1.224982142448425293e+00 1.346346735954284668e-02
-1.070761585235595703e+01 1.264250516891479492e+00 1.317269541323184967e-02
-1.075820636749267578e+01 1.337204933166503906e+00 1.324477791786193848e-02
-1.076268863677978516e+01 1.404873371124267578e+00 1.326065976172685623e-02
-1.073900508880615234e+01 1.468852996826171875e+00 1.324233412742614746e-02
-1.059318065643310547e+01 1.515178799629211426e+00 1.307373493909835815e-02
-1.058368396759033203e+01 1.580148816108703613e+00 1.307373493909835815e-02
-1.061133766174316406e+01 1.650901079177856445e+00 1.312016043812036514e-02
-1.070169734954833984e+01 1.732278466224670410e+00 1.324477791786193848e-02
-1.073228549957275391e+01 1.804875612258911133e+00 1.329609006643295288e-02
-1.070032119750976562e+01 1.867084026336669922e+00 1.327043399214744568e-02
-1.063158988952636719e+01 1.922384858131408691e+00 1.319957338273525238e-02
-1.065792751312255859e+01 1.994757413864135742e+00 1.324722077697515488e-02
-1.064254188537597656e+01 2.059545755386352539e+00 1.324355509132146835e-02
-1.055125617980957031e+01 2.109127044677734375e+00 1.314581651240587234e-02
-1.051754951477050781e+01 2.169586181640625000e+00 1.312016043812036514e-02
-1.049719238281250000e+01 2.232623577117919922e+00 1.311160903424024582e-02
-1.043152427673339844e+01 2.285647392272949219e+00 1.304685790091753006e-02
-1.039584255218505859e+01 2.344770431518554688e+00 1.301997900009155273e-02
-1.038223457336425781e+01 2.408740282058715820e+00 1.302120089530944824e-02
-1.036920452117919922e+01 2.472862958908081055e+00 1.302364468574523926e-02
-1.014792442321777344e+01 2.485997438430786133e+00 1.276463828980922699e-02
-1.027601051330566406e+01 2.584313392639160156e+00 1.294545363634824753e-02
-1.025318145751953125e+01 2.645568370819091797e+00 1.293690130114555359e-02
-1.028025913238525391e+01 2.719940900802612305e+00 1.299188006669282913e-02
-9.585842132568359375e+00 2.599251270294189453e+00 1.213422417640686035e-02
-1.010735988616943359e+01 2.807353258132934570e+00 1.281595043838024139e-02
-1.011591339111328125e+01 2.876703023910522461e+00 1.284893602132797241e-02
-1.018448734283447266e+01 2.963867425918579102e+00 1.295889262109994888e-02
-1.013160610198974609e+01 3.016031026840209961e+00 1.291490998119115829e-02
-1.012056255340576172e+01 3.080470323562622070e+00 1.292468421161174774e-02
-1.004513359069824219e+01 3.124984741210937500e+00 1.285260170698165894e-02
-9.834213256835937500e+00 3.125677824020385742e+00 1.260703429579734802e-02
-6.209108829498291016e+00 2.789669990539550781e+00 2.020271420478820801e-01
-9.844334602355957031e+00 3.195531845092773438e+00 1.264490745961666107e-02
-6.191874980926513672e+00 2.827715873718261719e+00 2.020271420478820801e-01
-9.291073799133300781e+00 3.079082727432250977e+00 1.195829547941684723e-02
-1.004119968414306641e+01 3.396195173263549805e+00 1.295034028589725494e-02
-9.716731071472167969e+00 3.353031873703002930e+00 1.255816500633955002e-02
-9.730876922607421875e+00 3.424873590469360352e+00 1.260336954146623611e-02
-9.771799087524414062e+00 3.506810188293457031e+00 1.268400344997644424e-02
-6.173094749450683594e+00 2.778589487075805664e+00 1.370750814676284790e-01
-9.473992347717285156e+00 3.465699672698974609e+00 1.232481468468904495e-02
-6.161384105682373047e+00 2.818910360336303711e+00 1.371965557336807251e-01
-9.553745269775390625e+00 3.561490535736083984e+00 1.245676074177026749e-02
-9.647634506225585938e+00 3.664069890975952148e+00 1.260825619101524353e-02
-9.693985939025878906e+00 3.749894857406616211e+00 1.269866339862346649e-02
-9.695916175842285156e+00 3.819200754165649414e+00 1.273165084421634674e-02
-6.161638259887695312e+00 2.733156442642211914e+00 7.176675647497177124e-02
-9.638885498046875000e+00 3.865222930908203125e+00 1.268766820430755615e-02
-6.158425807952880859e+00 2.777078151702880859e+00 7.192645967006683350e-02
-9.451111793518066406e+00 3.857408285140991211e+00 1.247142162173986435e-02
-6.150359630584716797e+00 2.818979501724243164e+00 7.203292101621627808e-02
-9.105881690979003906e+00 3.781849861145019531e+00 1.204625982791185379e-02
-6.109379768371582031e+00 2.845686912536621094e+00 7.175611704587936401e-02
-9.573475837707519531e+00 4.045102119445800781e+00 1.269744243472814560e-02
-9.593493461608886719e+00 4.123116016387939453e+00 1.275730691850185394e-02
-9.526781082153320312e+00 4.163880825042724609e+00 1.270232908427715302e-02
-6.151878833770751953e+00 2.733888626098632812e+00 8.224687539041042328e-03
-6.158682346343994141e+00 2.782288551330566406e+00 8.256453089416027069e-03
-6.131498336791992188e+00 2.815434932708740234e+00 8.243014104664325714e-03
-6.143105983734130859e+00 2.866535425186157227e+00 8.282109163701534271e-03
-9.248190879821777344e+00 4.384751796722412109e+00 1.250440906733274460e-02
-9.070655822753906250e+00 4.368946552276611328e+00 1.230038050562143326e-02
-9.010441780090332031e+00 4.408260345458984375e+00 1.225517597049474716e-02
-8.966207504272460938e+00 4.455009937286376953e+00 1.223196275532245636e-02
-8.770857810974121094e+00 4.425256252288818359e+00 1.200227718800306320e-02
-8.948244094848632812e+00 4.583852767944335938e+00 1.228327583521604538e-02
-8.902205467224121094e+00 4.629444122314453125e+00 1.225884072482585907e-02
-8.815264701843261719e+00 4.653170108795166016e+00 1.217820681631565094e-02
-8.765391349792480469e+00 4.695838451385498047e+00 1.214888505637645721e-02
-8.707421302795410156e+00 4.733771800994873047e+00 1.210856810212135315e-02
-8.686091423034667969e+00 4.791457653045654297e+00 1.211956329643726349e-02
-8.722848892211914062e+00 4.881780624389648438e+00 1.221241522580385208e-02
-8.261398315429687500e+00 4.690326690673828125e+00 1.160643622279167175e-02
-8.548764228820800781e+00 4.923081398010253906e+00 1.205236930400133133e-02
-8.523575782775878906e+00 4.978468418121337891e+00 1.205969881266355515e-02
-8.488566398620605469e+00 5.028126239776611328e+00 1.205359026789665222e-02
-8.388118743896484375e+00 5.038409233093261719e+00 1.195463072508573532e-02
-8.404018402099609375e+00 5.118391036987304688e+00 1.202182471752166748e-02
-8.094223976135253906e+00 4.998057842254638672e+00 1.162231992930173874e-02
-8.329556465148925781e+00 5.214238643646240234e+00 1.200594287365674973e-02
-8.312603950500488281e+00 5.274893760681152344e+00 1.202793419361114502e-02
-8.238028526306152344e+00 5.298751354217529297e+00 1.196684688329696655e-02
-8.191121101379394531e+00 5.339915275573730469e+00 1.194607838988304138e-02
-8.265830993652343750e+00 5.461184978485107422e+00 1.210368145257234573e-02
-8.226349830627441406e+00 5.507905960083007812e+00 1.209512911736965179e-02
-8.364522933959960938e+00 5.675058364868164062e+00 1.234924979507923126e-02
-8.534732818603515625e+00 5.867335796356201172e+00 1.265345979481935501e-02
-8.176910400390625000e+00 5.695543766021728516e+00 1.217454113066196442e-02
-8.149163246154785156e+00 5.750799179077148438e+00 1.218553818762302399e-02
-8.439931869506835938e+00 6.033907413482666016e+00 1.267545204609632492e-02
-8.098225593566894531e+00 5.865032672882080078e+00 1.221608091145753860e-02
-8.358799934387207031e+00 6.132291316986083984e+00 1.266567781567573547e-02
-8.581072807312011719e+00 6.376716613769531250e+00 1.306151878088712692e-02
-8.515419006347656250e+00 6.409403800964355469e+00 1.302120089530944824e-02
-8.435372352600097656e+00 6.430613040924072266e+00 1.295889262109994888e-02
-8.351429939270019531e+00 6.448027610778808594e+00 1.289047580212354660e-02
-8.668566703796386719e+00 6.778186321258544922e+00 1.344391983002424240e-02
-8.525680541992187500e+00 6.751165390014648438e+00 1.328631676733493805e-02
-8.555870056152343750e+00 6.860905647277832031e+00 1.339871622622013092e-02
-8.447626113891601562e+00 6.859692573547363281e+00 1.329486910253763199e-02
-8.420052528381347656e+00 6.923464775085449219e+00 1.331808138638734818e-02
-7.189872264862060547e+00 6.943027496337890625e+00 1.221119426190853119e-02
-9.916230291128158569e-02 6.958256363868713379e-01 1.423183921724557877e-02
-7.869102060794830322e-02 7.078538537025451660e-01 3.346259891986846924e-02
-2.265797741711139679e-02 7.123259902000427246e-01 2.115203440189361572e-02
-2.510867454111576080e-02 6.767873167991638184e-01 3.181997314095497131e-02
