-4.992344856262207031e+00 -6.747151374816894531e+00 2.491074651479721069e-01
-4.632310867309570312e+00 -6.758121490478515625e+00 1.659031659364700317e-01
-3.619359254837036133e+00 -4.838097095489501953e+00 1.780578136444091797e+00
-3.235390901565551758e+00 -4.682968139648437500e+00 1.612797021865844727e+00
-2.890621900558471680e+00 -4.535620212554931641e+00 1.467337846755981445e+00
-2.646881818771362305e+00 -4.513305664062500000e+00 1.375570297241210938e+00
-3.612762928009033203e+00 -4.831037521362304688e+00 1.532058238983154297e+00
-3.248710155487060547e+00 -4.698739051818847656e+00 1.389380693435668945e+00
-2.901068449020385742e+00 -4.546757221221923828e+00 1.257077693939208984e+00
-2.678351163864135742e+00 -4.557845592498779297e+00 1.181681990623474121e+00
-3.585563421249389648e+00 -4.796411037445068359e+00 1.286004304885864258e+00
-3.229312181472778320e+00 -4.667199134826660156e+00 1.160882472991943359e+00
-2.864727258682250977e+00 -4.482895851135253906e+00 1.036041855812072754e+00
-3.950978994369506836e+00 -6.710108757019042969e+00 1.440405130386352539e+00
-3.557956695556640625e+00 -4.757749557495117188e+00 1.049693346023559570e+00
-3.195149183273315430e+00 -4.614381790161132812e+00 9.352027773857116699e-01
-2.858492374420166016e+00 -4.471419334411621094e+00 8.329567909240722656e-01
-2.650966405868530273e+00 -4.495064258575439453e+00 7.696772217750549316e-01
-3.578164339065551758e+00 -4.783030986785888672e+00 8.320558071136474609e-01
-3.172752380371093750e+00 -4.578620910644531250e+00 7.215004563331604004e-01
-2.874075412750244141e+00 -4.487161636352539062e+00 6.401244997978210449e-01
-2.628378152847290039e+00 -4.451434612274169922e+00 5.716304183006286621e-01
-3.532378435134887695e+00 -4.718392848968505859e+00 6.039023995399475098e-01
-3.200180530548095703e+00 -4.614760875701904297e+00 5.219503045082092285e-01
-2.916938543319702148e+00 -4.550583839416503906e+00 4.510385394096374512e-01
-3.432763814926147461e+00 -5.806799411773681641e+00 4.989152252674102783e-01
-3.547231912612915039e+00 -4.734787940979003906e+00 3.898403346538543701e-01
-3.410283565521240234e+00 -4.914072036743164062e+00 3.375585973262786865e-01
-3.354766845703125000e+00 -5.229600906372070312e+00 2.919177412986755371e-01
-4.974904060363769531e+00 -6.638006687164306641e+00 2.462001889944076538e-01
-4.649737834930419922e+00 -6.695081710815429688e+00 1.650529056787490845e-01
-3.663459539413452148e+00 -4.834911823272705078e+00 1.787645101547241211e+00
-3.298271656036376953e+00 -4.711896896362304688e+00 1.629699110984802246e+00
-2.711108207702636719e+00 -4.558490753173828125e+00 1.394385814666748047e+00
-3.645848989486694336e+00 -4.813415050506591797e+00 1.533535122871398926e+00
-3.328768968582153320e+00 -4.751933574676513672e+00 1.411122918128967285e+00
-2.944778680801391602e+00 -4.553404808044433594e+00 1.263887524604797363e+00
-2.702270507812500000e+00 -4.534618854522705078e+00 1.179936885833740234e+00
-3.611974954605102539e+00 -4.770422935485839844e+00 1.284954428672790527e+00
-3.278697013854980469e+00 -4.676979064941406250e+00 1.168297052383422852e+00
-2.933801651000976562e+00 -4.529493808746337891e+00 1.050951719284057617e+00
-2.686926603317260742e+00 -4.499936103820800781e+00 9.694859981536865234e-01
-3.609676361083984375e+00 -4.765658378601074219e+00 1.056305050849914551e+00
-3.269289493560791016e+00 -4.660097599029541016e+00 9.485158920288085938e-01
-2.907900094985961914e+00 -4.487787723541259766e+00 8.393140435218811035e-01
-2.674435377120971680e+00 -4.471920967102050781e+00 7.685099244117736816e-01
-3.624791622161865234e+00 -4.783879280090332031e+00 8.360567688941955566e-01
-3.260050058364868164e+00 -4.643479347229003906e+00 7.348592281341552734e-01
-2.910204410552978516e+00 -4.482766628265380859e+00 6.420328617095947266e-01
-2.658195257186889648e+00 -4.439487457275390625e+00 5.721799731254577637e-01
-3.539024353027343750e+00 -4.667301177978515625e+00 6.001312732696533203e-01
-3.275946378707885742e+00 -4.662659645080566406e+00 5.296314358711242676e-01
-2.996926069259643555e+00 -4.612823486328125000e+00 4.590215384960174561e-01
-3.403720855712890625e+00 -5.677852153778076172e+00 4.896214306354522705e-01
-3.567772865295410156e+00 -4.701804637908935547e+00 3.889198303222656250e-01
-3.400173664093017578e+00 -4.835883140563964844e+00 3.336144983768463135e-01
-3.382436037063598633e+00 -5.202218532562255859e+00 2.915422916412353516e-01
-3.240291357040405273e+00 -5.398818016052246094e+00 2.363868951797485352e-01
-4.962357044219970703e+00 -6.537293434143066406e+00 2.435895502567291260e-01
-4.831688404083251953e+00 -6.866753101348876953e+00 1.700127869844436646e-01
-3.709992170333862305e+00 -4.834409713745117188e+00 1.795842647552490234e+00
-3.400587320327758789e+00 -4.795164585113525391e+00 1.665684461593627930e+00
-3.007890939712524414e+00 -4.594242095947265625e+00 1.498132228851318359e+00
-2.726541042327880859e+00 -4.521065235137939453e+00 1.388029217720031738e+00
-3.683573961257934570e+00 -4.801719665527343750e+00 1.536981225013732910e+00
-3.393854856491088867e+00 -4.782132625579833984e+00 1.426248073577880859e+00
-2.993483781814575195e+00 -4.567016601562500000e+00 1.272740125656127930e+00
-2.705816507339477539e+00 -4.477859497070312500e+00 1.169465899467468262e+00
-3.667356252670288086e+00 -4.782307624816894531e+00 1.294192671775817871e+00
-3.373138904571533203e+00 -4.749429225921630859e+00 1.191542744636535645e+00
-2.979314565658569336e+00 -4.538485527038574219e+00 1.057259678840637207e+00
-2.686476230621337891e+00 -4.437100887298583984e+00 9.594818949699401855e-01
-3.677210569381713867e+00 -4.793424606323242188e+00 1.067440509796142578e+00
-3.344680309295654297e+00 -4.705878734588623047e+00 9.619932770729064941e-01
-2.946770191192626953e+00 -4.487202167510986328e+00 8.425702452659606934e-01
-2.688487052917480469e+00 -4.433433055877685547e+00 7.647162675857543945e-01
-3.676990270614624023e+00 -4.791405677795410156e+00 8.412994146347045898e-01
-3.357457399368286133e+00 -4.720365524291992188e+00 7.502731084823608398e-01
-2.967124462127685547e+00 -4.509614944458007812e+00 6.484734416007995605e-01
-2.678679704666137695e+00 -4.412048339843750000e+00 5.707511901855468750e-01
-3.626974821090698242e+00 -4.722817420959472656e+00 6.101198196411132812e-01
-3.388795852661132812e+00 -4.760905742645263672e+00 5.431429743766784668e-01
-2.991742849349975586e+00 -4.543576240539550781e+00 4.539490044116973877e-01
-3.417257070541381836e+00 -5.621920108795166016e+00 4.865972399711608887e-01
-3.628173589706420898e+00 -4.720966339111328125e+00 3.923389017581939697e-01
-3.436733007431030273e+00 -4.824687004089355469e+00 3.342906236648559570e-01
-3.465408086776733398e+00 -5.258936882019042969e+00 2.959069609642028809e-01
-5.008468151092529297e+00 -6.514646530151367188e+00 2.438862174749374390e-01
-4.883016109466552734e+00 -6.850003242492675781e+00 1.703366935253143311e-01
-3.776669740676879883e+00 -4.859269142150878906e+00 1.813651323318481445e+00
-3.440050363540649414e+00 -4.788273811340332031e+00 1.670591592788696289e+00
-3.079228162765502930e+00 -4.640813827514648438e+00 1.519451379776000977e+00
-2.767348289489746094e+00 -4.525702953338623047e+00 1.394640088081359863e+00
-3.742699384689331055e+00 -4.817296028137207031e+00 1.549288868904113770e+00
-3.433910608291625977e+00 -4.776208400726318359e+00 1.430738329887390137e+00
-3.071026325225830078e+00 -4.623196125030517578e+00 1.293623328208923340e+00
-2.747516870498657227e+00 -4.484473228454589844e+00 1.175574064254760742e+00
-3.723018169403076172e+00 -4.793690681457519531e+00 1.303430795669555664e+00
-3.413088798522949219e+00 -4.743752479553222656e+00 1.195350289344787598e+00
-3.047338724136352539e+00 -4.580594539642333984e+00 1.071405053138732910e+00
-2.738858699798583984e+00 -4.461596488952636719e+00 9.683946371078491211e-01
-3.730719804763793945e+00 -4.801877021789550781e+00 1.074400186538696289e+00
-3.448996543884277344e+00 -4.790131568908691406e+00 9.835243225097656250e-01
-3.014750719070434570e+00 -4.529895782470703125e+00 8.540443181991577148e-01
-2.720821142196655273e+00 -4.425281047821044922e+00 7.661753892898559570e-01
-3.718476295471191406e+00 -4.784394264221191406e+00 8.440586924552917480e-01
-3.462885618209838867e+00 -4.805882930755615234e+00 7.672284245491027832e-01
-3.026135206222534180e+00 -4.538410186767578125e+00 6.552718877792358398e-01
-2.738525629043579102e+00 -4.448854446411132812e+00 5.776753425598144531e-01
-3.688254594802856445e+00 -4.742092132568359375e+00 6.155218482017517090e-01
-3.505882501602172852e+00 -4.861976146697998047e+00 5.571171641349792480e-01
-3.054413080215454102e+00 -4.577356815338134766e+00 4.591878354549407959e-01
-3.434945344924926758e+00 -5.573678970336914062e+00 4.842369258403778076e-01
-3.673620462417602539e+00 -4.719875812530517578e+00 3.941141963005065918e-01
-3.419533252716064453e+00 -4.738739013671875000e+00 3.297830820083618164e-01
-3.486516237258911133e+00 -5.220960140228271484e+00 2.949683368206024170e-01
-3.291082143783569336e+00 -5.333985328674316406e+00 2.352989464998245239e-01
-4.951879978179931641e+00 -6.857197284698486328e+00 1.712679266929626465e-01
-3.830738544464111328e+00 -4.866907596588134766e+00 1.825240969657897949e+00
-3.526546955108642578e+00 -4.845644950866699219e+00 1.698125720024108887e+00
-3.118950128555297852e+00 -4.638645172119140625e+00 1.524978518486022949e+00
-2.803728342056274414e+00 -4.522612094879150391e+00 1.398962616920471191e+00
-3.808147192001342773e+00 -4.839943885803222656e+00 1.564058065414428711e+00
-3.534085750579833984e+00 -4.852442741394042969e+00 1.460043191909790039e+00
-3.148825168609619141e+00 -4.677785396575927734e+00 1.314279556274414062e+00
-2.789399623870849609e+00 -4.490742683410644531e+00 1.181681990623474121e+00
-3.776539087295532227e+00 -4.801496028900146484e+00 1.311829209327697754e+00
-3.528689861297607422e+00 -4.841481685638427734e+00 1.225409388542175293e+00
-3.109954595565795898e+00 -4.613084793090820312e+00 1.083447575569152832e+00
-2.781769990921020508e+00 -4.469752311706542969e+00 9.738513827323913574e-01
-3.786906003952026367e+00 -4.812947273254394531e+00 1.082055926322937012e+00
-3.539356708526611328e+00 -4.852557659149169922e+00 1.000782012939453125e+00
-3.059060096740722656e+00 -4.535883426666259766e+00 8.586959242820739746e-01
-2.760482311248779297e+00 -4.428652286529541016e+00 7.696772217750549316e-01
-3.769202947616577148e+00 -4.788727760314941406e+00 8.488873243331909180e-01
-3.527974605560302734e+00 -4.833407878875732422e+00 7.750639319419860840e-01
-3.077271699905395508e+00 -4.554308414459228516e+00 6.602812409400939941e-01
-2.753669023513793945e+00 -4.412573337554931641e+00 5.751475095748901367e-01
-3.727130651473999023e+00 -4.731875896453857422e+00 6.171526312828063965e-01
-3.494536876678466797e+00 -4.784089565277099609e+00 5.506390333175659180e-01
-3.158916711807250977e+00 -4.671625614166259766e+00 4.705802202224731445e-01
-3.455341339111328125e+00 -5.530507564544677734e+00 4.823191463947296143e-01
-3.761193513870239258e+00 -4.771693706512451172e+00 4.003605544567108154e-01
-3.476237297058105469e+00 -4.755550861358642578e+00 3.324312567710876465e-01
-3.567750215530395508e+00 -5.272269725799560547e+00 2.990983426570892334e-01
-3.352895259857177734e+00 -5.360287666320800781e+00 2.373622953891754150e-01
-4.987959384918212891e+00 -6.818614959716796875e+00 1.710654944181442261e-01
-3.889227390289306641e+00 -4.879315376281738281e+00 1.838809370994567871e+00
-3.565347671508789062e+00 -4.836306571960449219e+00 1.702487707138061523e+00
-3.166909217834472656e+00 -4.648122310638427734e+00 1.534453749656677246e+00
-2.869507551193237305e+00 -4.565918445587158203e+00 1.417778134346008301e+00
-3.867972612380981445e+00 -4.854387760162353516e+00 1.576365709304809570e+00
-3.564370155334472656e+00 -4.831448554992675781e+00 1.460279464721679688e+00
-3.209297657012939453e+00 -4.705039978027343750e+00 1.327445030212402344e+00
-2.834582090377807617e+00 -4.501621246337890625e+00 1.189098834991455078e+00
-3.840650796890258789e+00 -4.821824550628662109e+00 1.323796987533569336e+00
-3.572877883911132812e+00 -4.839443683624267578e+00 1.230419278144836426e+00
-3.169760465621948242e+00 -4.640114307403564453e+00 1.094343185424804688e+00
-2.827507495880126953e+00 -4.481707096099853516e+00 9.802176356315612793e-01
-3.843367815017700195e+00 -4.823507785797119141e+00 1.089711546897888184e+00
-3.557927846908569336e+00 -4.815675258636474609e+00 9.976592063903808594e-01
-3.138671398162841797e+00 -4.592882633209228516e+00 8.731160759925842285e-01
-2.807157039642333984e+00 -4.442574977874755859e+00 7.750759124755859375e-01
-3.834321022033691406e+00 -4.810431480407714844e+00 8.568892478942871094e-01
-3.589403152465820312e+00 -4.854730606079101562e+00 7.820001840591430664e-01
-3.127594470977783203e+00 -4.568110942840576172e+00 6.650520563125610352e-01
-2.821608304977416992e+00 -4.460272312164306641e+00 5.836104154586791992e-01
-3.853486537933349609e+00 -4.831015110015869141e+00 6.331547498703002930e-01
-3.483553409576416016e+00 -4.708128452301025391e+00 5.443460345268249512e-01
-3.213432073593139648e+00 -4.689970493316650391e+00 4.744054079055786133e-01
-3.460396289825439453e+00 -5.463705539703369141e+00 4.783360660076141357e-01
-3.826506376266479492e+00 -4.793756961822509766e+00 4.041741490364074707e-01
-3.505351305007934570e+00 -4.734131813049316406e+00 3.324312567710876465e-01
-3.609636306762695312e+00 -5.264284610748291016e+00 2.998962104320526123e-01
-3.381976366043090820e+00 -5.333706378936767578e+00 2.370996922254562378e-01
-5.043394088745117188e+00 -6.806356906890869141e+00 1.715311259031295776e-01
-3.960061550140380859e+00 -4.906115055084228516e+00 1.858031511306762695e+00
-3.608771324157714844e+00 -4.832840919494628906e+00 1.709030508995056152e+00
-3.246342420578002930e+00 -4.702438354492187500e+00 1.558931350708007812e+00
-2.916176319122314453e+00 -4.577589988708496094e+00 1.426931738853454590e+00
-3.937855482101440430e+00 -4.880346775054931641e+00 1.592611908912658691e+00
-3.592785120010375977e+00 -4.807930469512939453e+00 1.459806919097900391e+00
-3.259701490402221680e+00 -4.716505527496337891e+00 1.336297631263732910e+00
-2.899955034255981445e+00 -4.543372631072998047e+00 1.204805135726928711e+00
-3.910676956176757812e+00 -4.848394870758056641e+00 1.337654352188110352e+00
-3.565541028976440430e+00 -4.768000125885009766e+00 1.217794418334960938e+00
-3.224986314773559570e+00 -4.659317493438720703e+00 1.103518486022949219e+00
-2.876674175262451172e+00 -4.498238086700439453e+00 9.876751899719238281e-01
-3.889587879180908203e+00 -4.820527076721191406e+00 1.094409346580505371e+00
-3.577362298965454102e+00 -4.780328273773193359e+00 9.948651790618896484e-01
-3.192663669586181641e+00 -4.610898971557617188e+00 8.802486062049865723e-01
-2.860508441925048828e+00 -4.466087341308593750e+00 7.822254896163940430e-01
-3.903578281402587891e+00 -4.836138248443603516e+00 8.657188415527343750e-01
-3.587022304534912109e+00 -4.789750099182128906e+00 7.750639319419860840e-01
-3.177070140838623047e+00 -4.579834461212158203e+00 6.695843338966369629e-01
-2.864481925964355469e+00 -4.467139720916748047e+00 5.867977142333984375e-01
-3.883056640625000000e+00 -4.807279586791992188e+00 6.331547498703002930e-01
-3.544024944305419922e+00 -4.728894233703613281e+00 5.492509007453918457e-01
-3.257492542266845703e+00 -4.692267417907714844e+00 4.766506254673004150e-01
-3.476615428924560547e+00 -5.415514945983886719e+00 4.759757220745086670e-01
-3.867766380310058594e+00 -4.784932136535644531e+00 4.054234325885772705e-01
-3.577464342117309570e+00 -4.770042896270751953e+00 3.364880383014678955e-01
-3.645288944244384766e+00 -5.246959209442138672e+00 3.001778125762939453e-01
-3.431929111480712891e+00 -5.339755058288574219e+00 2.383002042770385742e-01
-4.943093299865722656e+00 -6.113069534301757812e+00 2.333250194787979126e-01
-4.993239402770996094e+00 -6.652939319610595703e+00 1.684337258338928223e-01
-4.702417373657226562e+00 -6.761012077331542969e+00 8.768298476934432983e-02
-4.017407417297363281e+00 -4.915145874023437500e+00 1.870751976966857910e+00
-3.647643089294433594e+00 -4.822884559631347656e+00 1.713392376899719238e+00
-3.313288450241088867e+00 -4.736978530883789062e+00 1.577092051506042480e+00
-2.957324504852294922e+00 -4.579922199249267578e+00 1.433288216590881348e+00
-3.992256641387939453e+00 -4.886115074157714844e+00 1.602458000183105469e+00
-3.631600618362426758e+00 -4.798191070556640625e+00 1.463588118553161621e+00
-3.312042236328125000e+00 -4.729921817779541016e+00 1.345831394195556641e+00
-2.936789989471435547e+00 -4.539423465728759766e+00 1.208513617515563965e+00
-3.967566013336181641e+00 -4.857625961303710938e+00 1.346892595291137695e+00
-3.598278999328613281e+00 -4.750718593597412109e+00 1.218996763229370117e+00
-3.273239850997924805e+00 -4.667569160461425781e+00 1.110208749771118164e+00
-2.943264484405517578e+00 -4.540737628936767578e+00 1.000953316688537598e+00
-3.947131156921386719e+00 -4.830885887145996094e+00 1.102239012718200684e+00
-3.636418342590332031e+00 -4.797592639923095703e+00 1.003083109855651855e+00
-3.270823240280151367e+00 -4.662392139434814453e+00 8.938935399055480957e-01
-2.914792060852050781e+00 -4.489940643310546875e+00 7.895210385322570801e-01
-3.955743789672851562e+00 -4.839702606201171875e+00 8.706855177879333496e-01
-3.625933408737182617e+00 -4.780292510986328125e+00 7.771191000938415527e-01
-2.924336433410644531e+00 -4.499482631683349609e+00 5.933921933174133301e-01
-3.933894395828247070e+00 -4.809543609619140625e+00 6.366201639175415039e-01
-3.556117296218872070e+00 -4.684852600097656250e+00 5.466595888137817383e-01
-3.307434797286987305e+00 -4.702350139617919922e+00 4.797273576259613037e-01
-3.486391305923461914e+00 -5.358137130737304688e+00 4.728040695190429688e-01
-3.916646242141723633e+00 -4.785046577453613281e+00 4.074617326259613037e-01
-3.668266296386718750e+00 -4.829096794128417969e+00 3.422351777553558350e-01
-3.651541948318481445e+00 -5.187735557556152344e+00 2.980658411979675293e-01
-3.456447124481201172e+00 -5.306036949157714844e+00 2.377374619245529175e-01
-4.922250270843505859e+00 -6.011473178863525391e+00 2.305957227945327759e-01
-4.974672317504882812e+00 -6.544174194335937500e+00 1.664497554302215576e-01
-4.730566024780273438e+00 -6.713231086730957031e+00 8.743812143802642822e-02
-4.062779903411865234e+00 -4.908876419067382812e+00 1.877818703651428223e+00
-3.688283443450927734e+00 -4.814924240112304688e+00 1.718572020530700684e+00
-3.396397590637207031e+00 -4.792912483215332031e+00 1.602622389793395996e+00
-3.026150226593017578e+00 -4.624001979827880859e+00 1.452866673469543457e+00
-4.045639991760253906e+00 -4.889904499053955078e+00 1.611811876296997070e+00
-3.676934242248535156e+00 -4.796639442443847656e+00 1.469969034194946289e+00
-3.372558116912841797e+00 -4.753992080688476562e+00 1.358542799949645996e+00
-2.979571580886840820e+00 -4.544169425964355469e+00 1.214621663093566895e+00
-4.018483161926269531e+00 -4.858806133270263672e+00 1.354031205177307129e+00
-3.706670522689819336e+00 -4.831936359405517578e+00 1.245649099349975586e+00
-3.363783836364746094e+00 -4.734616279602050781e+00 1.131044268608093262e+00
-2.985107898712158203e+00 -4.543960571289062500e+00 1.005682587623596191e+00
-4.006201744079589844e+00 -4.842236042022705078e+00 1.110416531562805176e+00
-3.679002046585083008e+00 -4.792403697967529297e+00 1.006698966026306152e+00
-3.368046522140502930e+00 -4.738863945007324219e+00 9.125001430511474609e-01
-2.971106290817260742e+00 -4.515773773193359375e+00 7.972542643547058105e-01
-3.999258041381835938e+00 -4.832125663757324219e+00 8.737207055091857910e-01
-3.687821149826049805e+00 -4.800421714782714844e+00 7.840553522109985352e-01
-3.348785638809204102e+00 -4.703066825866699219e+00 6.935576796531677246e-01
-2.971572875976562500e+00 -4.511336803436279297e+00 5.973488688468933105e-01
-3.960792779922485352e+00 -4.782250404357910156e+00 6.362124681472778320e-01
-3.596933603286743164e+00 -4.678732395172119141e+00 5.485104918479919434e-01
-3.567546606063842773e+00 -5.006597042083740234e+00 5.129898190498352051e-01
-3.497791051864624023e+00 -5.304174900054931641e+00 4.699274003505706787e-01
-3.947206258773803711e+00 -4.762461185455322266e+00 4.075932204723358154e-01
-3.625990152359008789e+00 -4.713121891021728516e+00 3.355865478515625000e-01
-3.540055274963378906e+00 -4.964348793029785156e+00 2.864736020565032959e-01
-3.497197628021240234e+00 -5.297237873077392578e+00 2.383002042770385742e-01
-4.962233543395996094e+00 -5.985004901885986328e+00 2.307440638542175293e-01
-4.801298618316650391e+00 -6.725584506988525391e+00 8.798108249902725220e-02
-4.125477790832519531e+00 -4.922820091247558594e+00 1.892800569534301758e+00
-3.743706703186035156e+00 -4.825651168823242188e+00 1.730567216873168945e+00
-3.443746089935302734e+00 -4.797060966491699219e+00 1.611044764518737793e+00
-3.035756111145019531e+00 -4.577137470245361328e+00 1.443967461585998535e+00
-4.103576660156250000e+00 -4.898422718048095703e+00 1.622888803482055664e+00
-3.725960493087768555e+00 -4.799315929412841797e+00 1.477767825126647949e+00
-3.419852256774902344e+00 -4.758515834808349609e+00 1.365806579589843750e+00
-3.065731048583984375e+00 -4.613586425781250000e+00 1.238181114196777344e+00
-4.076468467712402344e+00 -4.867789268493652344e+00 1.363479375839233398e+00
-3.738052129745483398e+00 -4.811422824859619141e+00 1.246250391006469727e+00
-3.407679796218872070e+00 -4.734600543975830078e+00 1.136014223098754883e+00
-3.037455081939697266e+00 -4.562391757965087891e+00 1.013867735862731934e+00
-4.066192150115966797e+00 -4.853796958923339844e+00 1.118768215179443359e+00
-3.722263336181640625e+00 -4.787650108337402344e+00 1.010479211807250977e+00
-3.434003829956054688e+00 -4.769419193267822266e+00 9.224236607551574707e-01
-3.026748418807983398e+00 -4.539436817169189453e+00 8.046957254409790039e-01
-4.057459354400634766e+00 -4.841656208038330078e+00 8.799290657043457031e-01
-3.731213331222534180e+00 -4.795705795288085938e+00 7.870097160339355469e-01
-3.488520622253417969e+00 -4.836230278015136719e+00 7.163383960723876953e-01
-3.005819559097290039e+00 -4.502938270568847656e+00 5.986677408218383789e-01
-3.992618560791015625e+00 -4.760906696319580078e+00 6.366201639175415039e-01
-3.661664724349975586e+00 -4.702927112579345703e+00 5.539706349372863770e-01
-3.469296693801879883e+00 -4.806042671203613281e+00 4.946123361587524414e-01
-3.456019639968872070e+00 -5.171504974365234375e+00 4.600435197353363037e-01
-4.067439556121826172e+00 -4.846688270568847656e+00 4.169299006462097168e-01
-3.690432071685791016e+00 -4.736463546752929688e+00 3.388545215129852295e-01
-3.531843423843383789e+00 -4.889092445373535156e+00 2.833760976791381836e-01
-3.527968168258666992e+00 -5.273188114166259766e+00 2.381876558065414429e-01
-5.020714759826660156e+00 -5.980473518371582031e+00 2.317527085542678833e-01
-4.936817646026611328e+00 -6.826449871063232422e+00 8.969514071941375732e-02
-4.677825450897216797e+00 -6.986580371856689453e+00 1.027230732142925262e-02
-4.204634189605712891e+00 -4.955193996429443359e+00 1.915131926536560059e+00
-3.808315515518188477e+00 -4.847225666046142578e+00 1.746651530265808105e+00
-3.519642829895019531e+00 -4.839819431304931641e+00 1.632627129554748535e+00
-4.160514831542968750e+00 -4.904934406280517578e+00 1.633473277091979980e+00
-3.775156974792480469e+00 -4.801570415496826172e+00 1.485566735267639160e+00
-3.528661251068115234e+00 -4.846883296966552734e+00 1.397358298301696777e+00
-3.110879898071289062e+00 -4.619782924652099609e+00 1.244943499565124512e+00
-4.143566608428955078e+00 -4.886682033538818359e+00 1.375867009162902832e+00
-3.784466743469238281e+00 -4.809955120086669922e+00 1.251861333847045898e+00
-3.507215499877929688e+00 -4.810364723205566406e+00 1.159334659576416016e+00
-3.093439340591430664e+00 -4.585241317749023438e+00 1.023144245147705078e+00
-4.130932807922363281e+00 -4.870059013366699219e+00 1.128337740898132324e+00
-3.773537635803222656e+00 -4.792621135711669922e+00 1.016396164894104004e+00
-3.542958259582519531e+00 -4.857606410980224609e+00 9.436662793159484863e-01
-3.075591802597045898e+00 -4.551929473876953125e+00 8.102403283119201660e-01
-4.130025386810302734e+00 -4.867267131805419922e+00 8.891725540161132812e-01
-3.782050848007202148e+00 -4.799984931945800781e+00 7.915053963661193848e-01
-3.511686086654663086e+00 -4.805915832519531250e+00 7.150263786315917969e-01
-3.069590568542480469e+00 -4.537923812866210938e+00 6.058117151260375977e-01
-4.052018642425537109e+00 -4.771958351135253906e+00 6.414106488227844238e-01
-3.743472814559936523e+00 -4.747613906860351562e+00 5.619294643402099609e-01
-3.506955623626708984e+00 -4.795927047729492188e+00 4.957765042781829834e-01
-3.284698963165283203e+00 -4.850454330444335938e+00 4.332684874534606934e-01
-4.093225479125976562e+00 -4.817077636718750000e+00 4.165354371070861816e-01
-3.773231029510498047e+00 -4.781920433044433594e+00 3.437564671039581299e-01
-3.574163913726806641e+00 -4.884258270263671875e+00 2.843616902828216553e-01
-3.634838104248046875e+00 -5.361449718475341797e+00 2.431772500276565552e-01
-5.033362865447998047e+00 -5.921375751495361328e+00 2.306550592184066772e-01
-5.003429889678955078e+00 -6.829908847808837891e+00 9.014228731393814087e-02
-4.744187355041503906e+00 -6.992502689361572266e+00 1.032362133264541626e-02
-4.254961967468261719e+00 -4.952584266662597656e+00 1.924177646636962891e+00
-3.866140127182006836e+00 -4.859152793884277344e+00 1.759464502334594727e+00
-3.559572696685791016e+00 -4.832113742828369141e+00 1.637364745140075684e+00
-3.183700799942016602e+00 -4.674630165100097656e+00 1.486937999725341797e+00
-4.237894058227539062e+00 -4.934459686279296875e+00 1.651934862136840820e+00
-3.855388164520263672e+00 -4.842169284820556641e+00 1.505418419837951660e+00
-3.560069084167480469e+00 -4.827492237091064453e+00 1.398039340972900391e+00
-3.165020227432250977e+00 -4.638496398925781250e+00 1.255196213722229004e+00
-4.216780185699462891e+00 -4.911609649658203125e+00 1.390144348144531250e+00
-3.837718963623046875e+00 -4.816526412963867188e+00 1.259676694869995117e+00
-3.548328161239624023e+00 -4.804545879364013672e+00 1.163157820701599121e+00
-3.160361051559448242e+00 -4.622997283935546875e+00 1.035876631736755371e+00
-4.183192729949951172e+00 -4.870767593383789062e+00 1.134427428245544434e+00
-3.831161260604858398e+00 -4.804853916168212891e+00 1.023956656455993652e+00
-3.561543464660644531e+00 -4.820679187774658203e+00 9.407202005386352539e-01
-3.125819206237792969e+00 -4.565624713897705078e+00 8.160767555236816406e-01
-4.177239418029785156e+00 -4.862118244171142578e+00 8.928975462913513184e-01
-3.838029146194458008e+00 -4.810021400451660156e+00 7.970287799835205078e-01
-3.548196554183959961e+00 -4.793854713439941406e+00 7.164576649665832520e-01
-3.140084028244018555e+00 -4.581312179565429688e+00 6.141647696495056152e-01
-4.150615692138671875e+00 -4.827719211578369141e+00 6.523165106773376465e-01
-3.784337520599365234e+00 -4.739338397979736328e+00 5.636878013610839844e-01
-3.520895242691040039e+00 -4.753498077392578125e+00 4.936144649982452393e-01
-3.251203060150146484e+00 -4.738110542297363281e+00 4.250073134899139404e-01
-4.146784305572509766e+00 -4.819858074188232422e+00 4.189682006835937500e-01
-3.879162311553955078e+00 -4.854616165161132812e+00 3.506868183612823486e-01
-3.570160627365112305e+00 -4.816493988037109375e+00 2.816865444183349609e-01
-3.653521299362182617e+00 -5.318454265594482422e+00 2.422393560409545898e-01
-5.076121330261230469e+00 -5.897955894470214844e+00 2.309517264366149902e-01
-5.052393913269042969e+00 -6.808715820312500000e+00 9.027004241943359375e-02
-4.639143943786621094e+00 -6.748182296752929688e+00 1.000474859029054642e-02
-4.313599586486816406e+00 -4.958950519561767578e+00 1.936898112297058105e+00
-3.925460577011108398e+00 -4.872049808502197266e+00 1.772822618484497070e+00
-3.604155540466308594e+00 -4.830285072326660156e+00 1.644207954406738281e+00
-3.255169630050659180e+00 -4.717095375061035156e+00 1.506770730018615723e+00
-4.294802665710449219e+00 -4.939081668853759766e+00 1.662273287773132324e+00
-3.914911270141601562e+00 -4.855486392974853516e+00 1.516998529434204102e+00
-3.585543155670166016e+00 -4.800095558166503906e+00 1.396450400352478027e+00
-3.251141071319580078e+00 -4.702474117279052734e+00 1.277883172035217285e+00
-4.282757759094238281e+00 -4.926966190338134766e+00 1.401902079582214355e+00
-3.905958652496337891e+00 -4.840923786163330078e+00 1.272301554679870605e+00
-3.575977563858032227e+00 -4.780325412750244141e+00 1.162584304809570312e+00
-3.222821950912475586e+00 -4.652827739715576172e+00 1.046972036361694336e+00
-4.255001544952392578e+00 -4.893309593200683594e+00 1.145736932754516602e+00
-3.900230169296264648e+00 -4.830372810363769531e+00 1.034475564956665039e+00
-3.585728406906127930e+00 -4.791616439819335938e+00 9.393246769905090332e-01
-3.208470582962036133e+00 -4.625206470489501953e+00 8.302299976348876953e-01
-4.259646415710449219e+00 -4.896925449371337891e+00 9.040726423263549805e-01
-3.895518302917480469e+00 -4.821093082427978516e+00 8.028090000152587891e-01
-3.594220161437988281e+00 -4.794236660003662109e+00 7.197971940040588379e-01
-3.177773714065551758e+00 -4.575837612152099609e+00 6.160331964492797852e-01
-4.225880622863769531e+00 -4.854684352874755859e+00 6.594512462615966797e-01
-3.857170820236206055e+00 -4.770227432250976562e+00 5.701659321784973145e-01
-3.548201560974121094e+00 -4.729413032531738281e+00 4.933649599552154541e-01
-3.275660276412963867e+00 -4.711522102355957031e+00 4.244172275066375732e-01
-4.216916084289550781e+00 -4.840972423553466797e+00 4.230448305606842041e-01
-3.890035629272460938e+00 -4.807438373565673828e+00 3.489964902400970459e-01
-3.623036623001098633e+00 -4.825651168823242188e+00 2.835168838500976562e-01
-3.691223621368408203e+00 -5.303318023681640625e+00 2.425769865512847900e-01
-5.169345855712890625e+00 -5.932260513305664062e+00 2.335326820611953735e-01
-5.103088378906250000e+00 -6.789577007293701172e+00 9.042973816394805908e-02
-4.715898990631103516e+00 -6.770465373992919922e+00 1.008049584925174713e-02
-4.371206760406494141e+00 -4.963343143463134766e+00 1.949053287506103516e+00
-3.991774559020996094e+00 -4.892601013183593750e+00 1.789179563522338867e+00
-3.636052370071411133e+00 -4.811158657073974609e+00 1.645260810852050781e+00
-3.302894115447998047e+00 -4.723982810974121094e+00 1.515415787696838379e+00
-4.355769634246826172e+00 -4.947555065155029297e+00 1.674088597297668457e+00
-3.969825983047485352e+00 -4.862233161926269531e+00 1.526688098907470703e+00
-3.623154878616333008e+00 -4.788877487182617188e+00 1.399628281593322754e+00
-3.308489084243774414e+00 -4.723202705383300781e+00 1.289008498191833496e+00
-4.334869861602783203e+00 -4.925549030303955078e+00 1.409040689468383789e+00
-3.956044435501098633e+00 -4.841902732849121094e+00 1.278914570808410645e+00
-3.614726305007934570e+00 -4.770811557769775391e+00 1.165642738342285156e+00
-3.293674945831298828e+00 -4.693332195281982422e+00 1.060613989830017090e+00
-4.322036743164062500e+00 -4.909239292144775391e+00 1.155654430389404297e+00
-3.959140777587890625e+00 -4.842241764068603516e+00 1.042200446128845215e+00
-3.629980325698852539e+00 -4.789207458496093750e+00 9.432010650634765625e-01
-3.260681867599487305e+00 -4.639427185058593750e+00 8.363582491874694824e-01
-4.289613246917724609e+00 -4.870696544647216797e+00 9.040726423263549805e-01
-3.953286647796630859e+00 -4.831638813018798828e+00 8.085891604423522949e-01
-3.639180421829223633e+00 -4.792651653289794922e+00 7.228982448577880859e-01
-3.250974893569946289e+00 -4.620471000671386719e+00 6.247159242630004883e-01
-4.283213615417480469e+00 -4.860008716583251953e+00 6.637320518493652344e-01
-3.567507266998291016e+00 -4.694857597351074219e+00 4.920344948768615723e-01
-3.541118621826171875e+00 -5.027245044708251953e+00 4.548065364360809326e-01
-4.321781635284423828e+00 -4.900321006774902344e+00 4.305404722690582275e-01
-3.951732158660888672e+00 -4.822865486145019531e+00 3.518700599670410156e-01
-3.671926498413085938e+00 -4.828773498535156250e+00 2.850187420845031738e-01
-3.749033927917480469e+00 -5.316502571105957031e+00 2.442276924848556519e-01
-5.334599018096923828e+00 -6.046592235565185547e+00 2.393175959587097168e-01
-4.997905731201171875e+00 -6.095319747924804688e+00 1.596071422100067139e-01
-4.753317356109619141e+00 -6.735682487487792969e+00 1.007194444537162781e-02
-4.418815135955810547e+00 -4.955758571624755859e+00 1.956685543060302734e+00
-4.049295425415039062e+00 -4.901393890380859375e+00 1.801447272300720215e+00
-3.679577827453613281e+00 -4.807143211364746094e+00 1.651577472686767578e+00
-3.405609607696533203e+00 -4.807801723480224609e+00 1.548978686332702637e+00
-4.427964687347412109e+00 -4.967764854431152344e+00 1.690088510513305664e+00
-4.026826858520507812e+00 -4.870733737945556641e+00 1.537086486816406250e+00
-3.682088375091552734e+00 -4.805208206176757812e+00 1.410977840423583984e+00
-3.375249385833740234e+00 -4.756136417388916016e+00 1.303624033927917480e+00
-4.395580768585205078e+00 -4.933166980743408203e+00 1.418908834457397461e+00
-4.012533187866210938e+00 -4.849996566772460938e+00 1.287531495094299316e+00
-3.663053035736083984e+00 -4.773460388183593750e+00 1.171759605407714844e+00
-3.371981620788574219e+00 -4.742757320404052734e+00 1.076438665390014648e+00
-4.384184360504150391e+00 -4.918647766113281250e+00 1.164180040359497070e+00
-4.018342971801757812e+00 -4.853568077087402344e+00 1.049925446510314941e+00
-3.679149389266967773e+00 -4.792704105377197266e+00 9.483178853988647461e-01
-3.367125988006591797e+00 -4.728933334350585938e+00 8.562021255493164062e-01
-4.416313648223876953e+00 -4.952953338623046875e+00 9.243531823158264160e-01
-4.008166790008544922e+00 -4.837838172912597656e+00 8.137272000312805176e-01
-3.669124126434326172e+00 -4.771018981933593750e+00 7.230175137519836426e-01
-3.286764383316040039e+00 -4.610958576202392578e+00 6.261447072029113770e-01
-4.356666088104248047e+00 -4.882625579833984375e+00 6.704591512680053711e-01
-3.983418703079223633e+00 -4.804552078247070312e+00 5.800681114196777344e-01
-3.620558500289916992e+00 -4.704468727111816406e+00 4.953607320785522461e-01
-3.565526247024536133e+00 -4.996492862701416016e+00 4.539951384067535400e-01
-4.361072540283203125e+00 -4.884130954742431641e+00 4.314610064029693604e-01
-4.023963451385498047e+00 -4.850008487701416016e+00 3.556451201438903809e-01
-3.708800077438354492e+00 -4.815649032592773438e+00 2.855819165706634521e-01
-3.903571367263793945e+00 -5.464153766632080078e+00 2.521060109138488770e-01
-4.973900794982910156e+00 -5.990693569183349609e+00 1.576636880636215210e-01
-4.827125549316406250e+00 -6.751945018768310547e+00 1.014036033302545547e-02
-4.504416465759277344e+00 -4.989785194396972656e+00 1.980995655059814453e+00
-4.099048137664794922e+00 -4.900070667266845703e+00 1.810171008110046387e+00
-3.736785411834716797e+00 -4.820311546325683594e+00 1.663947939872741699e+00
-3.448578119277954102e+00 -4.805672645568847656e+00 1.555080890655517578e+00
-4.481739044189453125e+00 -4.966406345367431641e+00 1.698950171470642090e+00
-4.082209587097167969e+00 -4.876482009887695312e+00 1.546776056289672852e+00
-3.727624893188476562e+00 -4.803298473358154297e+00 1.417106628417968750e+00
-3.438549518585205078e+00 -4.782880306243896484e+00 1.316712617874145508e+00
-4.465061187744140625e+00 -4.949661254882812500e+00 1.431506395339965820e+00
-4.065495014190673828e+00 -4.853072643280029297e+00 1.294946074485778809e+00
-3.733232021331787109e+00 -4.803596019744873047e+00 1.184757947921752930e+00
-3.435500621795654297e+00 -4.769851684570312500e+00 1.087352156639099121e+00
-4.440671443939208984e+00 -4.920897483825683594e+00 1.171139717102050781e+00
-4.070227622985839844e+00 -4.855278015136718750e+00 1.055678009986877441e+00
-3.728497505187988281e+00 -4.795776367187500000e+00 9.534347057342529297e-01
-3.458004474639892578e+00 -4.794035434722900391e+00 8.718144893646240234e-01
-4.482459545135498047e+00 -4.965462207794189453e+00 9.318031668663024902e-01
-4.072831630706787109e+00 -4.854940891265869141e+00 8.207919001579284668e-01
-3.703820228576660156e+00 -4.755465507507324219e+00 7.240909337997436523e-01
-3.441845655441284180e+00 -4.766371250152587891e+00 6.501046419143676758e-01
-4.404548645019531250e+00 -4.875732898712158203e+00 6.732110977172851562e-01
-4.055077552795410156e+00 -4.830352306365966797e+00 5.861760377883911133e-01
-3.730834245681762695e+00 -4.786702156066894531e+00 5.064204931259155273e-01
-3.501467227935791016e+00 -4.843591213226318359e+00 4.420459866523742676e-01
-4.363523960113525391e+00 -4.826931476593017578e+00 4.287651777267456055e-01
-4.094748497009277344e+00 -4.874151706695556641e+00 3.592511415481567383e-01
-3.749336481094360352e+00 -4.806978702545166016e+00 2.864266932010650635e-01
-3.951672077178955078e+00 -5.460337638854980469e+00 2.530438899993896484e-01
-5.060747623443603516e+00 -6.019753456115722656e+00 1.592427343130111694e-01
-4.859078884124755859e+00 -6.709240913391113281e+00 1.012081280350685120e-02
-4.596424102783203125e+00 -5.029317855834960938e+00 2.007849931716918945e+00
-4.169456958770751953e+00 -4.922547340393066406e+00 1.827891111373901367e+00
-3.800844907760620117e+00 -4.841303825378417969e+00 1.679213404655456543e+00
-3.521219491958618164e+00 -4.843875408172607422e+00 1.574405074119567871e+00
-4.553313732147216797e+00 -4.983893871307373047e+00 1.714457750320434570e+00
-4.152892112731933594e+00 -4.899521827697753906e+00 1.562137484550476074e+00
-3.793135166168212891e+00 -4.826278686523437500e+00 1.430726051330566406e+00
-3.515517473220825195e+00 -4.827168941497802734e+00 1.334818601608276367e+00
-4.534907817840576172e+00 -4.965487480163574219e+00 1.444103956222534180e+00
-4.111040115356445312e+00 -4.846714496612548828e+00 1.299955964088439941e+00
-3.797239065170288086e+00 -4.824563503265380859e+00 1.195653557777404785e+00
-3.525558710098266602e+00 -4.832089900970458984e+00 1.106450915336608887e+00
-4.496022224426269531e+00 -4.921184539794921875e+00 1.177751421928405762e+00
-4.141433238983154297e+00 -4.879093170166015625e+00 1.066361308097839355e+00
-3.779243469238281250e+00 -4.799975395202636719e+00 9.588617086410522461e-01
-3.534047603607177734e+00 -4.836629867553710938e+00 8.834872841835021973e-01
-4.538901805877685547e+00 -4.966377735137939453e+00 9.371837377548217773e-01
-4.166104793548583984e+00 -4.904687881469726562e+00 8.335083723068237305e-01
-3.747686624526977539e+00 -4.751358985900878906e+00 7.269534468650817871e-01
-3.481589078903198242e+00 -4.759602546691894531e+00 6.520829200744628906e-01
-4.485406398773193359e+00 -4.904405593872070312e+00 6.809573173522949219e-01
-4.097537040710449219e+00 -4.820552825927734375e+00 5.880269408226013184e-01
-3.763839244842529297e+00 -4.768413066864013672e+00 5.069194436073303223e-01
-3.494000673294067383e+00 -4.771325111389160156e+00 4.373990595340728760e-01
-4.533858299255371094e+00 -4.953909873962402344e+00 4.425072371959686279e-01
-4.169860839843750000e+00 -4.902169704437255859e+00 3.631952404975891113e-01
-3.848107337951660156e+00 -4.871675014495849609e+00 2.916830778121948242e-01
-3.993373155593872070e+00 -5.447270870208740234e+00 2.535691261291503906e-01
-4.911393642425537109e+00 -6.694619178771972656e+00 1.014402601867914200e-02
-4.666934967041015625e+00 -5.043968677520751953e+00 2.025093078613281250e+00
-4.235283374786376953e+00 -4.938500404357910156e+00 1.843430161476135254e+00
-3.858697652816772461e+00 -4.853383541107177734e+00 1.691583991050720215e+00
-3.568652153015136719e+00 -4.846320629119873047e+00 1.582287311553955078e+00
-4.612107753753662109e+00 -4.986457824707031250e+00 1.725042343139648438e+00
-4.225908279418945312e+00 -4.924088954925537109e+00 1.578207969665527344e+00
-3.840265035629272461e+00 -4.825011253356933594e+00 1.437308788299560547e+00
-3.554339885711669922e+00 -4.818072795867919922e+00 1.338308811187744141e+00
-4.604451179504394531e+00 -4.979922771453857422e+00 1.456491589546203613e+00
-4.185382843017578125e+00 -4.873425006866455078e+00 1.313983440399169922e+00
-3.838394641876220703e+00 -4.815757274627685547e+00 1.199285387992858887e+00
-3.567999362945556641e+00 -4.827764034271240234e+00 1.110452532768249512e+00
-4.572938919067382812e+00 -4.944109439849853516e+00 1.189930796623229980e+00
-4.215654850006103516e+00 -4.905208110809326172e+00 1.077702045440673828e+00
-3.830180168151855469e+00 -4.803730964660644531e+00 9.642885923385620117e-01
-3.574252128601074219e+00 -4.829167366027832031e+00 8.861137032508850098e-01
-4.590814113616943359e+00 -4.961698055267333984e+00 9.415985941886901855e-01
-4.216813564300537109e+00 -4.903093338012695312e+00 8.376187682151794434e-01
-3.864140510559082031e+00 -4.837656497955322266e+00 7.437705397605895996e-01
-3.517828702926635742e+00 -4.747733592987060547e+00 6.534017920494079590e-01
-4.565428256988525391e+00 -4.930807113647460938e+00 6.884996891021728516e-01
-4.139379501342773438e+00 -4.809659481048583984e+00 5.897852778434753418e-01
-3.815426826477050781e+00 -4.773252010345458984e+00 5.099130272865295410e-01
-3.531529188156127930e+00 -4.761010169982910156e+00 4.384317100048065186e-01
-4.543145656585693359e+00 -4.903306961059570312e+00 4.404689371585845947e-01
-4.197906970977783203e+00 -4.874222278594970703e+00 3.630262017250061035e-01
-3.922228336334228516e+00 -4.903355121612548828e+00 2.950152456760406494e-01
-4.789886474609375000e+00 -6.450396060943603516e+00 3.016268014907836914e-01
-4.772003650665283203e+00 -5.148505210876464844e+00 2.083460390567779541e-01
-4.757933616638183594e+00 -6.402695178985595703e+00 9.745742194354534149e-03
-4.729928016662597656e+00 -5.049540519714355469e+00 2.038944244384765625e+00
-4.291368961334228516e+00 -4.942205905914306641e+00 1.854607462882995605e+00
-3.913815021514892578e+00 -4.861176967620849609e+00 1.702638268470764160e+00
-3.606416463851928711e+00 -4.835186004638671875e+00 1.585847020149230957e+00
-4.709527015686035156e+00 -5.029520511627197266e+00 1.749903798103332520e+00
-4.278348445892333984e+00 -4.923737525939941406e+00 1.586479425430297852e+00
-3.900967121124267578e+00 -4.840028762817382812e+00 1.448885440826416016e+00
-3.596103429794311523e+00 -4.812590122222900391e+00 1.342889785766601562e+00
-4.675009727478027344e+00 -4.994404315948486328e+00 1.469089150428771973e+00
-4.243492603302001953e+00 -4.880181789398193359e+00 1.322800874710083008e+00
-3.890065193176269531e+00 -4.819612026214599609e+00 1.206166863441467285e+00
-3.586358308792114258e+00 -4.790823936462402344e+00 1.106996536254882812e+00
-4.662420272827148438e+00 -4.979213237762451172e+00 1.205242156982421875e+00
-4.275458335876464844e+00 -4.913478851318359375e+00 1.085262537002563477e+00
-3.891855239868164062e+00 -4.820107936859130859e+00 9.723514914512634277e-01
-3.588387250900268555e+00 -4.786564826965332031e+00 8.823200464248657227e-01
-4.653672695159912109e+00 -4.968132495880126953e+00 9.482207894325256348e-01
-4.265705108642578125e+00 -4.898816108703613281e+00 8.413438200950622559e-01
-3.899370908737182617e+00 -4.820803165435791016e+00 7.448440194129943848e-01
-3.585077762603759766e+00 -4.776937007904052734e+00 6.604359149932861328e-01
-4.590154647827148438e+00 -4.896895408630371094e+00 6.876842975616455078e-01
-3.890412569046020508e+00 -4.806295871734619141e+00 5.159834623336791992e-01
-3.557680368423461914e+00 -4.735264778137207031e+00 4.380629062652587891e-01
-4.708312988281250000e+00 -5.019437313079833984e+00 4.534877240657806396e-01
-4.228391647338867188e+00 -4.849124908447265625e+00 3.630825579166412354e-01
-3.977390527725219727e+00 -4.910244464874267578e+00 2.968925535678863525e-01
-4.858808517456054688e+00 -6.460017204284667969e+00 3.034651279449462891e-01
-4.756310939788818359e+00 -5.068833351135253906e+00 2.062990814447402954e-01
-4.958898544311523438e+00 -6.588303565979003906e+00 1.007438730448484421e-02
-4.799764156341552734e+00 -5.061488628387451172e+00 2.055622100830078125e+00
-4.353375434875488281e+00 -4.951910495758056641e+00 1.868238210678100586e+00
-3.984412908554077148e+00 -4.887168407440185547e+00 1.720272660255432129e+00
-3.646510124206542969e+00 -4.826856613159179688e+00 1.590423703193664551e+00
-4.764970779418945312e+00 -5.026554584503173828e+00 1.759011507034301758e+00
-4.350197315216064453e+00 -4.944813251495361328e+00 1.601840853691101074e+00
-3.964460134506225586e+00 -4.857499599456787109e+00 1.461369872093200684e+00
-3.642644882202148438e+00 -4.813001632690429688e+00 1.349215984344482422e+00
-4.734484672546386719e+00 -4.996141433715820312e+00 1.478117465972900391e+00
-4.315436363220214844e+00 -4.901850223541259766e+00 1.335826516151428223e+00
-3.952486276626586914e+00 -4.835932731628417969e+00 1.216297984123229980e+00
-3.631133317947387695e+00 -4.789100646972656250e+00 1.111725807189941406e+00
-4.719983577728271484e+00 -4.979097843170166016e+00 1.212201833724975586e+00
-4.324436187744140625e+00 -4.908617019653320312e+00 1.090029001235961914e+00
-3.938241004943847656e+00 -4.816787242889404297e+00 9.765379428863525391e-01
-3.646405935287475586e+00 -4.802276134490966797e+00 8.893237113952636719e-01
-4.752220630645751953e+00 -5.011352539062500000e+00 9.620171785354614258e-01
-4.313391208648681641e+00 -4.892635345458984375e+00 8.448119163513183594e-01
-3.953413248062133789e+00 -4.826742172241210938e+00 7.494955658912658691e-01
-3.575825929641723633e+00 -4.704206943511962891e+00 6.534017920494079590e-01
-4.683113574981689453e+00 -4.935025691986083984e+00 6.970613598823547363e-01
-4.291629314422607422e+00 -4.864527225494384766e+00 6.029266119003295898e-01
-3.928042650222778320e+00 -4.792353630065917969e+00 5.170644521713256836e-01
-3.579421520233154297e+00 -4.703822612762451172e+00 4.371777772903442383e-01
-4.779562950134277344e+00 -5.033143520355224609e+00 4.573670625686645508e-01
-4.295069694519042969e+00 -4.865002632141113281e+00 3.662378489971160889e-01
-4.035951137542724609e+00 -4.920501708984375000e+00 2.990044951438903809e-01
-4.831137657165527344e+00 -6.341846466064453125e+00 2.993008494377136230e-01
-4.777685165405273438e+00 -5.029407978057861328e+00 2.058837562799453735e-01
-5.012568473815917969e+00 -6.575248241424560547e+00 1.010126620531082153e-02
-4.899816989898681641e+00 -5.103906631469726562e+00 2.085020542144775391e+00
-4.418859958648681641e+00 -4.964632987976074219e+00 1.883232235908508301e+00
-4.047491073608398438e+00 -4.902803421020507812e+00 1.734485387802124023e+00
-3.681935548782348633e+00 -4.812072277069091797e+00 1.592966318130493164e+00
-4.799078941345214844e+00 -5.000719547271728516e+00 1.760242342948913574e+00
-4.412123203277587891e+00 -4.953581809997558594e+00 1.613420963287353516e+00
-4.020247936248779297e+00 -4.864612579345703125e+00 1.470903635025024414e+00
-3.682795047760009766e+00 -4.804501533508300781e+00 1.353142499923706055e+00
-4.806339263916015625e+00 -5.010035037994384766e+00 1.490925073623657227e+00
-4.371507644653320312e+00 -4.904533386230468750e+00 1.343842267990112305e+00
-4.008368968963623047e+00 -4.843348979949951172e+00 1.224326252937316895e+00
-3.674224853515625000e+00 -4.784667968750000000e+00 1.115909218788146973e+00
-4.774310588836669922e+00 -4.974910259246826172e+00 1.218291521072387695e+00
-4.393868446350097656e+00 -4.926157951354980469e+00 1.099890589714050293e+00
-3.960162162780761719e+00 -4.783400535583496094e+00 9.746772646903991699e-01
-3.691483736038208008e+00 -4.800201416015625000e+00 8.931173682212829590e-01
-4.819919586181640625e+00 -5.020681381225585938e+00 9.694671630859375000e-01
-4.402104377746582031e+00 -4.931924819946289062e+00 8.562439680099487305e-01
-4.026055335998535156e+00 -4.854361057281494141e+00 7.576059103012084961e-01
-3.636758565902709961e+00 -4.723919391632080078e+00 6.592269539833068848e-01
-4.763616085052490234e+00 -4.958566665649414062e+00 7.045018672943115234e-01
-3.975830554962158203e+00 -4.790399551391601562e+00 5.194759964942932129e-01
-3.630132198333740234e+00 -4.710207939147949219e+00 4.398331642150878906e-01
-4.822803497314453125e+00 -5.016670227050781250e+00 4.585506021976470947e-01
-4.380064487457275391e+00 -4.900341510772705078e+00 3.709143996238708496e-01
