-1.665271446108818054e-02 -7.270023822784423828e-01 7.450677454471588135e-02
-4.509093239903450012e-02 -7.608593702316284180e-01 1.346697658300399780e-01
-3.398679569363594055e-02 -7.081293463706970215e-01 6.589159369468688965e-02
-6.183023005723953247e-02 -6.782522201538085938e-01 6.330034881830215454e-02
-1.051144227385520935e-01 -7.385147213935852051e-01 7.942145690321922302e-03
-8.336992561817169189e-02 -7.453513741493225098e-01 9.162977221421897411e-04
-1.158264130353927612e-01 -7.186850905418395996e-01 7.750512100756168365e-03
-1.422047734260559082e+00 -2.921896696090698242e+00 9.644496440887451172e-02
-1.421346545219421387e+00 -2.875481367111206055e+00 9.519898146390914917e-02
-1.423268914222717285e+00 -2.835439443588256836e+00 9.416066855192184448e-02
-1.445178985595703125e+00 -2.835558652877807617e+00 9.445732831954956055e-02
-1.457497596740722656e+00 -2.816872358322143555e+00 9.413099288940429688e-02
-1.399515151977539062e+00 -2.915869474411010742e+00 6.549075245857238770e-02
-1.427959084510803223e+00 -2.931523084640502930e+00 1.840204298496246338e-01
-1.408617496490478516e+00 -2.889253616333007812e+00 6.508586555719375610e-02
-1.443263292312622070e+00 -2.917336702346801758e+00 1.836823672056198120e-01
-1.424544572830200195e+00 -2.876972198486328125e+00 6.500489264726638794e-02
-1.459792017936706543e+00 -2.905749559402465820e+00 1.835133284330368042e-01
-1.449356675148010254e+00 -2.882469177246093750e+00 6.532879918813705444e-02
-1.456105232238769531e+00 -2.852150440216064453e+00 6.484293192625045776e-02
-1.472658276557922363e+00 -2.841387033462524414e+00 6.480244547128677368e-02
-1.382100939750671387e+00 -2.920269727706909180e+00 3.439822047948837280e-02
-1.409545660018920898e+00 -2.935536384582519531e+00 1.529986858367919922e-01
-1.399126768112182617e+00 -2.909931898117065430e+00 3.437692672014236450e-02
-1.431034326553344727e+00 -2.934014558792114258e+00 1.533741503953933716e-01
-1.415638923645019531e+00 -2.898596763610839844e+00 3.434498980641365051e-02
-1.445463061332702637e+00 -2.918018102645874023e+00 1.529986858367919922e-01
-1.430731892585754395e+00 -2.884481430053710938e+00 3.428111225366592407e-02
-1.456607341766357422e+00 -2.895708322525024414e+00 1.522947102785110474e-01
-1.456500411033630371e+00 -2.891723155975341797e+00 3.447274491190910339e-02
-1.475582122802734375e+00 -2.885402679443359375e+00 3.450468555092811584e-02
-1.392753005027770996e+00 -2.937554359436035156e+00 3.971844911575317383e-03
-1.414803981781005859e+00 -2.939991712570190430e+00 1.224890053272247314e-01
-1.408147692680358887e+00 -2.923547506332397461e+00 3.964514471590518951e-03
-1.427111864089965820e+00 -2.919584274291992188e+00 1.220012977719306946e-01
-1.422983407974243164e+00 -2.908564567565917969e+00 3.955962602049112320e-03
-1.438778519630432129e+00 -2.898241758346557617e+00 1.214760765433311462e-01
-1.442138195037841797e+00 -2.902465105056762695e+00 3.959627822041511536e-03
-1.451136708259582520e+00 -2.878650903701782227e+00 1.210258901119232178e-01
-1.450911164283752441e+00 -2.875705718994140625e+00 3.935193177312612534e-03
-1.467161059379577637e+00 -2.864078998565673828e+00 3.931527957320213318e-03
-7.171404838562011719e+00 -6.814856052398681641e+00 1.208657771348953247e-02
-7.361823081970214844e+00 -6.910341262817382812e+00 1.233580987900495529e-02
-8.219966888427734375e+00 -6.989712715148925781e+00 1.318246964365243912e-02
-8.319367408752441406e+00 -6.986733913421630859e+00 1.327287685126066208e-02
-8.169653892517089844e+00 -6.775956153869628906e+00 1.296744402498006821e-02
-8.029279708862304688e+00 -6.576790332794189453e+00 1.268033869564533234e-02
-7.208809852600097656e+00 -5.831202030181884766e+00 1.132788229733705521e-02
-8.322683334350585938e+00 -6.648148536682128906e+00 1.301387045532464981e-02
-8.163108825683593750e+00 -6.439030647277832031e+00 1.270232908427715302e-02
-8.387072563171386719e+00 -6.532611370086669922e+00 1.298821438103914261e-02
-8.641022682189941406e+00 -6.645627975463867188e+00 1.331808138638734818e-02
-8.226091384887695312e+00 -6.246560096740722656e+00 1.261925138533115387e-02
-8.158651351928710938e+00 -6.116786479949951172e+00 1.245798356831073761e-02
-8.534415245056152344e+00 -6.317080497741699219e+00 1.297233067452907562e-02
-8.805548667907714844e+00 -6.434514999389648438e+00 1.332418899983167648e-02
-8.843241691589355469e+00 -6.379193782806396484e+00 1.332174614071846008e-02
-8.852892875671386719e+00 -6.303931236267089844e+00 1.327776443213224411e-02
-8.670512199401855469e+00 -6.094232559204101562e+00 1.294789742678403854e-02
-8.709385871887207031e+00 -6.042056560516357422e+00 1.295034028589725494e-02
-8.370038986206054688e+00 -5.730884075164794922e+00 1.239323057234287262e-02
-8.445646286010742188e+00 -5.706852912902832031e+00 1.245309691876173019e-02
-8.901492118835449219e+00 -5.935645103454589844e+00 1.307129114866256714e-02
-8.567670822143554688e+00 -5.637411594390869141e+00 1.253006514161825180e-02
-8.109760284423828125e+00 -5.265093803405761719e+00 1.181290950626134872e-02
-8.370955467224121094e+00 -5.361945152282714844e+00 1.214522123336791992e-02
-8.889779090881347656e+00 -5.617645740509033203e+00 1.284771505743265152e-02
-8.828186988830566406e+00 -5.503215789794921875e+00 1.270966045558452606e-02
-8.923120498657226562e+00 -5.486655712127685547e+00 1.279762387275695801e-02
-9.190900802612304688e+00 -5.573884010314941406e+00 1.313237845897674561e-02
-9.021532058715820312e+00 -5.395733833312988281e+00 1.284282747656106949e-02
-8.790037155151367188e+00 -5.184316635131835938e+00 1.246775779873132706e-02
-8.769814491271972656e+00 -5.100120544433593750e+00 1.239445339888334274e-02
-8.983121871948242188e+00 -5.150670051574707031e+00 1.265101693570613861e-02
-9.154715538024902344e+00 -5.174678325653076172e+00 1.284771505743265152e-02
-9.016824722290039062e+00 -5.023983478546142578e+00 1.261069905012845993e-02
-9.079036712646484375e+00 -4.985891819000244141e+00 1.265468169003725052e-02
-9.123529434204101562e+00 -4.937705516815185547e+00 1.267422921955585480e-02
-9.417482376098632812e+00 -5.022329807281494141e+00 1.303952652961015701e-02
-9.445465087890625000e+00 -4.963055133819580078e+00 1.303586084395647049e-02
-1.492232799530029297e+01 -5.775352954864501953e+00 4.748972654342651367e-01
-9.233296394348144531e+00 -4.779507637023925781e+00 1.270232908427715302e-02
-1.493879604339599609e+01 -5.676581382751464844e+00 4.743039309978485107e-01
-9.323028564453125000e+00 -4.753651618957519531e+00 1.278540678322315216e-02
-1.480383300781250000e+01 -5.521585941314697266e+00 4.689343571662902832e-01
-9.452110290527343750e+00 -4.746619224548339844e+00 1.292224042117595673e-02
-1.472948741912841797e+01 -5.391138076782226562e+00 4.655227065086364746e-01
-9.085751533508300781e+00 -4.493047714233398438e+00 1.238345820456743240e-02
-1.467762279510498047e+01 -5.270256996154785156e+00 4.628527760505676270e-01
-9.466489791870117188e+00 -4.609256744384765625e+00 1.286359690129756927e-02
-1.467951393127441406e+01 -5.169472694396972656e+00 4.619034528732299805e-01
-9.532466888427734375e+00 -4.569238662719726562e+00 1.291490998119115829e-02
-1.456639766693115234e+01 -5.029391288757324219e+00 4.573644995689392090e-01
-1.490928745269775391e+01 -5.758527755737304688e+00 3.236275911331176758e-01
-9.551280975341796875e+00 -4.506395816802978516e+00 1.290269382297992706e-02
-1.446253585815429688e+01 -4.894419193267822266e+00 4.531518816947937012e-01
-1.481907176971435547e+01 -5.619435787200927734e+00 3.209148347377777100e-01
-9.258583068847656250e+00 -4.299041271209716797e+00 1.247142162173986435e-02
-1.445529460906982422e+01 -4.793317317962646484e+00 4.519949257373809814e-01
-1.478487205505371094e+01 -5.502942562103271484e+00 3.194369673728942871e-01
-9.563113212585449219e+00 -4.369316101074218750e+00 1.284527219831943512e-02
-1.444640636444091797e+01 -4.692180156707763672e+00 4.508082866668701172e-01
-1.473008155822753906e+01 -5.379879474639892578e+00 3.175339996814727783e-01
-9.686424255371093750e+00 -4.354013919830322266e+00 1.297477539628744125e-02
-1.437395572662353516e+01 -4.571338653564453125e+00 4.476636648178100586e-01
-1.467340087890625000e+01 -5.257359981536865234e+00 3.156107962131500244e-01
-9.731248855590820312e+00 -4.302584171295166016e+00 1.299920957535505295e-02
-1.428720664978027344e+01 -4.447404861450195312e+00 4.441036880016326904e-01
-1.463935470581054688e+01 -5.144025325775146484e+00 3.141936659812927246e-01
-1.499438571929931641e+01 -5.885482788085937500e+00 1.715013831853866577e-01
-9.636414527893066406e+00 -4.190157413482666016e+00 1.283794082701206207e-02
-1.424729347229003906e+01 -4.339270591735839844e+00 4.420270621776580811e-01
-1.456193637847900391e+01 -5.016653060913085938e+00 3.118655681610107422e-01
-1.492758178710937500e+01 -5.753808021545410156e+00 1.703302711248397827e-01
-9.813658714294433594e+00 -4.195816040039062500e+00 1.303952652961015701e-02
-1.419797134399414062e+01 -4.229226589202880859e+00 4.396834373474121094e-01
-1.448919296264648438e+01 -4.892344951629638672e+00 3.096589148044586182e-01
-1.483448028564453125e+01 -5.613621234893798828e+00 1.688717305660247803e-01
-9.857656478881835938e+00 -4.143271446228027344e+00 1.306396164000034332e-02
-1.411712837219238281e+01 -4.111008644104003906e+00 4.363904893398284912e-01
-1.443256187438964844e+01 -4.774772644042968750e+00 3.078166842460632324e-01
-1.478334426879882812e+01 -5.490810394287109375e+00 1.679029166698455811e-01
-9.874575614929199219e+00 -4.079271793365478516e+00 1.305296644568443298e-02
-1.404017925262451172e+01 -3.995311021804809570e+00 4.332458674907684326e-01
-1.438264560699462891e+01 -4.660545825958251953e+00 3.061363697052001953e-01
-1.475756931304931641e+01 -5.378427028656005859e+00 1.672322005033493042e-01
-9.413899421691894531e+00 -3.821511745452880859e+00 1.241277996450662613e-02
-1.400664615631103516e+01 -3.893026351928710938e+00 4.314658641815185547e-01
-1.429947280883789062e+01 -4.536832809448242188e+00 3.037678003311157227e-01
-1.470084285736083984e+01 -5.255795001983642578e+00 1.662207990884780884e-01
-1.001213169097900391e+01 -3.992979764938354492e+00 1.316902972757816315e-02
-1.398975372314453125e+01 -3.796016216278076172e+00 4.302198886871337891e-01
-1.427357101440429688e+01 -4.432403087615966797e+00 3.026340901851654053e-01
-1.465921211242675781e+01 -5.139687538146972656e+00 1.653903871774673462e-01
-1.005227279663085938e+01 -3.937671899795532227e+00 1.318979915231466293e-02
-1.394900798797607422e+01 -3.693220138549804688e+00 4.282619357109069824e-01
-1.422684001922607422e+01 -4.322359561920166016e+00 3.010752797126770020e-01
-1.452498626708984375e+01 -4.992759704589843750e+00 1.635272800922393799e-01
-1.008371162414550781e+01 -3.878790378570556641e+00 1.319957338273525238e-02
-1.385526943206787109e+01 -3.577573060989379883e+00 4.247019886970520020e-01
-1.421859169006347656e+01 -4.224732398986816406e+00 3.003464639186859131e-01
-1.448996257781982422e+01 -4.881514549255371094e+00 1.627926826477050781e-01
-1.028881168365478516e+01 -3.885381221771240234e+00 1.343658845871686935e-02
-1.381589126586914062e+01 -3.477122068405151367e+00 4.228329956531524658e-01
-1.412327194213867188e+01 -4.102271080017089844e+00 2.977956831455230713e-01
-1.442848491668701172e+01 -4.762425422668457031e+00 1.617706418037414551e-01
-9.676720619201660156e+00 -3.586549282073974609e+00 1.260825619101524353e-02
-1.377095127105712891e+01 -3.376099586486816406e+00 4.208156764507293701e-01
-1.407892704010009766e+01 -3.995880365371704102e+00 2.963380813598632812e-01
-1.436799812316894531e+01 -4.644891262054443359e+00 1.607698947191238403e-01
-9.904356956481933594e+00 -3.601954936981201172e+00 1.287581492215394974e-02
-1.372043323516845703e+01 -3.274599790573120117e+00 4.186500608921051025e-01
-1.401165103912353516e+01 -3.884046554565429688e+00 2.944148480892181396e-01
-1.434379482269287109e+01 -4.540047168731689453e+00 1.601843386888504028e-01
-1.042922592163085938e+01 -3.720539808273315430e+00 1.352821942418813705e-02
-1.367308521270751953e+01 -3.174751996994018555e+00 4.166030585765838623e-01
-1.397345447540283203e+01 -3.781285762786865234e+00 2.931192219257354736e-01
-1.427204513549804688e+01 -4.421177387237548828e+00 1.590771228075027466e-01
-1.031499195098876953e+01 -3.608595848083496094e+00 1.335106790065765381e-02
-1.364843177795410156e+01 -3.080891847610473633e+00 4.152681231498718262e-01
-1.395965957641601562e+01 -3.685776233673095703e+00 2.923499345779418945e-01
-1.421182060241699219e+01 -4.307130813598632812e+00 1.581083238124847412e-01
-1.030288600921630859e+01 -3.533557176589965820e+00 1.330708526074886322e-02
-1.357920646667480469e+01 -2.977818727493286133e+00 4.125981628894805908e-01
-1.391423606872558594e+01 -3.582601308822631836e+00 2.909328043460845947e-01
-1.419771480560302734e+01 -4.207913398742675781e+00 1.576611697673797607e-01
-1.062864494323730469e+01 -3.572546482086181641e+00 1.369926054030656815e-02
-1.353856277465820312e+01 -2.881955385208129883e+00 4.108181595802307129e-01
-1.381474113464355469e+01 -3.466739177703857422e+00 2.884022593498229980e-01
-1.414354991912841797e+01 -4.097623348236083984e+00 1.567775309085845947e-01
-1.019540023803710938e+01 -3.357438802719116211e+00 1.311405189335346222e-02
-1.347669887542724609e+01 -2.782459020614624023e+00 4.084151983261108398e-01
-1.380370235443115234e+01 -3.374074220657348633e+00 2.877341806888580322e-01
-1.410973644256591797e+01 -3.994148969650268555e+00 1.561281085014343262e-01
-1.100383758544921875e+01 -3.548973560333251953e+00 1.412564422935247421e-02
-1.342392921447753906e+01 -2.685792207717895508e+00 4.063089191913604736e-01
-1.376870632171630859e+01 -3.276121377944946289e+00 2.865802645683288574e-01
-1.402121448516845703e+01 -3.876323223114013672e+00 1.548824757337570190e-01
-1.017194366455078125e+01 -3.211898803710937500e+00 1.303219702094793320e-02
-5.150947570800781250e+00 -9.977445602416992188e-01 1.557181179523468018e-01
-1.370575523376464844e+01 -3.172412633895874023e+00 2.848594784736633301e-01
-1.400322341918945312e+01 -3.779015064239501953e+00 1.544246971607208252e-01
-1.058509254455566406e+01 -3.271067142486572266e+00 1.353554893285036087e-02
-5.125534057617187500e+00 -9.602303504943847656e-01 1.547688096761703491e-01
-1.363815116882324219e+01 -3.068722486495971680e+00 2.830577194690704346e-01
-1.394008445739746094e+01 -3.670361757278442383e+00 1.534771770238876343e-01
-1.083086681365966797e+01 -3.274350643157958984e+00 1.382387708872556686e-02
-1.332847213745117188e+01 -2.412432670593261719e+00 4.020072817802429199e-01
-1.359225845336914062e+01 -2.970892429351806641e+00 2.817215919494628906e-01
-1.388195610046386719e+01 -3.564119100570678711e+00 1.525935381650924683e-01
-1.056977558135986328e+01 -3.124765634536743164e+00 1.346591021865606308e-02
-1.327902221679687500e+01 -2.319426059722900391e+00 4.000790119171142578e-01
-1.356035327911376953e+01 -2.876853942871093750e+00 2.806891202926635742e-01
-1.383178043365478516e+01 -3.460912704467773438e+00 1.518056988716125488e-01
-1.063678455352783203e+01 -3.073732614517211914e+00 1.352699752897024155e-02
-1.321316242218017578e+01 -2.224462509155273438e+00 3.976760208606719971e-01
-1.351605510711669922e+01 -2.780901670455932617e+00 2.794137299060821533e-01
-1.380709457397460938e+01 -3.364849567413330078e+00 1.513053327798843384e-01
-1.066795539855957031e+01 -3.011941194534301758e+00 1.354288030415773392e-02
-1.315650749206542969e+01 -2.131994009017944336e+00 3.955697119235992432e-01
-1.351031208038330078e+01 -2.693420171737670898e+00 2.789480984210968018e-01
-1.378759002685546875e+01 -3.270604610443115234e+00 1.508688330650329590e-01
-1.082409095764160156e+01 -2.984436750411987305e+00 1.371758710592985153e-02
-1.484548473358154297e+01 -4.000928878784179688e+00 5.772176980972290039e-01
-1.311107063293457031e+01 -2.042150735855102539e+00 3.938194215297698975e-01
-5.126338958740234375e+00 -9.893231391906738281e-01 1.057164520025253296e-01
-1.369729804992675781e+01 -3.160539388656616211e+00 1.496657878160476685e-01
-1.058727073669433594e+01 -2.849356174468994141e+00 1.339505054056644440e-02
-1.484655952453613281e+01 -3.903664588928222656e+00 5.763173103332519531e-01
-1.308776473999023438e+01 -1.956344485282897949e+00 3.927514255046844482e-01
-5.114622116088867188e+00 -9.545482993125915527e-01 1.053520590066909790e-01
-1.367350196838378906e+01 -3.066805839538574219e+00 1.491973549127578735e-01
-1.120809745788574219e+01 -2.942806720733642578e+00 1.415740977972745895e-02
-1.491766452789306641e+01 -3.824655055999755859e+00 5.781556367874145508e-01
-1.307577514648437500e+01 -1.872601747512817383e+00 3.920394182205200195e-01
-1.327127647399902344e+01 -2.392662286758422852e+00 2.730569839477539062e-01
-1.357091045379638672e+01 -2.956455945968627930e+00 1.478772163391113281e-01
-1.079484653472900391e+01 -2.763613939285278320e+00 1.361373998224735260e-02
-1.466551494598388672e+01 -3.664255857467651367e+00 5.675011277198791504e-01
-1.300383281707763672e+01 -1.780942320823669434e+00 3.895474672317504883e-01
-1.328866195678710938e+01 -2.311700105667114258e+00 2.731176912784576416e-01
-1.355064201354980469e+01 -2.865063667297363281e+00 1.474620103836059570e-01
-1.078928470611572266e+01 -2.691758632659912109e+00 1.358564011752605438e-02
-1.297586250305175781e+01 -1.696066379547119141e+00 3.883904814720153809e-01
-1.324836444854736328e+01 -2.221027374267578125e+00 2.720042765140533447e-01
-1.353074264526367188e+01 -2.774232625961303711e+00 1.470574438571929932e-01
-1.093678092956542969e+01 -2.657380342483520508e+00 1.375057362020015717e-02
-1.298106479644775391e+01 -1.615798711776733398e+00 3.882421553134918213e-01
-1.320054721832275391e+01 -2.129821538925170898e+00 2.707490921020507812e-01
-5.120650768280029297e+00 -1.017196297645568848e+00 5.558437108993530273e-02
-1.104435729980468750e+01 -2.611856698989868164e+00 1.386541686952114105e-02
-1.442762947082519531e+01 -3.323919057846069336e+00 5.558337569236755371e-01
-1.295599269866943359e+01 -1.532009720802307129e+00 3.872038424015045166e-01
-1.316495609283447266e+01 -2.041278123855590820e+00 2.697571218013763428e-01
-5.112066745758056641e+00 -9.829252958297729492e-01 5.542467907071113586e-02
-1.107576847076416016e+01 -2.547627210617065430e+00 1.388496439903974533e-02
-1.442727470397949219e+01 -3.230744600296020508e+00 5.550459027290344238e-01
-1.290852832794189453e+01 -1.446141242980957031e+00 3.855128586292266846e-01
-1.310899829864501953e+01 -1.950309157371520996e+00 2.683602571487426758e-01
-5.116035461425781250e+00 -9.511742591857910156e-01 5.540338903665542603e-02
-1.111070919036865234e+01 -2.483983278274536133e+00 1.390939857810735703e-02
-1.459720230102539062e+01 -3.174865961074829102e+00 5.608233213424682617e-01
-1.291616439819335938e+01 -1.366803526878356934e+00 3.854831755161285400e-01
-1.306825923919677734e+01 -1.862361311912536621e+00 2.672873139381408691e-01
-1.329358577728271484e+01 -2.387253046035766602e+00 1.437996774911880493e-01
-1.115114974975585938e+01 -2.421279191970825195e+00 1.394116319715976715e-02
-1.472689437866210938e+01 -3.108561038970947266e+00 5.650625824928283691e-01
-1.303670120239257812e+01 -1.298722386360168457e+00 3.888354599475860596e-01
-1.304575824737548828e+01 -1.777551531791687012e+00 2.665989995002746582e-01
-1.328039550781250000e+01 -2.300860643386840820e+00 1.435015946626663208e-01
-1.166777324676513672e+01 -2.458586215972900391e+00 1.456791162490844727e-02
-1.398109245300292969e+01 -2.861642360687255859e+00 5.357627868652343750e-01
-1.306233978271484375e+01 -1.220379948616027832e+00 3.893694877624511719e-01
-1.298404407501220703e+01 -1.688061118125915527e+00 2.651211619377136230e-01
-1.324593448638916016e+01 -2.211262226104736328e+00 1.429799050092697144e-01
-1.093116474151611328e+01 -2.233409643173217773e+00 1.363084465265274048e-02
-1.416110229492187500e+01 -2.808067560195922852e+00 5.419903993606567383e-01
-1.318011283874511719e+01 -1.149850964546203613e+00 3.926624357700347900e-01
-1.296736621856689453e+01 -1.605044841766357422e+00 2.645745277404785156e-01
-1.317138481140136719e+01 -2.115830183029174805e+00 1.420323848724365234e-01
-5.090244293212890625e+00 -1.007520437240600586e+00 6.339557934552431107e-03
-5.133624076843261719e+00 -9.852702617645263672e-01 1.962450295686721802e-01
-1.324370861053466797e+01 -1.073560953140258789e+00 3.943533897399902344e-01
-1.295413303375244141e+01 -1.522763729095458984e+00 2.641089260578155518e-01
-1.317423725128173828e+01 -2.033446788787841797e+00 1.419259309768676758e-01
-5.105169773101806641e+00 -9.779615998268127441e-01 6.350554060190916061e-03
-1.424165725708007812e+01 -2.642829418182373047e+00 5.437911748886108398e-01
-1.340554237365722656e+01 -1.003923773765563965e+00 3.989813327789306641e-01
-1.292249393463134766e+01 -1.438714265823364258e+00 2.632789015769958496e-01
-1.310832309722900391e+01 -1.941002011299133301e+00 1.410848796367645264e-01
-5.111074447631835938e+00 -9.466184973716735840e-01 6.350554060190916061e-03
-1.402153587341308594e+01 -2.513083696365356445e+00 5.347874164581298828e-01
-1.342142200469970703e+01 -9.223353266716003418e-01 3.992779850959777832e-01
-1.293903160095214844e+01 -1.360232472419738770e+00 2.634408473968505859e-01
-1.307048416137695312e+01 -1.853514432907104492e+00 1.405525505542755127e-01
-5.132536411285400391e+00 -9.180568456649780273e-01 6.370101589709520340e-03
-1.401207447052001953e+01 -2.422745466232299805e+00 5.338494777679443359e-01
-1.358844089508056641e+01 -8.500759005546569824e-01 4.040839076042175293e-01
-1.305956268310546875e+01 -1.291936516761779785e+00 2.657284736633300781e-01
-1.306773853302001953e+01 -1.771400094032287598e+00 1.404035091400146484e-01
-1.086346626281738281e+01 -1.874432921409606934e+00 1.346835400909185410e-02
-1.400696277618408203e+01 -2.333439111709594727e+00 5.330991744995117188e-01
-1.368521499633789062e+01 -7.718611955642700195e-01 4.068132042884826660e-01
-1.308715438842773438e+01 -1.213626742362976074e+00 2.661333680152893066e-01
-1.300795173645019531e+01 -1.682079792022705078e+00 1.396476179361343384e-01
-1.028584480285644531e+01 -1.709843158721923828e+00 1.273898035287857056e-02
-1.386807727813720703e+01 -2.222935199737548828e+00 5.272842049598693848e-01
-1.376157188415527344e+01 -6.914874911308288574e-01 4.089491963386535645e-01
-1.323480129241943359e+01 -1.145457983016967773e+00 2.689878344535827637e-01
-1.295252609252929688e+01 -1.594171047210693359e+00 1.389449685811996460e-01
-1.010655307769775391e+01 -1.616376519203186035e+00 1.250440906733274460e-02
-1.386960411071777344e+01 -2.135975360870361328e+00 5.268340110778808594e-01
-1.386241912841796875e+01 -6.113065481185913086e-01 4.118268191814422607e-01
-1.327048110961914062e+01 -1.066552042961120605e+00 2.695749402046203613e-01
-1.292134284973144531e+01 -1.509907364845275879e+00 1.385084539651870728e-01
-1.007773208618164062e+01 -1.548410654067993164e+00 1.245676074177026749e-02
-1.382807826995849609e+01 -2.042800664901733398e+00 5.247706770896911621e-01
-1.393682670593261719e+01 -5.289282798767089844e-01 4.139331281185150146e-01
-1.335653972625732422e+01 -9.910241365432739258e-01 2.711944878101348877e-01
-1.292539596557617188e+01 -1.430045366287231445e+00 1.384552419185638428e-01
-1.057378673553466797e+01 -1.558277845382690430e+00 1.305785309523344040e-02
-1.406369209289550781e+01 -4.473440647125244141e-01 4.176117479801177979e-01
-1.342920112609863281e+01 -9.135978817939758301e-01 2.725508511066436768e-01
-1.295381736755371094e+01 -1.352786898612976074e+00 1.386681646108627319e-01
-1.226746177673339844e+01 -1.731039285659790039e+00 1.513601653277873993e-02
-1.417308998107910156e+01 -3.637867867946624756e-01 4.207860231399536133e-01
-1.357226276397705078e+01 -8.397005200386047363e-01 2.753445804119110107e-01
-1.301760196685791016e+01 -1.278752565383911133e+00 1.392643451690673828e-01
-1.219857025146484375e+01 -1.645043373107910156e+00 1.503827795386314392e-02
-1.499218559265136719e+01 -1.933510065078735352e+00 5.675011277198791504e-01
-1.425100708007812500e+01 -2.782986760139465332e-01 4.230406582355499268e-01
-1.367099475860595703e+01 -7.616345882415771484e-01 2.772475779056549072e-01
-1.318053817749023438e+01 -1.213151216506958008e+00 1.409251689910888672e-01
-1.214297389984130859e+01 -1.561744332313537598e+00 1.495764404535293579e-02
-1.495615768432617188e+01 -1.835640072822570801e+00 5.657003521919250488e-01
-1.441635990142822266e+01 -1.930458396673202515e-01 4.279059171676635742e-01
-1.375629520416259766e+01 -6.817451715469360352e-01 2.788873612880706787e-01
-1.323854446411132812e+01 -1.136616587638854980e+00 1.414681375026702881e-01
-1.230022335052490234e+01 -1.505306601524353027e+00 1.513968035578727722e-02
-1.450723075866699219e+01 -1.052376553416252136e-01 4.305759072303771973e-01
-1.386709594726562500e+01 -6.019647717475891113e-01 2.810535132884979248e-01
-1.334395122528076172e+01 -1.063227772712707520e+00 1.425221264362335205e-01
-1.218605709075927734e+01 -1.415498256683349609e+00 1.498818676918745041e-02
-1.463587284088134766e+01 -1.614280223846435547e+00 5.527949333190917969e-01
-1.456457901000976562e+01 -1.628468558192253113e-02 4.322668612003326416e-01
-1.393946647644042969e+01 -5.194354057312011719e-01 2.824503779411315918e-01
-1.339210796356201172e+01 -9.844096302986145020e-01 1.429692655801773071e-01
-1.228397369384765625e+01 -1.350534915924072266e+00 1.509814243763685226e-02
-1.465345382690429688e+01 -1.525273442268371582e+00 5.530951023101806641e-01
-1.478030586242675781e+01 7.416556030511856079e-02 4.386747777462005615e-01
-1.410028266906738281e+01 -4.388083219528198242e-01 2.856490015983581543e-01
-1.350365066528320312e+01 -9.093402028083801270e-01 1.440977752208709717e-01
-1.234176254272460938e+01 -1.280295610427856445e+00 1.515922881662845612e-02
-1.468043804168701172e+01 -1.437085270881652832e+00 5.537703633308410645e-01
-1.486652946472167969e+01 1.658243536949157715e-01 4.412557184696197510e-01
-1.419466209411621094e+01 -3.545793294906616211e-01 2.875114977359771729e-01
-1.360678768157958984e+01 -8.324502110481262207e-01 1.451411098241806030e-01
-1.209061431884765625e+01 -1.179303646087646484e+00 1.484157890081405640e-02
-1.474968147277832031e+01 -1.352547168731689453e+00 5.560588240623474121e-01
-1.497616672515869141e+01 2.589587569236755371e-01 4.445486962795257568e-01
-1.423855400085449219e+01 -2.682668566703796387e-01 2.883617579936981201e-01
-1.370649051666259766e+01 -7.541638612747192383e-01 1.461525112390518188e-01
-1.201795387268066406e+01 -1.097817301750183105e+00 1.474384032189846039e-02
-1.448290061950683594e+01 -1.238519310951232910e+00 5.457044839859008789e-01
-1.439688777923583984e+01 -1.828895360231399536e-01 2.915401458740234375e-01
-1.378376865386962891e+01 -6.736112236976623535e-01 1.469296962022781372e-01
-1.194076633453369141e+01 -1.016927719116210938e+00 1.464121509343385696e-02
-1.464762115478515625e+01 -1.162117958068847656e+00 5.516319274902343750e-01
-1.443772983551025391e+01 -9.481106698513031006e-02 2.923499345779418945e-01
-1.388354873657226562e+01 -5.931202173233032227e-01 1.479517370462417603e-01
-1.200260829925537109e+01 -9.480510354042053223e-01 1.470963284373283386e-02
-1.449003219604492188e+01 -1.060188174247741699e+00 5.454418659210205078e-01
-1.457901096343994141e+01 -6.281777750700712204e-03 2.952043712139129639e-01
-1.396886825561523438e+01 -5.109182000160217285e-01 1.488247364759445190e-01
-1.234730052947998047e+01 -8.990784883499145508e-01 1.512501947581768036e-02
-1.448729133605957031e+01 -9.706577658653259277e-01 5.451042056083679199e-01
-1.467175483703613281e+01 8.370392769575119019e-02 2.970871329307556152e-01
-1.403470706939697266e+01 -4.271134734153747559e-01 1.494954526424407959e-01
-1.267586803436279297e+01 -8.448467850685119629e-01 1.552086044102907181e-02
-1.457975292205810547e+01 -8.870267271995544434e-01 5.483680963516235352e-01
-1.483292007446289062e+01 1.756443381309509277e-01 3.003667294979095459e-01
-1.418601131439208984e+01 -3.446083664894104004e-01 1.510817557573318481e-01
-1.297826957702636719e+01 -7.850461602210998535e-01 1.588493585586547852e-02
-1.460687255859375000e+01 -7.987507581710815430e-01 5.491934418678283691e-01
-1.492452907562255859e+01 2.683255374431610107e-01 3.022494316101074219e-01
-1.426284217834472656e+01 -2.589193284511566162e-01 1.518802344799041748e-01
-1.228986454010009766e+01 -6.677465438842773438e-01 1.503705605864524841e-02
-1.455959606170654297e+01 -7.065907716751098633e-01 5.472426414489746094e-01
-1.499956417083740234e+01 3.617518246173858643e-01 3.038082718849182129e-01
-1.440214443206787109e+01 -1.730573028326034546e-01 1.533494144678115845e-01
-1.296495056152343750e+01 -6.246649026870727539e-01 1.585805788636207581e-02
-1.462256336212158203e+01 -6.197379827499389648e-01 5.494560599327087402e-01
-1.449392890930175781e+01 -8.521916717290878296e-02 1.543182283639907837e-01
-1.296854019165039062e+01 -5.451017022132873535e-01 1.585805788636207581e-02
-1.470198822021484375e+01 -5.327542424201965332e-01 5.523072481155395508e-01
-1.460417270660400391e+01 3.743709996342658997e-03 1.554893255233764648e-01
-1.198927402496337891e+01 -4.302634298801422119e-01 1.465709786862134933e-02
-1.490474891662597656e+01 -4.485463798046112061e-01 5.598104000091552734e-01
-1.468486881256103516e+01 9.387090057134628296e-02 1.563516706228256226e-01
-1.206065750122070312e+01 -3.587420284748077393e-01 1.474139746278524399e-02
-1.483499526977539062e+01 1.858653873205184937e-01 1.579592674970626831e-01
-1.325030040740966797e+01 -3.127667903900146484e-01 1.619281247258186340e-02
-1.493855094909667969e+01 2.788472175598144531e-01 1.590771228075027466e-01
-1.318397998809814453e+01 -2.302710860967636108e-01 1.610973477363586426e-02
-1.349312496185302734e+01 -1.528604030609130859e-01 1.648602820932865143e-02
-1.326981163024902344e+01 -6.890218704938888550e-02 1.621235907077789307e-02
-1.359298419952392578e+01 1.282591745257377625e-02 1.660697907209396362e-02
-1.366164779663085938e+01 9.671913832426071167e-02 1.669127866625785828e-02
-1.369279384613037109e+01 1.809664964675903320e-01 1.673037372529506683e-02
-1.367143058776855469e+01 2.645935118198394775e-01 1.670593954622745514e-02
-1.324968624114990234e+01 3.377713561058044434e-01 1.619281247258186340e-02
-1.254171752929687500e+01 3.967413008213043213e-01 1.533027086406946182e-02
-1.305467987060546875e+01 4.931674599647521973e-01 1.596068404614925385e-02
-1.385463237762451172e+01 6.085404157638549805e-01 1.694295555353164673e-02
-1.216075611114501953e+01 6.089223623275756836e-01 1.487578731030225754e-02
-1.347570705413818359e+01 7.576853036880493164e-01 1.648969389498233795e-02
-1.374427223205566406e+01 8.574163317680358887e-01 1.682444661855697632e-02
-1.322495841979980469e+01 9.065150022506713867e-01 1.619525626301765442e-02
-1.395609283447265625e+01 1.042704343795776367e+00 1.709811389446258545e-02
-1.374510002136230469e+01 1.111790060997009277e+00 1.684766076505184174e-02
-1.396515941619873047e+01 1.215883493423461914e+00 1.712621375918388367e-02
-1.344067859649658203e+01 1.253360867500305176e+00 1.649213582277297974e-02
-1.343572044372558594e+01 1.336104631423950195e+00 1.649580150842666626e-02
-1.318561363220214844e+01 1.392989993095397949e+00 1.619892194867134094e-02
-1.367272567749023438e+01 1.529337882995605469e+00 1.680856384336948395e-02
-1.341878223419189453e+01 1.584358572959899902e+00 1.650801859796047211e-02
-1.366582965850830078e+01 1.698611617088317871e+00 1.682444661855697632e-02
-1.393874454498291016e+01 1.819449663162231445e+00 1.717386208474636078e-02
-1.366971588134765625e+01 1.869707942008972168e+00 1.685621216893196106e-02
-1.421234321594238281e+01 2.032840013504028320e+00 1.754038035869598389e-02
-1.416993236541748047e+01 2.115577220916748047e+00 1.750372909009456635e-02
-1.436715221405029297e+01 2.235226869583129883e+00 1.776395738124847412e-02
-1.435810279846191406e+01 2.324139118194580078e+00 1.777006685733795166e-02
-1.409308910369873047e+01 2.370070457458496094e+00 1.745974645018577576e-02
-1.415610599517822266e+01 2.470078945159912109e+00 1.755626313388347626e-02
-1.426762390136718750e+01 2.579845905303955078e+00 1.771386712789535522e-02
-1.443631649017333984e+01 2.701927661895751953e+00 1.794355176389217377e-02
-1.445186519622802734e+01 2.796726226806640625e+00 1.798386871814727783e-02
-1.459034824371337891e+01 2.916515111923217773e+00 1.817812398076057434e-02
-1.461625099182128906e+01 3.015076160430908203e+00 1.823310181498527527e-02
-1.430208301544189453e+01 3.041876792907714844e+00 1.786413975059986115e-02
-1.404089641571044922e+01 3.076495409011840820e+00 1.756115071475505829e-02
-1.434659481048583984e+01 3.235858201980590820e+00 1.796798594295978546e-02
-1.479502391815185547e+01 3.432533740997314453e+00 1.855563931167125702e-02
-1.432234191894531250e+01 3.415612936019897461e+00 1.798875629901885986e-02
-1.448954296112060547e+01 3.549589157104492188e+00 1.822577230632305145e-02
-1.438990497589111328e+01 3.618916749954223633e+00 1.812803186476230621e-02
-1.429383945465087891e+01 3.688155651092529297e+00 1.803518272936344147e-02
-1.428060722351074219e+01 3.778349161148071289e+00 1.804739795625209808e-02
-1.466155242919921875e+01 3.975556612014770508e+00 1.855930499732494354e-02
-1.443743324279785156e+01 4.010046005249023438e+00 1.830640621483325958e-02
-1.454913997650146484e+01 4.137397766113281250e+00 1.847989112138748169e-02
-1.469054985046386719e+01 4.275211811065673828e+00 1.869247294962406158e-02
-1.459982585906982422e+01 4.346154689788818359e+00 1.861061714589595795e-02
-1.455853271484375000e+01 4.431287765502929688e+00 1.859229058027267456e-02
-1.451197242736816406e+01 4.514593124389648438e+00 1.856785640120506287e-02
-1.473368930816650391e+01 4.682913303375244141e+00 1.888795010745525360e-02
-1.447354984283447266e+01 4.698203563690185547e+00 1.859106868505477905e-02
-1.442546463012695312e+01 4.780631542205810547e+00 1.856663450598716736e-02
-1.472740936279296875e+01 4.981193065643310547e+00 1.899424009025096893e-02
-1.479677009582519531e+01 5.106042385101318359e+00 1.912374421954154968e-02
-1.454443359375000000e+01 5.119050502777099609e+00 1.883785799145698547e-02
-7.170960903167724609e+00 3.174972057342529297e+00 1.587973684072494507e-01
-1.440827369689941406e+01 5.170703887939453125e+00 1.870224624872207642e-02
-7.122169971466064453e+00 3.205780744552612305e+00 1.581495404243469238e-01
-1.393676090240478516e+01 5.098234176635742188e+00 1.813047751784324646e-02
-1.468761920928955078e+01 5.475320339202880859e+00 1.915062218904495239e-02
-1.446490669250488281e+01 5.493619441986083984e+00 1.890383101999759674e-02
-1.461839008331298828e+01 5.654787063598632812e+00 1.914940029382705688e-02
-1.382977581024169922e+01 5.447519302368164062e+00 1.815979741513729095e-02
-7.127793788909912109e+00 3.161720037460327148e+00 8.301990479230880737e-02
-1.466181468963623047e+01 5.984122276306152344e+00 1.934731937944889069e-02
-1.463609790802001953e+01 6.184223175048828125e+00 1.941207237541675568e-02
-1.442147827148437500e+01 6.198099136352539062e+00 1.917749829590320587e-02
-7.190213680267333984e+00 3.142634868621826172e+00 9.586917236447334290e-03
-7.156174182891845703e+00 3.180196285247802734e+00 9.567369706928730011e-03
-7.121033668518066406e+00 3.217046976089477539e+00 9.546600282192230225e-03
-1.445677757263183594e+01 6.638200759887695312e+00 1.943528465926647186e-02
-1.418989562988281250e+01 6.727712631225585938e+00 1.918605156242847443e-02
-3.292663574218750000e+00 6.256005287170410156e+00 7.526939362287521362e-02
-3.296561717987060547e+00 6.357759952545166016e+00 7.624885439872741699e-02
-1.552387595176696777e+00 3.617141246795654297e+00 7.970234751701354980e-02
-3.268931388854980469e+00 6.315088272094726562e+00 8.687724359333515167e-03
-1.530941247940063477e+00 3.628440618515014648e+00 7.974283397197723389e-02
-1.490264654159545898e+00 3.593436956405639648e+00 7.877110689878463745e-02
-1.543043971061706543e+00 3.602198839187622070e+00 4.172287881374359131e-02
-1.518583774566650391e+00 3.606069564819335938e+00 4.165900126099586487e-02
-1.490692377090454102e+00 3.601460695266723633e+00 4.149930924177169800e-02
-1.559131145477294922e+00 3.646675586700439453e+00 4.845382180064916611e-03
-1.523552060127258301e+00 3.624829769134521484e+00 4.803843330591917038e-03
-1.496318221092224121e+00 3.622094869613647461e+00 4.787960555404424667e-03
-1.076966151595115662e-01 7.238825559616088867e-01 1.481892820447683334e-02
-1.009960323572158813e-01 7.086929678916931152e-01 1.449501700699329376e-02
-1.260169893503189087e-01 7.017344236373901367e-01 7.590817753225564957e-03
-5.825842171907424927e-02 6.704027056694030762e-01 3.797604516148567200e-02
-3.121908940374851227e-02 7.191751599311828613e-01 1.457599457353353500e-02
-2.282674051821231842e-02 7.334945201873779297e-01 1.485941652208566666e-02
-3.441026434302330017e-02 6.917375922203063965e-01 5.779347196221351624e-02
