-1.814148187637329102e+00 -6.447288036346435547e+00 1.115997791290283203e+00
-1.352382183074951172e+00 -6.620182991027832031e+00 9.965678453445434570e-01
-2.078174352645874023e+00 -6.466695785522460938e+00 9.461513757705688477e-01
-1.821076631546020508e+00 -6.463257312774658203e+00 8.697311282157897949e-01
-1.641740441322326660e+00 -6.757430076599121094e+00 8.353702425956726074e-01
-1.377171397209167480e+00 -6.723576068878173828e+00 7.589132785797119141e-01
-1.929615497589111328e+00 -5.997234344482421875e+00 6.454876065254211426e-01
-1.822021245956420898e+00 -6.457973003387451172e+00 6.236565709114074707e-01
-1.625916838645935059e+00 -6.682131767272949219e+00 5.738600492477416992e-01
-1.314502239227294922e+00 -6.400565147399902344e+00 4.832780361175537109e-01
-2.033689737319946289e+00 -6.313137531280517578e+00 4.370498657226562500e-01
-1.814841151237487793e+00 -6.423942565917968750e+00 3.767178654670715332e-01
-1.306679487228393555e+00 -5.361993789672851562e+00 2.592999041080474854e-01
-1.120590090751647949e+00 -5.441908836364746094e+00 2.085877209901809692e-01
-1.719696760177612305e+00 -5.335225582122802734e+00 1.663683056831359863e-01
-1.645969271659851074e+00 -5.818428039550781250e+00 1.224383562803268433e-01
-1.303264737129211426e+00 -5.335834503173828125e+00 5.848016589879989624e-02
-1.103884816169738770e+00 -5.351325988769531250e+00 6.675533950328826904e-03
-2.162309169769287109e+00 -6.589416503906250000e+00 2.043749809265136719e+00
-1.859844326972961426e+00 -6.482978820800781250e+00 1.911038994789123535e+00
-1.832301616668701172e+00 -6.378570556640625000e+00 1.614130020141601562e+00
-1.882826924324035645e+00 -5.744491100311279297e+00 1.298181891441345215e+00
-1.844025015830993652e+00 -6.410947322845458984e+00 1.364482879638671875e+00
-1.964593410491943359e+00 -5.990427017211914062e+00 1.113896369934082031e+00
-1.842753887176513672e+00 -6.398120403289794922e+00 1.109423398971557617e+00
-1.407865762710571289e+00 -6.682427406311035156e+00 1.007219314575195312e+00
-1.967115283012390137e+00 -5.994583129882812500e+00 8.788253664970397949e-01
-1.837616562843322754e+00 -6.371919631958007812e+00 8.589413762092590332e-01
-1.686536669731140137e+00 -6.760716438293457031e+00 8.370400071144104004e-01
-1.410800218582153320e+00 -6.679018020629882812e+00 7.548467516899108887e-01
-1.919492483139038086e+00 -5.842572212219238281e+00 6.300970315933227539e-01
-1.838131546974182129e+00 -6.365358829498291016e+00 6.157903075218200684e-01
-1.669785380363464355e+00 -6.683630943298339844e+00 5.748578906059265137e-01
-1.356643199920654297e+00 -6.406038284301757812e+00 4.843106865882873535e-01
-1.991014003753662109e+00 -6.053143978118896484e+00 4.198887348175048828e-01
-1.839525103569030762e+00 -6.361852645874023438e+00 3.737316429615020752e-01
-1.341495156288146973e+00 -5.361628055572509766e+00 2.596753835678100586e-01
-1.170148611068725586e+00 -5.511176109313964844e+00 2.115139514207839966e-01
-1.908641815185546875e+00 -5.799303531646728516e+00 1.812014281749725342e-01
-1.664678573608398438e+00 -5.749637126922607422e+00 1.212034523487091064e-01
-1.335737109184265137e+00 -5.326767444610595703e+00 5.846951901912689209e-02
-1.139195561408996582e+00 -5.356189727783203125e+00 6.690194830298423767e-03
-2.210621595382690430e+00 -6.599673271179199219e+00 2.051099300384521484e+00
-1.900672197341918945e+00 -6.475137710571289062e+00 1.912129521369934082e+00
-1.670016884803771973e+00 -5.682010173797607422e+00 1.440427780151367188e+00
-1.674067139625549316e+00 -6.587438583374023438e+00 1.584172248840332031e+00
-1.869956254959106445e+00 -5.589115619659423828e+00 1.265638113021850586e+00
-1.784859538078308105e+00 -6.064921379089355469e+00 1.293142437934875488e+00
-1.686299562454223633e+00 -6.616219520568847656e+00 1.329650878906250000e+00
-2.163868904113769531e+00 -6.463841438293457031e+00 1.204372167587280273e+00
-1.765434026718139648e+00 -5.991190910339355469e+00 1.040721297264099121e+00
-1.446533083915710449e+00 -6.663028717041015625e+00 1.005614280700683594e+00
-2.165867805480957031e+00 -6.466063499450683594e+00 9.498763680458068848e-01
-1.784346818923950195e+00 -6.047586917877197266e+00 8.166815042495727539e-01
-1.446259379386901855e+00 -6.644984245300292969e+00 7.519891262054443359e-01
-1.982823014259338379e+00 -5.912740707397460938e+00 6.389644742012023926e-01
-1.687858819961547852e+00 -5.713217258453369141e+00 5.536929965019226074e-01
-1.720662951469421387e+00 -6.711873054504394531e+00 5.781841874122619629e-01
-1.398475646972656250e+00 -6.409285545349121094e+00 4.851958155632019043e-01
-2.168809652328491211e+00 -6.459867954254150391e+00 4.490166306495666504e-01
-1.805458068847656250e+00 -6.103435993194580078e+00 3.591948151588439941e-01
-1.375113368034362793e+00 -5.356197834014892578e+00 2.598161697387695312e-01
-1.209067463874816895e+00 -5.527321338653564453e+00 2.124143093824386597e-01
-1.904083728790283203e+00 -5.668095111846923828e+00 1.774634867906570435e-01
-1.687149167060852051e+00 -5.696176528930664062e+00 1.202924475073814392e-01
-1.371635437011718750e+00 -5.331060409545898438e+00 5.860792472958564758e-02
-1.176105737686157227e+00 -5.367658615112304688e+00 6.713407579809427261e-03
-2.262243270874023438e+00 -6.618660449981689453e+00 2.061275720596313477e+00
-1.941473603248596191e+00 -6.467039108276367188e+00 1.913219928741455078e+00
-1.697840929031372070e+00 -6.527305126190185547e+00 1.840028405189514160e+00
-1.704849600791931152e+00 -5.671656131744384766e+00 1.440427780151367188e+00
-1.691854834556579590e+00 -6.490341186523437500e+00 1.563289046287536621e+00
-1.941758394241333008e+00 -6.451629161834716797e+00 1.378109574317932129e+00
-2.220360994338989258e+00 -6.499832153320312500e+00 1.213593721389770508e+00
-1.935644984245300293e+00 -6.423191547393798828e+00 1.117805600166320801e+00
-1.736687421798706055e+00 -6.638589859008789062e+00 1.077013731002807617e+00
-2.225362777709960938e+00 -6.510759353637695312e+00 9.584301114082336426e-01
-1.934865355491638184e+00 -6.412501335144042969e+00 8.675474524497985840e-01
-1.486787796020507812e+00 -6.635015487670898438e+00 7.518792152404785156e-01
-2.230344295501708984e+00 -6.517898559570312500e+00 7.058268785476684570e-01
-1.900843858718872070e+00 -6.291805744171142578e+00 6.108854413032531738e-01
-1.766881585121154785e+00 -6.720464706420898438e+00 5.798473358154296875e-01
-1.448704600334167480e+00 -6.449235439300537109e+00 4.888838231563568115e-01
-2.241391181945800781e+00 -6.542724609375000000e+00 4.557232856750488281e-01
-1.959950685501098633e+00 -6.479279518127441406e+00 3.820142149925231934e-01
-1.405663609504699707e+00 -5.338965892791748047e+00 2.593938112258911133e-01
-1.247789382934570312e+00 -5.541246414184570312e+00 2.132396697998046875e-01
-1.407636761665344238e+00 -5.335113048553466797e+00 5.874632671475410461e-02
-1.201758146286010742e+00 -5.328149795532226562e+00 6.673090625554323196e-03
-2.307864904403686523e+00 -6.619147300720214844e+00 2.065798521041870117e+00
-2.050279378890991211e+00 -6.680350780487060547e+00 1.980010867118835449e+00
-1.743825793266296387e+00 -6.539136886596679688e+00 1.846345305442810059e+00
-1.738476395606994629e+00 -5.657373428344726562e+00 1.439482450485229492e+00
-1.756036281585693359e+00 -6.571103096008300781e+00 1.585307121276855469e+00
-1.985341787338256836e+00 -6.452702999114990234e+00 1.380915164947509766e+00
-1.734333634376525879e+00 -6.471774101257324219e+00 1.304801106452941895e+00
-1.546421885490417480e+00 -6.745607376098632812e+00 1.280157923698425293e+00
-2.271867036819458008e+00 -6.519562244415283203e+00 1.219857454299926758e+00
-1.977924585342407227e+00 -6.420620918273925781e+00 1.119449257850646973e+00
-1.749240994453430176e+00 -6.522848129272460938e+00 1.059957742691040039e+00
-2.275052547454833984e+00 -6.525038719177246094e+00 9.625689983367919922e-01
-1.986744165420532227e+00 -6.441258430480957031e+00 8.730708360671997070e-01
-1.521666049957275391e+00 -6.600585460662841797e+00 7.490216493606567383e-01
-2.258493185043334961e+00 -6.470278739929199219e+00 7.021576166152954102e-01
-1.951459884643554688e+00 -6.319029808044433594e+00 6.146797537803649902e-01
-1.790452003479003906e+00 -6.644065856933593750e+00 5.741927027702331543e-01
-1.508906722068786621e+00 -6.529618263244628906e+00 4.956697821617126465e-01
-2.289723634719848633e+00 -6.552398204803466797e+00 4.573670625686645508e-01
-2.001734495162963867e+00 -6.473808288574218750e+00 3.824086487293243408e-01
-1.418357253074645996e+00 -5.255981445312500000e+00 2.557800114154815674e-01
-1.245009064674377441e+00 -5.374802112579345703e+00 2.071245908737182617e-01
-1.628006935119628906e+00 -5.258631706237792969e+00 1.114658638834953308e-01
-1.443739175796508789e+00 -5.338924407958984375e+00 5.888472869992256165e-02
-1.234654426574707031e+00 -5.321649551391601562e+00 6.674312520772218704e-03
-1.772981405258178711e+00 -6.488296985626220703e+00 1.835027575492858887e+00
-1.773156642913818359e+00 -5.646599769592285156e+00 1.439482450485229492e+00
-1.767001390457153320e+00 -6.453122615814208984e+00 1.559430122375488281e+00
-2.008442163467407227e+00 -6.388062000274658203e+00 1.369693040847778320e+00
-1.782847285270690918e+00 -6.493192672729492188e+00 1.311300277709960938e+00
-2.324357748031616211e+00 -6.540760040283203125e+00 1.226469159126281738e+00
-2.027353525161743164e+00 -6.440353870391845703e+00 1.125037431716918945e+00
-1.788184523582458496e+00 -6.508181571960449219e+00 1.059337496757507324e+00
-2.325996398925781250e+00 -6.541751861572265625e+00 9.671217799186706543e-01
-2.036365270614624023e+00 -6.461105346679687500e+00 8.774381279945373535e-01
-1.786501646041870117e+00 -6.479917049407958984e+00 8.074610233306884766e-01
-1.597666978836059570e+00 -6.741032600402832031e+00 7.660573124885559082e-01
-2.315498590469360352e+00 -6.505033016204833984e+00 7.074577212333679199e-01
-1.892513990402221680e+00 -5.997382640838623047e+00 5.845103263854980469e-01
-1.800157427787780762e+00 -6.520564556121826172e+00 5.644634366035461426e-01
-1.571071028709411621e+00 -6.613383293151855469e+00 5.027507543563842773e-01
-2.335914373397827148e+00 -6.555144309997558594e+00 4.585506021976470947e-01
-1.670252323150634766e+00 -5.286603450775146484e+00 3.128798007965087891e-01
-1.780088543891906738e+00 -6.439107894897460938e+00 3.138819634914398193e-01
-1.275418639183044434e+00 -5.356368064880371094e+00 2.067119181156158447e-01
-1.671097993850708008e+00 -5.282860279083251953e+00 1.121946722269058228e-01
-1.623023748397827148e+00 -5.859010696411132812e+00 6.472955644130706787e-02
-1.269835948944091797e+00 -5.324674129486083984e+00 6.687751505523920059e-03
-2.108031511306762695e+00 -6.579555511474609375e+00 1.957656383514404297e+00
-1.816139578819274902e+00 -6.489373683929443359e+00 1.838449239730834961e+00
-2.409398078918457031e+00 -6.650448322296142578e+00 1.796426773071289062e+00
-1.823797106742858887e+00 -5.685576438903808594e+00 1.452244400978088379e+00
-1.812874913215637207e+00 -6.464664459228515625e+00 1.564877986907958984e+00
-1.825577855110168457e+00 -6.492525100708007812e+00 1.313402891159057617e+00
-1.618436813354492188e+00 -6.682160854339599609e+00 1.271790981292724609e+00
-2.375516653060913086e+00 -6.556928157806396484e+00 1.232210874557495117e+00
-2.076495170593261719e+00 -6.457842350006103516e+00 1.130296945571899414e+00
-1.825943708419799805e+00 -6.489479064941406250e+00 1.058097004890441895e+00
-2.375880479812622070e+00 -6.554360389709472656e+00 9.711227416992187500e-01
-2.074147939682006836e+00 -6.442824840545654297e+00 8.766673803329467773e-01
-1.822721242904663086e+00 -6.456411361694335938e+00 8.059104681015014648e-01
-1.643231868743896484e+00 -6.748485565185546875e+00 7.680356502532958984e-01
-2.365549325942993164e+00 -6.518756389617919922e+00 7.105153799057006836e-01
-2.061541318893432617e+00 -6.396010875701904297e+00 6.245820522308349609e-01
-1.834440112113952637e+00 -6.489258289337158203e+00 5.627171397209167480e-01
-1.617058634757995605e+00 -6.625902175903320312e+00 5.044472813606262207e-01
-2.384609699249267578e+00 -6.564135074615478516e+00 4.601943790912628174e-01
-2.046379327774047852e+00 -6.341388225555419922e+00 3.760417401790618896e-01
-1.817388176918029785e+00 -6.420375347137451172e+00 3.135065138339996338e-01
-1.306123733520507812e+00 -5.339705467224121094e+00 2.063742876052856445e-01
-1.676739811897277832e+00 -5.189737796783447266e+00 1.104334071278572083e-01
-1.658124804496765137e+00 -5.846055507659912109e+00 6.469760835170745850e-02
-1.306766510009765625e+00 -5.334264755249023438e+00 6.709742359817028046e-03
-2.147764921188354492e+00 -6.564668178558349609e+00 1.957111120223999023e+00
-1.858049154281616211e+00 -6.485527515411376953e+00 1.840554952621459961e+00
-2.450159072875976562e+00 -6.635539054870605469e+00 1.796426773071289062e+00
-1.819992780685424805e+00 -6.340151786804199219e+00 1.537411928176879883e+00
-2.432174205780029297e+00 -6.590372085571289062e+00 1.508561730384826660e+00
-1.881524801254272461e+00 -5.737346172332763672e+00 1.235028266906738281e+00
-1.839318156242370605e+00 -6.390647411346435547e+00 1.295052409172058105e+00
-2.414681196212768555e+00 -6.539457321166992188e+00 1.231688976287841797e+00
-1.980075478553771973e+00 -6.030746936798095703e+00 1.057650327682495117e+00
-1.830458521842956543e+00 -6.355690956115722656e+00 1.038094878196716309e+00
-2.429782152175903320e+00 -6.576821327209472656e+00 9.766412377357482910e-01
-1.968086719512939453e+00 -5.987180233001708984e+00 8.162962198257446289e-01
-1.839978218078613281e+00 -6.367844581604003906e+00 7.962495088577270508e-01
-1.694974899291992188e+00 -6.779738903045654297e+00 7.727617025375366211e-01
-2.408953905105590820e+00 -6.513449668884277344e+00 7.115346789360046387e-01
-1.907138943672180176e+00 -5.794950008392333984e+00 5.670194029808044434e-01
-1.840710282325744629e+00 -6.362050056457519531e+00 5.526552796363830566e-01
-1.640474557876586914e+00 -6.547171592712402344e+00 4.992102682590484619e-01
-2.428652524948120117e+00 -6.559672832489013672e+00 4.609176218509674072e-01
-1.909969806671142578e+00 -5.796736717224121094e+00 3.444325923919677734e-01
-1.662457227706909180e+00 -5.738450050354003906e+00 2.807009816169738770e-01
-1.342027068138122559e+00 -5.344190597534179688e+00 2.068619877099990845e-01
-2.209692478179931641e+00 -5.965074539184570312e+00 1.887959837913513184e-01
-1.913390040397644043e+00 -5.800303936004638672e+00 1.236732676625251770e-01
-1.687831878662109375e+00 -5.814644813537597656e+00 6.446339190006256104e-02
-1.343130826950073242e+00 -5.340693473815917969e+00 6.728068459779024124e-03
-2.206900596618652344e+00 -6.607945442199707031e+00 1.974013328552246094e+00
-1.897265672683715820e+00 -6.472152709960937500e+00 1.840028405189514160e+00
-1.666593909263610840e+00 -6.577564716339111328e+00 1.783918857574462891e+00
-2.492534399032592773e+00 -6.624916076660156250e+00 1.797657608985900879e+00
-1.763077378273010254e+00 -6.002750396728515625e+00 1.458191990852355957e+00
-1.898966193199157715e+00 -5.672738075256347656e+00 1.223605871200561523e+00
-1.790601611137390137e+00 -6.080758571624755859e+00 1.234457254409790039e+00
-2.454414367675781250e+00 -6.523596763610839844e+00 1.231514930725097656e+00
-2.167184114456176758e+00 -6.466479778289794922e+00 1.136378288269042969e+00
-1.835077047348022461e+00 -6.227782726287841797e+00 1.019023060798645020e+00
-2.479163169860839844e+00 -6.585888862609863281e+00 9.802283048629760742e-01
-2.171036720275878906e+00 -6.470478534698486328e+00 8.839890360832214355e-01
-1.817376613616943359e+00 -6.147918224334716797e+00 7.701293230056762695e-01
-2.455890178680419922e+00 -6.517163753509521484e+00 7.135731577873229980e-01
-2.065681695938110352e+00 -6.149363040924072266e+00 6.029266119003295898e-01
-1.703224182128906250e+00 -5.754367828369140625e+00 5.007658600807189941e-01
-1.714635848999023438e+00 -6.669306278228759766e+00 5.093154311180114746e-01
-2.260359287261962891e+00 -5.991946697235107422e+00 4.219927787780761719e-01
-2.199788808822631836e+00 -6.541024684906005859e+00 3.894516825675964355e-01
-1.697920203208923340e+00 -5.729099273681640625e+00 2.807478904724121094e-01
-1.377535581588745117e+00 -5.346499919891357422e+00 2.072746455669403076e-01
-2.238839626312255859e+00 -5.931765556335449219e+00 1.881729960441589355e-01
-1.718069911003112793e+00 -5.785966396331787109e+00 6.426111608743667603e-02
-1.381122112274169922e+00 -5.352685451507568359e+00 6.753724999725818634e-03
-2.253922700881958008e+00 -6.613404750823974609e+00 1.979738354682922363e+00
-1.925305843353271484e+00 -6.421577453613281250e+00 1.828974127769470215e+00
-1.707894921302795410e+00 -6.570959091186523438e+00 1.784935951232910156e+00
-2.553948879241943359e+00 -6.663799762725830078e+00 1.812426805496215820e+00
-1.942207813262939453e+00 -6.465643405914306641e+00 1.573503613471984863e+00
-1.708990454673767090e+00 -6.551685333251953125e+00 1.513477802276611328e+00
-1.943359494209289551e+00 -6.453123092651367188e+00 1.312447190284729004e+00
-2.221183776855468750e+00 -6.495059967041015625e+00 1.143774390220642090e+00
-1.940523743629455566e+00 -6.439635753631591797e+00 1.055616140365600586e+00
-1.718988895416259766e+00 -6.547884941101074219e+00 9.984647035598754883e-01
-2.526618957519531250e+00 -6.589048862457275391e+00 9.829875826835632324e-01
-2.223547220230102539e+00 -6.494565486907958984e+00 8.891270160675048828e-01
-1.942977666854858398e+00 -6.427469730377197266e+00 8.066260814666748047e-01
-1.780068278312683105e+00 -6.766119003295898438e+00 7.736409902572631836e-01
-2.515796184539794922e+00 -6.553980350494384766e+00 7.192808985710144043e-01
-2.205395460128784180e+00 -6.434217453002929688e+00 6.321706175804138184e-01
-1.940584301948547363e+00 -6.411471366882324219e+00 5.589751005172729492e-01
-1.753746032714843750e+00 -6.651909828186035156e+00 5.087991356849670410e-01
-2.492145061492919922e+00 -6.485598087310791016e+00 4.578273296356201172e-01
-2.250252246856689453e+00 -6.557623386383056641e+00 3.912546932697296143e-01
-1.954958677291870117e+00 -6.450840473175048828e+00 3.166978955268859863e-01
-1.409804701805114746e+00 -5.336014270782470703e+00 2.071996182203292847e-01
-2.277346372604370117e+00 -5.923514366149902344e+00 1.883509904146194458e-01
-1.789563298225402832e+00 -5.893959999084472656e+00 6.558125466108322144e-02
-1.419055104255676270e+00 -5.363445281982421875e+00 6.778159178793430328e-03
-2.305833578109741211e+00 -6.632165431976318359e+00 1.989552497863769531e+00
-1.713317275047302246e+00 -6.429522514343261719e+00 1.749338865280151367e+00
-2.605361461639404297e+00 -6.675090312957763672e+00 1.819811344146728516e+00
-1.965547561645507812e+00 -6.400538444519042969e+00 1.560565114021301270e+00
-1.742099523544311523e+00 -6.514678001403808594e+00 1.507369875907897949e+00
-1.991005182266235352e+00 -6.467344760894775391e+00 1.317799448966979980e+00
-1.746767997741699219e+00 -6.509368896484375000e+00 1.246689796447753906e+00
-2.273666143417358398e+00 -6.517632007598876953e+00 1.150184392929077148e+00
-1.993669390678405762e+00 -6.471982002258300781e+00 1.062903761863708496e+00
-1.748593688011169434e+00 -6.498046398162841797e+00 9.924823641777038574e-01
-2.578530073165893555e+00 -6.602944374084472656e+00 9.874023795127868652e-01
-2.274145603179931641e+00 -6.511696338653564453e+00 8.933658599853515625e-01
-1.985896587371826172e+00 -6.426809787750244141e+00 8.080573081970214844e-01
-2.571899652481079102e+00 -6.579186916351318359e+00 7.237656116485595703e-01
-2.274409770965576172e+00 -6.505156993865966797e+00 6.404996514320373535e-01
-1.944837689399719238e+00 -6.286153793334960938e+00 5.490795373916625977e-01
-1.784902811050415039e+00 -6.605402469635009766e+00 5.060700178146362305e-01
-2.584981679916381836e+00 -6.605850696563720703e+00 4.674270153045654297e-01
-2.295724391937255859e+00 -6.558770656585693359e+00 3.921562135219573975e-01
-1.872433304786682129e+00 -6.044652938842773438e+00 2.973149418830871582e-01
-1.438079118728637695e+00 -5.310865879058837891e+00 2.065618485212326050e-01
-2.323488712310791016e+00 -5.934560298919677734e+00 1.891519874334335327e-01
-1.800798416137695312e+00 -5.802647590637207031e+00 6.468696892261505127e-02
-1.452461242675781250e+00 -5.356567382812500000e+00 6.780602503567934036e-03
-2.354522466659545898e+00 -6.640563011169433594e+00 1.996367931365966797e+00
-1.766747593879699707e+00 -6.470202922821044922e+00 1.763323545455932617e+00
-2.645554065704345703e+00 -6.657176971435546875e+00 1.819319009780883789e+00
-1.760892868041992188e+00 -6.426685810089111328e+00 1.489482164382934570e+00
-2.034184932708740234e+00 -6.466241836547851562e+00 1.320093274116516113e+00
-1.767125129699707031e+00 -6.427418231964111328e+00 1.233047962188720703e+00
-2.323533296585083008e+00 -6.531438827514648438e+00 1.155115127563476562e+00
-2.036309480667114258e+00 -6.469049930572509766e+00 1.064454317092895508e+00
-1.783699393272399902e+00 -6.470027923583984375e+00 9.898560047149658203e-01
-2.635463476181030273e+00 -6.628414154052734375e+00 9.936106801033020020e-01
-2.324372053146362305e+00 -6.526581287384033203e+00 8.973478078842163086e-01
-2.035756349563598633e+00 -6.447641372680664062e+00 8.122317790985107422e-01
-1.772185325622558594e+00 -6.415151119232177734e+00 7.359425425529479980e-01
-2.622888565063476562e+00 -6.590085983276367188e+00 7.267214059829711914e-01
-2.321638345718383789e+00 -6.511712074279785156e+00 6.425356268882751465e-01
-1.659568548202514648e+00 -5.249797821044921875e+00 4.594372808933258057e-01
-1.805445075035095215e+00 -6.522241115570068359e+00 5.005379319190979004e-01
-2.628789663314819336e+00 -6.598208427429199219e+00 4.680188000202178955e-01
-2.340623617172241211e+00 -6.557724952697753906e+00 3.929450213909149170e-01
-1.672270774841308594e+00 -5.283561229705810547e+00 2.603793740272521973e-01
-2.295458316802978516e+00 -5.758630275726318359e+00 1.839900463819503784e-01
-2.158439874649047852e+00 -6.040639400482177734e+00 1.298883110284805298e-01
-1.669536113739013672e+00 -5.265336513519287109e+00 5.881020426750183105e-02
-1.627676010131835938e+00 -5.860148906707763672e+00 7.430563215166330338e-03
-2.389009475708007812e+00 -6.608798980712890625e+00 1.991188168525695801e+00
-2.133445501327514648e+00 -6.667136192321777344e+00 1.909776449203491211e+00
-1.817354798316955566e+00 -6.498358726501464844e+00 1.774002552032470703e+00
-2.417036533355712891e+00 -6.679038047790527344e+00 1.727568149566650391e+00
-1.823231816291809082e+00 -6.497507572174072266e+00 1.508460640907287598e+00
-2.078627586364746094e+00 -6.468590736389160156e+00 1.323151707649230957e+00
-1.818255305290222168e+00 -6.458101272583007812e+00 1.241051197052001953e+00
-2.370628118515014648e+00 -6.536531925201416016e+00 1.158566713333129883e+00
-2.075661897659301758e+00 -6.455493450164794922e+00 1.064299225807189941e+00
-1.819333553314208984e+00 -6.444680690765380859e+00 9.876673221588134766e-01
-2.689833402633666992e+00 -6.646088123321533203e+00 9.987153410911560059e-01
-2.379943132400512695e+00 -6.555076599121093750e+00 9.032564759254455566e-01
-2.081069946289062500e+00 -6.452982902526855469e+00 8.144979476928710938e-01
-1.833969235420227051e+00 -6.483539104461669922e+00 7.450649142265319824e-01
-2.678963422775268555e+00 -6.612592697143554688e+00 7.310022115707397461e-01
-2.366651535034179688e+00 -6.511381626129150391e+00 6.439237594604492188e-01
-2.024893999099731445e+00 -6.271297931671142578e+00 5.499111413955688477e-01
-1.831561446189880371e+00 -6.462106704711914062e+00 4.967761635780334473e-01
-2.670725822448730469e+00 -6.585652828216552734e+00 4.682818055152893066e-01
-2.383548021316528320e+00 -6.550745487213134766e+00 3.933957815170288086e-01
-1.843538641929626465e+00 -5.702813148498535156e+00 2.815926969051361084e-01
-2.320978403091430664e+00 -5.720355510711669922e+00 1.832187324762344360e-01
-2.175959348678588867e+00 -5.973735332489013672e+00 1.287343800067901611e-01
-1.693186163902282715e+00 -5.228356838226318359e+00 5.851210653781890869e-02
-1.787784695625305176e+00 -6.286736965179443359e+00 7.985228672623634338e-03
-2.180307388305664062e+00 -6.672260761260986328e+00 1.915040373802185059e+00
-1.857992410659790039e+00 -6.489875316619873047e+00 1.774765372276306152e+00
-1.885177731513977051e+00 -5.758879184722900391e+00 1.412339687347412109e+00
-1.835584163665771484e+00 -6.390522956848144531e+00 1.486209988594055176e+00
-2.438582658767700195e+00 -6.604409694671630859e+00 1.440031409263610840e+00
-1.887844920158386230e+00 -5.753438949584960938e+00 1.179214477539062500e+00
-1.838514447212219238e+00 -6.379737854003906250e+00 1.228136777877807617e+00
-2.420950651168823242e+00 -6.549619674682617188e+00 1.163497447967529297e+00
-1.955296277999877930e+00 -5.955495834350585938e+00 9.838255643844604492e-01
-1.819024443626403809e+00 -6.295585155487060547e+00 9.665103554725646973e-01
-2.744141817092895508e+00 -6.662427425384521484e+00 1.003682017326354980e+00
-2.428379297256469727e+00 -6.562672138214111328e+00 9.063392281532287598e-01
-1.954801201820373535e+00 -5.936502933502197266e+00 7.508074641227722168e-01
-1.816502094268798828e+00 -6.274533748626708984e+00 7.223140597343444824e-01
-2.727449893951416016e+00 -6.615343570709228516e+00 7.331426143646240234e-01
-2.411748409271240234e+00 -6.510743141174316406e+00 6.453119516372680664e-01
-2.040559053421020508e+00 -6.189665794372558594e+00 5.438407063484191895e-01
-1.814500689506530762e+00 -6.255356788635253906e+00 4.817290604114532471e-01
-2.349073648452758789e+00 -5.691965103149414062e+00 4.057521820068359375e-01
-2.371974706649780273e+00 -6.396514892578125000e+00 3.850004673004150391e-01
-1.913874030113220215e+00 -5.798581600189208984e+00 2.868960201740264893e-01
-1.666392683982849121e+00 -5.733543395996093750e+00 2.241567522287368774e-01
-2.346115589141845703e+00 -5.681985378265380859e+00 1.824474036693572998e-01
-2.205613613128662109e+00 -5.941525459289550781e+00 1.283294856548309326e-01
-1.925507783889770508e+00 -5.823582649230957031e+00 6.530445069074630737e-02
-1.681024432182312012e+00 -5.776362419128417969e+00 7.349928840994834900e-03
-2.212658643722534180e+00 -6.633131980895996094e+00 1.907670736312866211e+00
-1.896690964698791504e+00 -6.474639892578125000e+00 1.773748278617858887e+00
-1.890538215637207031e+00 -5.657605648040771484e+00 1.390321612358093262e+00
-1.800464153289794922e+00 -6.126333713531494141e+00 1.427311301231384277e+00
-2.817499637603759766e+00 -6.729675292968750000e+00 1.566720604896545410e+00
-1.918747544288635254e+00 -5.728716373443603516e+00 1.176538348197937012e+00
-1.793643712997436523e+00 -6.083497047424316406e+00 1.173205375671386719e+00
-2.472565650939941406e+00 -6.565104007720947266e+00 1.168921351432800293e+00
-2.174187421798706055e+00 -6.487611293792724609e+00 1.073912620544433594e+00
-1.834342837333679199e+00 -6.205561637878417969e+00 9.543997645378112793e-01
-2.796071529388427734e+00 -6.671954631805419922e+00 1.007682919502258301e+00
-2.479446887969970703e+00 -6.576415061950683594e+00 9.103211760520935059e-01
-2.175916910171508789e+00 -6.474015235900878906e+00 8.204614520072937012e-01
-1.851862907409667969e+00 -6.252786159515380859e+00 7.211050391197204590e-01
-2.757599592208862305e+00 -6.573715686798095703e+00 7.303906679153442383e-01
-2.457277536392211914e+00 -6.510727405548095703e+00 6.467926502227783203e-01
-2.173207998275756836e+00 -6.458489418029785156e+00 5.686212182044982910e-01
-1.719509482383728027e+00 -5.794751644134521484e+00 4.470616877079010010e-01
-2.383954763412475586e+00 -5.677443981170654297e+00 4.057521820068359375e-01
-2.253091335296630859e+00 -5.963420391082763672e+00 3.597582280635833740e-01
-2.206448316574096680e+00 -6.549710273742675781e+00 3.247232735157012939e-01
-2.382871389389038086e+00 -5.672090530395507812e+00 1.825957447290420532e-01
-2.239552736282348633e+00 -5.921334266662597656e+00 1.281877756118774414e-01
-2.254560708999633789e+00 -6.623083591461181641e+00 1.908723592758178711e+00
-1.928888320922851562e+00 -6.437866210937500000e+00 1.766883254051208496e+00
-2.546514272689819336e+00 -6.651565551757812500e+00 1.732294678688049316e+00
-1.945610761642456055e+00 -6.473127365112304688e+00 1.510860085487365723e+00
-2.873297214508056641e+00 -6.746442794799804688e+00 1.574699044227600098e+00
-1.946755051612854004e+00 -6.456490039825439453e+00 1.247417449951171875e+00
-2.840348482131958008e+00 -6.665852546691894531e+00 1.280232667922973633e+00
-2.527287721633911133e+00 -6.587568283081054688e+00 1.175660014152526855e+00
-2.224502325057983398e+00 -6.504995346069335938e+00 1.079029440879821777e+00
-1.946810841560363770e+00 -6.440403461456298828e+00 9.923363924026489258e-01
-2.843948602676391602e+00 -6.671072959899902344e+00 1.010166287422180176e+00
-2.531129837036132812e+00 -6.590703010559082031e+00 9.144315719604492188e-01
-2.232347965240478516e+00 -6.509378910064697266e+00 8.266634941101074219e-01
-1.946949243545532227e+00 -6.428706645965576172e+00 7.427569031715393066e-01
-2.813891172409057617e+00 -6.594184875488281250e+00 7.345695495605468750e-01
-2.512187004089355469e+00 -6.534561634063720703e+00 6.506794691085815430e-01
-2.164902687072753906e+00 -6.305538654327392578e+00 5.563141703605651855e-01
-1.942958474159240723e+00 -6.403441429138183594e+00 4.949321746826171875e-01
-2.463036775588989258e+00 -5.766401767730712891e+00 4.131821095943450928e-01
-2.342712163925170898e+00 -6.087388515472412109e+00 3.680972158908843994e-01
-2.251141071319580078e+00 -6.549273967742919922e+00 3.253803551197052002e-01
-2.414880275726318359e+00 -5.650928497314453125e+00 1.823880821466445923e-01
-2.275843143463134766e+00 -5.907481193542480469e+00 1.281877756118774414e-01
-2.603163480758666992e+00 -6.676553726196289062e+00 1.742929577827453613e+00
-1.978126525878906250e+00 -6.437746047973632812e+00 1.505406618118286133e+00
-2.914249897003173828e+00 -6.727788448333740234e+00 1.574489116668701172e+00
-1.990968942642211914e+00 -6.459458827972412109e+00 1.250327706336975098e+00
-2.860051155090332031e+00 -6.599507808685302734e+00 1.270837068557739258e+00
-2.574122190475463867e+00 -6.588474750518798828e+00 1.178618550300598145e+00
-2.279342174530029297e+00 -6.534131526947021484e+00 1.086161971092224121e+00
-1.990964770317077637e+00 -6.443460464477539062e+00 9.946710467338562012e-01
-2.912801504135131836e+00 -6.718014240264892578e+00 1.019961595535278320e+00
-2.579829931259155273e+00 -6.596290588378906250e+00 9.173858761787414551e-01
-2.276508808135986328e+00 -6.507742404937744141e+00 8.282140493392944336e-01
-1.992530822753906250e+00 -6.436578750610351562e+00 7.450649142265319824e-01
-2.995687484741210938e+00 -6.902577877044677734e+00 7.709565758705139160e-01
-2.567117929458618164e+00 -6.557038784027099609e+00 6.544738411903381348e-01
-2.265804529190063477e+00 -6.469895839691162109e+00 5.720306038856506348e-01
-1.721068739891052246e+00 -5.549372673034667969e+00 4.297280013561248779e-01
-2.871696949005126953e+00 -6.610562801361083984e+00 4.749227166175842285e-01
-2.591682195663452148e+00 -6.612980842590332031e+00 4.008332192897796631e-01
-2.280377864837646484e+00 -6.504230022430419922e+00 3.238315582275390625e-01
-1.636141061782836914e+00 -5.265787124633789062e+00 2.070120424032211304e-01
-2.444328784942626953e+00 -5.624087333679199219e+00 1.820024102926254272e-01
-2.321906805038452148e+00 -5.918535232543945312e+00 1.287343800067901611e-01
-1.658143043518066406e+00 -5.330031871795654297e+00 6.819698028266429901e-03
-2.319240570068359375e+00 -6.548539161682128906e+00 1.895300388336181641e+00
-2.653402566909790039e+00 -6.683936119079589844e+00 1.749074101448059082e+00
-2.866011619567871094e+00 -6.506670475006103516e+00 1.526828169822692871e+00
-2.041495561599731445e+00 -6.481822967529296875e+00 1.257057666778564453e+00
-2.862368345260620117e+00 -6.495326042175292969e+00 1.254133820533752441e+00
-2.630177259445190430e+00 -6.611967563629150391e+00 1.185685873031616211e+00
-2.324358701705932617e+00 -6.533984661102294922e+00 1.088487863540649414e+00
-2.037612199783325195e+00 -6.453764438629150391e+00 9.981728792190551758e-01
-2.961159706115722656e+00 -6.716328144073486328e+00 1.022444963455200195e+00
-2.636398315429687500e+00 -6.620876789093017578e+00 9.230376482009887695e-01
-2.329406261444091797e+00 -6.530122280120849609e+00 8.328655958175659180e-01
-2.040080547332763672e+00 -6.449818611145019531e+00 7.480324506759643555e-01
-2.610620975494384766e+00 -6.549488544464111328e+00 6.553067564964294434e-01
-2.319536685943603516e+00 -6.495288372039794922e+00 5.755231976509094238e-01
-1.665313959121704102e+00 -5.255403041839599609e+00 4.077474176883697510e-01
-2.925509691238403320e+00 -6.622939109802246094e+00 4.770925045013427734e-01
-2.638870000839233398e+00 -6.613646030426025391e+00 4.018474221229553223e-01
-2.313855171203613281e+00 -6.472244739532470703e+00 3.229398727416992188e-01
-1.674769997596740723e+00 -5.275650501251220703e+00 2.077998667955398560e-01
-2.474751234054565430e+00 -5.599841117858886719e+00 1.817057579755783081e-01
-2.311452388763427734e+00 -5.787189006805419922e+00 1.261835694313049316e-01
-2.164259672164916992e+00 -6.043815612792968750e+00 6.834929436445236206e-02
-1.672641992568969727e+00 -5.262576580047607422e+00 6.746394559741020203e-03
-2.392797946929931641e+00 -6.626739978790283203e+00 1.922146797180175781e+00
-2.694000244140625000e+00 -6.666628837585449219e+00 1.748837828636169434e+00
-2.340174198150634766e+00 -6.470392704010009766e+00 1.603693485260009766e+00
-2.087553024291992188e+00 -6.488831520080566406e+00 1.260877370834350586e+00
-2.929950714111328125e+00 -6.539649486541748047e+00 1.266139388084411621e+00
-2.686617136001586914e+00 -6.635019302368164062e+00 1.192753434181213379e+00
-2.369795560836791992e+00 -6.534459114074707031e+00 1.090968728065490723e+00
-2.084460496902465820e+00 -6.463737487792968750e+00 1.001674652099609375e+00
-3.015278339385986328e+00 -6.726953983306884766e+00 1.026859760284423828e+00
-2.695227384567260742e+00 -6.649610519409179688e+00 9.293316602706909180e-01
-2.375538349151611328e+00 -6.532501697540283203e+00 8.350124359130859375e-01
-2.085728645324707031e+00 -6.456095695495605469e+00 7.502306103706359863e-01
-2.672470808029174805e+00 -6.586860656738281250e+00 6.606743335723876953e-01
-2.367869615554809570e+00 -6.504343509674072266e+00 5.776020884513854980e-01
-2.025488853454589844e+00 -6.258427143096923828e+00 4.865234792232513428e-01
-3.054388046264648438e+00 -6.801479816436767578e+00 4.912948012351989746e-01
-2.694052696228027344e+00 -6.633406162261962891e+00 4.040448665618896484e-01
-2.388411760330200195e+00 -6.553653717041015625e+00 3.277269303798675537e-01
-1.884631514549255371e+00 -5.812810420989990234e+00 2.294089645147323608e-01
-2.998997688293457031e+00 -6.675020217895507812e+00 2.171865850687026978e-01
-2.334492921829223633e+00 -5.742333412170410156e+00 1.255155056715011597e-01
-2.193416833877563477e+00 -6.008818149566650391e+00 6.810443103313446045e-02
-2.444409847259521484e+00 -6.641810894012451172e+00 1.930832386016845703e+00
-2.279348611831665039e+00 -6.979734420776367188e+00 1.930375218391418457e+00
-1.873628735542297363e+00 -5.720432758331298828e+00 1.345507502555847168e+00
-2.450380563735961914e+00 -6.633021354675292969e+00 1.377056479454040527e+00
-1.946266174316406250e+00 -5.924720764160156250e+00 1.153560996055603027e+00
-3.007570981979370117e+00 -6.603997707366943359e+00 1.282146573066711426e+00
-2.729157447814941406e+00 -6.622970104217529297e+00 1.193575263023376465e+00
-2.425258398056030273e+00 -6.561493873596191406e+00 1.097946166992187500e+00
-1.939365744590759277e+00 -5.889843463897705078e+00 9.145662188529968262e-01
-3.072512865066528320e+00 -6.743476390838623047e+00 1.032240390777587891e+00
-2.743541002273559570e+00 -6.651283264160156250e+00 9.319006204605102539e-01
-2.427997350692749023e+00 -6.551317691802978516e+00 8.393061757087707520e-01
-1.940981626510620117e+00 -5.884377479553222656e+00 6.851651668548583984e-01
-2.713216781616210938e+00 -6.571259021759033203e+00 6.607668399810791016e-01
-2.411894559860229492e+00 -6.500904083251953125e+00 5.785999298095703125e-01
-1.919607281684875488e+00 -5.809350967407226562e+00 4.525199532508850098e-01
-3.084876060485839844e+00 -6.758101463317871094e+00 4.895195066928863525e-01
-2.343050956726074219e+00 -5.669127464294433594e+00 3.461792469024658203e-01
-2.225125312805175781e+00 -5.991081714630126953e+00 3.002716600894927979e-01
-1.915552377700805664e+00 -5.786907196044921875e+00 2.288462370634078979e-01
-3.068964481353759766e+00 -6.720139026641845703e+00 2.192632108926773071e-01
-2.369683265686035156e+00 -5.727900981903076172e+00 1.255155056715011597e-01
-2.208280563354492188e+00 -5.936203002929687500e+00 6.743371486663818359e-02
-1.941885828971862793e+00 -5.859603881835937500e+00 7.541740778833627701e-03
-2.481390714645385742e+00 -6.616750717163085938e+00 1.927937150001525879e+00
-1.903742194175720215e+00 -5.694020271301269531e+00 1.342017292976379395e+00
-2.172025680541992188e+00 -6.477642536163330078e+00 1.263787746429443359e+00
-3.142343282699584961e+00 -6.789175033569335938e+00 1.321816802024841309e+00
-2.780041694641113281e+00 -6.630661010742187500e+00 1.198012948036193848e+00
-2.474525928497314453e+00 -6.570526599884033203e+00 1.101977586746215820e+00
-2.180642604827880859e+00 -6.488309860229492188e+00 1.009553790092468262e+00
-3.123404502868652344e+00 -6.745168209075927734e+00 1.035413622856140137e+00
-2.791208982467651367e+00 -6.650784492492675781e+00 9.342127442359924316e-01
-2.478672027587890625e+00 -6.564162254333496094e+00 8.428843021392822266e-01
-2.198414564132690430e+00 -6.529864788055419922e+00 7.618808150291442871e-01
-2.788194179534912109e+00 -6.637107372283935547e+00 6.690958738327026367e-01
-2.460899353027343750e+00 -6.510218620300292969e+00 5.807620286941528320e-01
-2.149941682815551758e+00 -6.374847412109375000e+00 4.975875318050384521e-01
-3.123765230178833008e+00 -6.733614921569824219e+00 4.891249835491180420e-01
-2.367342710494995117e+00 -5.629794597625732422e+00 3.446579575538635254e-01
-2.249470710754394531e+00 -5.944617271423339844e+00 2.986290454864501953e-01
-3.147171258926391602e+00 -6.780968666076660156e+00 2.218738496303558350e-01
-2.405560255050659180e+00 -5.715095996856689453e+00 1.255559921264648438e-01
-2.237929821014404297e+00 -5.904776096343994141e+00 6.723143905401229858e-02
-2.879528522491455078e+00 -6.758006572723388672e+00 1.502554297447204590e+00
-2.221598863601684570e+00 -6.493034839630126953e+00 1.269426465034484863e+00
-3.208249568939208984e+00 -6.821450233459472656e+00 1.331908226013183594e+00
-2.821835041046142578e+00 -6.616199493408203125e+00 1.198505878448486328e+00
-2.529303073883056641e+00 -6.593036174774169922e+00 1.108334898948669434e+00
-2.236458778381347656e+00 -6.521597385406494141e+00 1.016849398612976074e+00
-3.182865619659423828e+00 -6.764412403106689453e+00 1.041345953941345215e+00
-2.843256950378417969e+00 -6.659983158111572266e+00 9.379377961158752441e-01
-2.529238700866699219e+00 -6.575703144073486328e+00 8.463431000709533691e-01
-2.238439798355102539e+00 -6.516252994537353516e+00 7.618808150291442871e-01
-2.519060850143432617e+00 -6.542425632476806641e+00 5.850029587745666504e-01
-2.227955341339111328e+00 -6.474696159362792969e+00 5.064387917518615723e-01
-3.170979976654052734e+00 -6.726957798004150391e+00 4.900455474853515625e-01
-2.401449441909790039e+00 -5.614245414733886719e+00 3.446016311645507812e-01
-2.271533966064453125e+00 -5.893420696258544922e+00 2.967517673969268799e-01
-3.196393489837646484e+00 -6.777802944183349609e+00 2.224078327417373657e-01
-2.442156076431274414e+00 -5.703904628753662109e+00 1.256369799375534058e-01
-2.267636537551879883e+00 -5.874142169952392578e+00 6.703980267047882080e-02
-2.888607025146484375e+00 -6.665599346160888672e+00 1.485921621322631836e+00
-2.261397600173950195e+00 -6.479281425476074219e+00 1.269426465034484863e+00
-3.261083602905273438e+00 -6.824738025665283203e+00 1.336432099342346191e+00
-2.869443893432617188e+00 -6.615049362182617188e+00 1.201464414596557617e+00
-2.574742555618286133e+00 -6.590274810791015625e+00 1.110505700111389160e+00
-2.283292055130004883e+00 -6.527362346649169922e+00 1.019913434982299805e+00
-3.241398334503173828e+00 -6.780498504638671875e+00 1.046864509582519531e+00
-2.895127296447753906e+00 -6.667882442474365234e+00 9.415343999862670898e-01
-2.584747552871704102e+00 -6.598888397216796875e+00 8.513525128364562988e-01
-2.281667470932006836e+00 -6.511775970458984375e+00 7.629799246788024902e-01
-3.040089368820190430e+00 -6.995065212249755859e+00 7.088899016380310059e-01
-2.568615198135375977e+00 -6.550967693328857422e+00 5.871650576591491699e-01
-2.283494472503662109e+00 -6.506072521209716797e+00 5.099793076515197754e-01
-3.214781999588012695e+00 -6.712773799896240234e+00 4.904400706291198730e-01
-2.916969299316406250e+00 -6.705369472503662109e+00 4.126655161380767822e-01
-2.607650995254516602e+00 -6.643699169158935547e+00 3.353299498558044434e-01
-3.239217042922973633e+00 -6.760767459869384766e+00 2.224968373775482178e-01
-2.472318887710571289e+00 -5.677812576293945312e+00 1.253940463066101074e-01
-2.294857025146484375e+00 -5.837782382965087891e+00 6.678428500890731812e-02
-2.636323213577270508e+00 -6.644505977630615234e+00 1.666115999221801758e+00
-2.848857641220092773e+00 -6.464858531951904297e+00 1.445041179656982422e+00
-3.307198047637939453e+00 -6.813458919525146484e+00 1.338171958923339844e+00
-2.842305183410644531e+00 -6.443892478942871094e+00 1.173523426055908203e+00
-2.631562471389770508e+00 -6.615660190582275391e+00 1.117483139038085938e+00
-2.336262941360473633e+00 -6.549569129943847656e+00 1.025604009628295898e+00
-3.300680160522460938e+00 -6.797010898590087891e+00 1.052520990371704102e+00
-2.947201490402221680e+00 -6.675395011901855469e+00 9.451309442520141602e-01
-2.640635490417480469e+00 -6.621638298034667969e+00 8.563618659973144531e-01
-2.333953857421875000e+00 -6.532285213470458984e+00 7.670465111732482910e-01
-3.401939153671264648e+00 -6.999311923980712891e+00 7.973550558090209961e-01
-2.615782737731933594e+00 -6.552668571472167969e+00 5.887449979782104492e-01
-2.332445144653320312e+00 -6.517290115356445312e+00 5.119708180427551270e-01
-3.303925991058349609e+00 -6.791624069213867188e+00 4.976727068424224854e-01
-3.000061750411987305e+00 -6.782304763793945312e+00 4.185253381729125977e-01
-2.657262563705444336e+00 -6.649835586547851562e+00 3.364562988281250000e-01
-3.286325693130493164e+00 -6.752448558807373047e+00 2.228825092315673828e-01
-2.491324901580810547e+00 -5.626882076263427734e+00 1.246045082807540894e-01
-2.304254770278930664e+00 -5.757678031921386719e+00 6.602840125560760498e-02
-2.189476251602172852e+00 -6.101021289825439453e+00 7.919255644083023071e-03
-2.389294862747192383e+00 -6.620881557464599609e+00 1.850536227226257324e+00
-2.714609622955322266e+00 -6.721216678619384766e+00 1.689496159553527832e+00
-2.846011638641357422e+00 -6.352483272552490234e+00 1.423799514770507812e+00
-2.967356204986572266e+00 -6.617140769958496094e+00 1.208367466926574707e+00
-2.685453653335571289e+00 -6.632354259490966797e+00 1.123065233230590820e+00
-2.382491827011108398e+00 -6.551846027374267578e+00 1.028230428695678711e+00
-3.369486570358276367e+00 -6.831703186035156250e+00 1.061074733734130859e+00
-3.005567789077758789e+00 -6.696090221405029297e+00 9.506542682647705078e-01
-2.691671371459960938e+00 -6.631069660186767578e+00 8.597013950347900391e-01
-2.380114078521728516e+00 -6.534651279449462891e+00 7.690247893333435059e-01
-3.354110956192016602e+00 -6.794549465179443359e+00 7.763586640357971191e-01
-2.664942979812622070e+00 -6.558652877807617188e+00 5.907407402992248535e-01
-2.383327960968017578e+00 -6.532835960388183594e+00 5.143311619758605957e-01
-3.327856302261352539e+00 -6.735439777374267578e+00 4.950426518917083740e-01
-2.979789257049560547e+00 -6.626271724700927734e+00 4.100173413753509521e-01
-2.321670532226562500e+00 -5.708115577697753906e+00 2.895241975784301758e-01
-3.343198537826538086e+00 -6.763519287109375000e+00 2.239208221435546875e-01
-2.993211030960083008e+00 -6.649911403656005859e+00 1.476629227399826050e-01
-2.343312263488769531e+00 -5.752691745758056641e+00 6.613486260175704956e-02
-2.189767122268676758e+00 -5.986045360565185547e+00 7.787308190017938614e-03
-2.449573040008544922e+00 -6.659649848937988281e+00 1.865537762641906738e+00
-2.760242223739624023e+00 -6.715242862701416016e+00 1.692220091819763184e+00
-2.355720281600952148e+00 -6.370154857635498047e+00 1.256330132484436035e+00
-3.024267435073852539e+00 -6.634710788726806641e+00 1.214941859245300293e+00
-2.729109287261962891e+00 -6.623058795928955078e+00 1.124305605888366699e+00
-2.435712337493896484e+00 -6.572354793548583984e+00 1.033774971961975098e+00
-3.434406280517578125e+00 -6.856949329376220703e+00 1.068248748779296875e+00
-3.059358596801757812e+00 -6.705492019653320312e+00 9.546361565589904785e-01
-2.739889383316040039e+00 -6.632781982421875000e+00 8.620868325233459473e-01
-2.426736831665039062e+00 -6.537629127502441406e+00 7.711130976676940918e-01
-3.342686891555786133e+00 -6.668013572692871094e+00 7.642295956611633301e-01
-2.715417385101318359e+00 -6.567042350769042969e+00 5.929859876632690430e-01
-2.428928375244140625e+00 -6.533045291900634766e+00 5.155113339424133301e-01
-3.036993503570556641e+00 -6.644185066223144531e+00 4.122711122035980225e-01
-2.354359149932861328e+00 -5.688224792480468750e+00 2.892425954341888428e-01
-2.210949420928955078e+00 -5.937232494354248047e+00 2.378500103950500488e-01
-3.066817998886108398e+00 -6.703243732452392578e+00 1.492622345685958862e-01
-2.382777929306030273e+00 -5.748366355895996094e+00 6.625197827816009521e-02
-2.215976476669311523e+00 -5.944386482238769531e+00 7.750656455755233765e-03
-2.501930236816406250e+00 -6.675284862518310547e+00 1.874182701110839844e+00
-2.858120679855346680e+00 -6.820433616638183594e+00 1.440136551856994629e+00
-2.792614698410034180e+00 -6.660852909088134766e+00 1.133608937263488770e+00
-2.485429286956787109e+00 -6.582274913787841797e+00 1.037714600563049316e+00
-3.493026971817016602e+00 -6.868411540985107422e+00 1.073353409767150879e+00
-3.107120037078857422e+00 -6.700989246368408203e+00 9.566913843154907227e-01
-2.785152196884155273e+00 -6.626829147338867188e+00 8.635180592536926270e-01
-2.487901210784912109e+00 -6.578396320343017578e+00 7.777075171470642090e-01
-3.461154699325561523e+00 -6.799865245819091797e+00 7.817606329917907715e-01
-2.918735980987548828e+00 -6.937889575958251953e+00 6.280778050422668457e-01
-2.474620819091796875e+00 -6.532940387725830078e+00 5.166914463043212891e-01
-3.150892734527587891e+00 -6.782979488372802734e+00 4.220750033855438232e-01
-2.383014440536499023e+00 -5.658942222595214844e+00 2.884916961193084717e-01
-2.248401641845703125e+00 -5.926357746124267578e+00 2.379625588655471802e-01
-3.133182048797607422e+00 -6.738696098327636719e+00 1.504769027233123779e-01
-2.411398649215698242e+00 -5.717974185943603516e+00 6.607098877429962158e-02
-2.247083187103271484e+00 -5.916654586791992188e+00 7.732330821454524994e-03
-2.547671556472778320e+00 -6.672456741333007812e+00 1.877742409706115723e+00
-2.856036663055419922e+00 -6.699832916259765625e+00 1.418345212936401367e+00
-3.191580772399902344e+00 -6.780054569244384766e+00 1.248635530471801758e+00
-2.850097417831420898e+00 -6.682667255401611328e+00 1.140276312828063965e+00
-2.535004377365112305e+00 -6.590907573699951172e+00 1.041508316993713379e+00
-3.526471614837646484e+00 -6.830128192901611328e+00 1.070732116699218750e+00
-3.165508270263671875e+00 -6.718580245971679688e+00 9.619578123092651367e-01
-2.836689472198486328e+00 -6.635177135467529297e+00 8.668576478958129883e-01
-2.547512531280517578e+00 -6.613091945648193359e+00 7.836425304412841797e-01
-3.571773052215576172e+00 -6.911949157714843750e+00 7.971512079238891602e-01
-2.861274957656860352e+00 -6.686225891113281250e+00 6.068730354309082031e-01
-2.544095993041992188e+00 -6.593928337097167969e+00 5.227398276329040527e-01
-3.544324398040771484e+00 -6.852965354919433594e+00 5.083901882171630859e-01
-3.185634374618530273e+00 -6.749072074890136719e+00 4.211735129356384277e-01
-2.406286239624023438e+00 -5.617586135864257812e+00 2.871306836605072021e-01
-2.284722805023193359e+00 -5.912450313568115234e+00 2.379625588655471802e-01
