-1.394152879714965820e+00 -2.615306138992309570e+00 8.796041458845138550e-02
-1.408747076988220215e+00 -2.604065179824829102e+00 8.787141740322113037e-02
-1.359274148941040039e+00 -2.662482261657714844e+00 6.053087115287780762e-02
-1.396171092987060547e+00 -2.696113824844360352e+00 1.713429689407348633e-01
-1.374665021896362305e+00 -2.652316331863403320e+00 6.049037724733352661e-02
-1.416868805885314941e+00 -2.695450067520141602e+00 1.718500703573226929e-01
-1.388120412826538086e+00 -2.638522624969482422e+00 6.036891043186187744e-02
-1.419752120971679688e+00 -2.661159992218017578e+00 1.702160835266113281e-01
-1.399103879928588867e+00 -2.620254278182983398e+00 6.014622375369071960e-02
-1.412773489952087402e+00 -2.607224941253662109e+00 6.004500016570091248e-02
-1.345845937728881836e+00 -2.672030925750732422e+00 3.185375407338142395e-02
-1.378935217857360840e+00 -2.699902534484863281e+00 1.424389630556106567e-01
-1.356297135353088379e+00 -2.652148962020874023e+00 3.171535208821296692e-02
-1.392716765403747559e+00 -2.686069965362548828e+00 1.421573609113693237e-01
-1.383602738380432129e+00 -2.665076255798339844e+00 3.197086229920387268e-02
-1.414754748344421387e+00 -2.688081502914428711e+00 1.427205502986907959e-01
-1.393402695655822754e+00 -2.644151687622070312e+00 3.182181343436241150e-02
-1.412866830825805664e+00 -2.644988059997558594e+00 1.408901959657669067e-01
-1.407714366912841797e+00 -2.632025003433227539e+00 3.177922964096069336e-02
-1.415728688240051270e+00 -2.608397722244262695e+00 3.159824013710021973e-02
-1.336946368217468262e+00 -2.649827480316162109e+00 3.626095363870263100e-03
-1.366331815719604492e+00 -2.669543743133544922e+00 1.125848442316055298e-01
-1.352724432945251465e+00 -2.640684366226196289e+00 3.624873701483011246e-03
-1.390518665313720703e+00 -2.676184415817260742e+00 1.132226064801216125e-01
-1.369824528694152832e+00 -2.634108781814575195e+00 3.627317026257514954e-03
-1.402717709541320801e+00 -2.659646987915039062e+00 1.128849610686302185e-01
-1.392963528633117676e+00 -2.638919591903686523e+00 3.645643126219511032e-03
-1.415709495544433594e+00 -2.644822835922241211e+00 1.126223579049110413e-01
-1.385045766830444336e+00 -2.585367441177368164e+00 3.583334619179368019e-03
-1.404704213142395020e+00 -2.583848953247070312e+00 3.593108616769313812e-03
-4.460669517517089844e+00 -6.842408657073974609e+00 9.979092516005039215e-03
-4.443035602569580078e+00 -6.724800586700439453e+00 9.847145527601242065e-03
-4.667830944061279297e+00 -6.879960060119628906e+00 1.015746500343084335e-02
-4.614784240722656250e+00 -6.712749004364013672e+00 9.952215477824211121e-03
-4.647883892059326172e+00 -6.672818183898925781e+00 9.935109876096248627e-03
-4.688740253448486328e+00 -6.644173622131347656e+00 9.935109876096248627e-03
-4.736398696899414062e+00 -6.625041007995605469e+00 9.949770756065845490e-03
-4.693081855773925781e+00 -6.480038166046142578e+00 9.775063954293727875e-03
-4.721515178680419922e+00 -6.435800552368164062e+00 9.751850739121437073e-03
-5.029321193695068359e+00 -6.767898559570312500e+00 1.030162908136844635e-02
-5.181766986846923828e+00 -6.711380481719970703e+00 1.035905070602893829e-02
-5.216690540313720703e+00 -6.671582221984863281e+00 1.034683361649513245e-02
-5.220280170440673828e+00 -6.592409133911132812e+00 1.027352921664714813e-02
-5.537770748138427734e+00 -6.905858993530273438e+00 1.081475615501403809e-02
-5.209382057189941406e+00 -6.415288925170898438e+00 1.009637769311666489e-02
-5.620829105377197266e+00 -6.835836887359619141e+00 1.081231236457824707e-02
-5.610839366912841797e+00 -6.738970756530761719e+00 1.071335189044475555e-02
-6.322142601013183594e+00 -6.971817016601562500e+00 1.002030521631240845e-01
-5.394906997680664062e+00 -6.399358272552490234e+00 1.022588275372982025e-02
-6.358715534210205078e+00 -6.926264286041259766e+00 1.001072376966476440e-01
-5.398363590240478516e+00 -6.324302673339843750e+00 1.015868689864873886e-02
-6.427643775939941406e+00 -6.915682315826416016e+00 1.005224362015724182e-01
-5.346830368041992188e+00 -6.186649799346923828e+00 9.990087710320949554e-03
-6.487772464752197266e+00 -6.895047187805175781e+00 1.007992401719093323e-01
-5.417616367340087891e+00 -6.191354274749755859e+00 1.005117408931255341e-02
-6.542371749877929688e+00 -6.868141651153564453e+00 1.009908691048622131e-01
-5.774465084075927734e+00 -6.518029212951660156e+00 1.063882652670145035e-02
-6.601744174957275391e+00 -6.845864295959472656e+00 1.012570336461067200e-01
-5.381679534912109375e+00 -6.000086307525634766e+00 9.847145527601242065e-03
-6.647118091583251953e+00 -6.808805465698242188e+00 1.013102680444717407e-01
-5.418394088745117188e+00 -5.966951847076416016e+00 9.847145527601242065e-03
-6.691582202911376953e+00 -6.770735740661621094e+00 1.013528481125831604e-01
-5.698547840118408203e+00 -6.198616504669189453e+00 1.028696820139884949e-02
-6.771192073822021484e+00 -6.767721176147460938e+00 1.019277498126029968e-01
-5.761001110076904297e+00 -6.189887046813964844e+00 1.033095084130764008e-02
-6.814725399017333984e+00 -6.728154659271240234e+00 1.019596904516220093e-01
-5.568454742431640625e+00 -5.909875392913818359e+00 9.920449927449226379e-03
-6.869482040405273438e+00 -6.699478626251220703e+00 1.021619737148284912e-01
-5.918663501739501953e+00 -6.204832553863525391e+00 1.047633681446313858e-02
-6.918381214141845703e+00 -6.664833068847656250e+00 1.022790744900703430e-01
-5.407155990600585938e+00 -5.599396228790283203e+00 9.509948082268238068e-03
-6.975081920623779297e+00 -6.637422084808349609e+00 1.025132983922958374e-01
-5.694468021392822266e+00 -5.824968814849853516e+00 9.952215477824211121e-03
-7.038991928100585938e+00 -6.616414070129394531e+00 1.028539761900901794e-01
-5.904551029205322266e+00 -5.966188907623291016e+00 1.025520358234643936e-02
-7.082388877868652344e+00 -6.575820922851562500e+00 1.028965711593627930e-01
-6.163996696472167969e+00 -6.152375221252441406e+00 1.064004842191934586e-02
-7.154292106628417969e+00 -6.561302185058593750e+00 1.033543497323989868e-01
-6.242220401763916016e+00 -6.154456615447998047e+00 1.070968806743621826e-02
-7.217390537261962891e+00 -6.538092136383056641e+00 1.036843881011009216e-01
-5.983280658721923828e+00 -5.827191352844238281e+00 1.020389050245285034e-02
-7.268549919128417969e+00 -6.503685951232910156e+00 1.038440912961959839e-01
-6.010274887084960938e+00 -5.782049179077148438e+00 1.018922962248325348e-02
-7.325551509857177734e+00 -6.474194526672363281e+00 1.040889546275138855e-01
-6.129727840423583984e+00 -5.824969291687011719e+00 1.033095084130764008e-02
-7.356852531433105469e+00 -6.421890735626220703e+00 1.039718464016914368e-01
-5.456658840179443359e+00 -5.122015953063964844e+00 9.143428876996040344e-03
-7.434741497039794922e+00 -6.409928798675537109e+00 1.045148000121116638e-01
-6.233746051788330078e+00 -5.779905796051025391e+00 1.038592867553234100e-02
-8.345481872558593750e+00 -6.601513385772705078e+00 2.154615521430969238e-01
-7.484591007232666016e+00 -6.373265743255615234e+00 1.046638488769531250e-01
-6.078093051910400391e+00 -5.566619873046875000e+00 1.006950065493583679e-02
-7.561054706573486328e+00 -6.358757019042968750e+00 1.051855161786079407e-01
-6.502208232879638672e+00 -5.882092475891113281e+00 1.071213092654943466e-02
-7.613005638122558594e+00 -6.323104858398437500e+00 1.053665056824684143e-01
-6.151911735534667969e+00 -5.496942996978759766e+00 1.007927395403385162e-02
-7.675627231597900391e+00 -6.295932292938232422e+00 1.056965440511703491e-01
-6.151785373687744141e+00 -5.429315090179443359e+00 1.002429611980915070e-02
-7.749856472015380859e+00 -6.277669906616210938e+00 1.061862781643867493e-01
-6.420170783996582031e+00 -5.596480369567871094e+00 1.040547620505094528e-02
-7.796818733215332031e+00 -6.236870288848876953e+00 1.063033863902091980e-01
-6.433928489685058594e+00 -5.539365291595458984e+00 1.037248969078063965e-02
-7.863189220428466797e+00 -6.211225986480712891e+00 1.066866517066955566e-01
-6.786995887756347656e+00 -5.771209239959716797e+00 1.088439486920833588e-02
-7.927171707153320312e+00 -6.183156490325927734e+00 1.070379838347434998e-01
-6.838360786437988281e+00 -5.742961883544921875e+00 1.091005094349384308e-02
-7.980805397033691406e+00 -6.146602630615234375e+00 1.072509065270423889e-01
-6.791111469268798828e+00 -5.632585525512695312e+00 1.077932491898536682e-02
-8.045433044433593750e+00 -6.118096828460693359e+00 1.076128855347633362e-01
-6.920698165893554688e+00 -5.668750286102294922e+00 1.092959847301244736e-02
-8.113207817077636719e+00 -6.091430187225341797e+00 1.080174446105957031e-01
-6.792079925537109375e+00 -5.494109153747558594e+00 1.067303493618965149e-02
-8.164891242980957031e+00 -6.052252292633056641e+00 1.082090735435485840e-01
-6.412342071533203125e+00 -5.122170448303222656e+00 1.002674084156751633e-02
-8.241413116455078125e+00 -6.030974388122558594e+00 1.087307408452033997e-01
-6.606174468994140625e+00 -5.210926532745361328e+00 1.027963869273662567e-02
-8.289611816406250000e+00 -5.988490581512451172e+00 1.088797897100448608e-01
-6.436847686767578125e+00 -5.013599872589111328e+00 9.968097321689128876e-03
-8.375863075256347656e+00 -5.972928524017333984e+00 1.095292121171951294e-01
-6.738586425781250000e+00 -5.182504653930664062e+00 1.038592867553234100e-02
-8.428708076477050781e+00 -5.932934284210205078e+00 1.097421422600746155e-01
-6.724863529205322266e+00 -5.106588363647460938e+00 1.031628996133804321e-02
-8.503549575805664062e+00 -5.907920360565185547e+00 1.102425158023834229e-01
-6.546442985534667969e+00 -4.908065795898437500e+00 9.996196255087852478e-03
-1.194724559783935547e+01 -6.994962692260742188e+00 4.079867362976074219e+00
-8.545413017272949219e+00 -5.859590530395507812e+00 1.103170439600944519e-01
-6.611801624298095703e+00 -4.893982887268066406e+00 1.004995312541723251e-02
-8.654910087585449219e+00 -5.856923580169677734e+00 1.112645566463470459e-01
-7.020378589630126953e+00 -5.130030155181884766e+00 1.062294468283653259e-02
-1.225227069854736328e+01 -6.973081111907958984e+00 4.154493808746337891e+00
-1.205385208129882812e+01 -6.862941741943359375e+00 3.522700071334838867e+00
-8.715632438659667969e+00 -5.820368289947509766e+00 1.115839555859565735e-01
-6.556197166442871094e+00 -4.729402542114257812e+00 9.876467287540435791e-03
-1.234418296813964844e+01 -6.925461769104003906e+00 4.171171665191650391e+00
-1.207207012176513672e+01 -6.775568962097167969e+00 3.515807628631591797e+00
-8.757860183715820312e+00 -5.771181583404541016e+00 1.116691231727600098e-01
-6.966317176818847656e+00 -4.960546493530273438e+00 1.044823694974184036e-02
-1.208627700805664062e+01 -6.686354160308837891e+00 3.507930755615234375e+00
-8.821609497070312500e+00 -5.735868930816650391e+00 1.120311021804809570e-01
-7.021167755126953125e+00 -4.934959888458251953e+00 1.048488914966583252e-02
-1.216792297363281250e+01 -6.634339332580566406e+00 3.519746065139770508e+00
-8.881887435913085938e+00 -5.697830200195312500e+00 1.123504862189292908e-01
-7.043099403381347656e+00 -4.886085510253906250e+00 1.047267206013202667e-02
-1.190090942382812500e+01 -6.981960296630859375e+00 3.909587860107421875e+00
-1.219951152801513672e+01 -6.557520866394042969e+00 2.974291563034057617e+00
-8.950479507446289062e+00 -5.664614677429199219e+00 1.127763390541076660e-01
-6.676888465881347656e+00 -4.571600437164306641e+00 9.886240586638450623e-03
-1.172110462188720703e+01 -6.202732086181640625e+00 3.907999992370605469e+00
-1.194186019897460938e+01 -6.907843112945556641e+00 3.909042596817016602e+00
-1.222310161590576172e+01 -6.473847866058349609e+00 2.970302104949951172e+00
-9.003728866577148438e+00 -5.621239185333251953e+00 1.130105629563331604e-01
-6.522527694702148438e+00 -4.407372474670410156e+00 9.617459960281848907e-03
-1.175979328155517578e+01 -6.131138801574707031e+00 3.908282518386840820e+00
-1.223475074768066406e+01 -6.977428913116455078e+00 3.990827560424804688e+00
-1.223398971557617188e+01 -6.383800506591796875e+00 2.963373661041259766e+00
-9.076365470886230469e+00 -5.589482784271240234e+00 1.134896427392959595e-01
-7.045315742492675781e+00 -4.697919845581054688e+00 1.034561172127723694e-02
-1.181511116027832031e+01 -6.068069934844970703e+00 3.914219141006469727e+00
-1.226894664764404297e+01 -6.897511482238769531e+00 3.988101243972778320e+00
-1.197620105743408203e+01 -6.153444766998291016e+00 3.419561624526977539e+00
-1.207970905303955078e+01 -6.785575389862060547e+00 3.369821310043334961e+00
-1.221553897857666016e+01 -6.279113769531250000e+00 2.949516296386718750e+00
-1.214944267272949219e+01 -6.226384639739990234e+00 4.051815867424011230e-01
-9.176298141479492188e+00 -5.573657512664794922e+00 1.143094077706336975e-01
-6.632092475891113281e+00 -4.363827228546142578e+00 9.699316695332527161e-03
-1.188550281524658203e+01 -6.012345314025878906e+00 3.925243377685546875e+00
-1.199038314819335938e+01 -6.068027973175048828e+00 3.412915468215942383e+00
-1.209731578826904297e+01 -6.698149204254150391e+00 3.363204002380371094e+00
-1.215701389312744141e+01 -6.155021190643310547e+00 2.926210641860961914e+00
-1.226229000091552734e+01 -6.205633163452148438e+00 2.428231477737426758e+00
-1.223878574371337891e+01 -6.191055774688720703e+00 1.910513877868652344e+00
-1.220065689086914062e+01 -6.166419982910156250e+00 1.400645971298217773e+00
-1.215196704864501953e+01 -6.136487007141113281e+00 8.970469832420349121e-01
-1.213209342956542969e+01 -6.123794078826904297e+00 4.033422768115997314e-01
-9.236917495727539062e+00 -5.533177375793457031e+00 1.146394461393356323e-01
-7.339798927307128906e+00 -4.765212059020996094e+00 1.069136150181293488e-02
-1.245963859558105469e+01 -6.207056522369384766e+00 4.102198600769042969e+00
-1.202912521362304688e+01 -5.995206832885742188e+00 3.413407802581787109e+00
-1.212027549743652344e+01 -6.614021301269531250e+00 3.358241081237792969e+00
-1.217092704772949219e+01 -6.068531990051269531e+00 2.920541763305664062e+00
-1.224637413024902344e+01 -6.103481769561767578e+00 2.417618036270141602e+00
-1.220296192169189453e+01 -6.079186916351318359e+00 1.899062871932983398e+00
-1.221689033508300781e+01 -6.080803871154785156e+00 1.398199677467346191e+00
-1.216884136199951172e+01 -6.051589012145996094e+00 8.955346941947937012e-01
-1.214795780181884766e+01 -6.038559436798095703e+00 4.026302695274353027e-01
-9.301689147949218750e+00 -5.494705677032470703e+00 1.150227114558219910e-01
-7.193749904632568359e+00 -4.607895851135253906e+00 1.043724082410335541e-02
-1.244237422943115234e+01 -6.103452205657958984e+00 4.084107398986816406e+00
-1.192079448699951172e+01 -6.999395847320556641e+00 3.771387100219726562e+00
-1.217270660400390625e+01 -5.973806381225585938e+00 3.443684816360473633e+00
-1.217089939117431641e+01 -6.545050621032714844e+00 3.361077070236206055e+00
-1.220179080963134766e+01 -5.990722179412841797e+00 2.919072151184082031e+00
-1.221287155151367188e+01 -5.993517398834228516e+00 2.403698682785034180e+00
-1.222402763366699219e+01 -5.996345520019531250e+00 1.896579623222351074e+00
-1.220841407775878906e+01 -5.983400344848632812e+00 1.393001556396484375e+00
-1.219140625000000000e+01 -5.969787597656250000e+00 8.944827318191528320e-01
-1.215246105194091797e+01 -5.948087692260742188e+00 4.015622735023498535e-01
-9.429409980773925781e+00 -5.492385864257812500e+00 1.161831542849540710e-01
-6.987724781036376953e+00 -4.415696144104003906e+00 1.009882241487503052e-02
-1.221096038818359375e+01 -5.897258758544921875e+00 3.996195077896118164e+00
-1.195349884033203125e+01 -6.920319080352783203e+00 3.768228769302368164e+00
-1.230949306488037109e+01 -5.947494506835937500e+00 3.471992254257202148e+00
-1.226406192779541016e+01 -6.498454570770263672e+00 3.375729322433471680e+00
-1.227176952362060547e+01 -5.931909561157226562e+00 2.927050590515136719e+00
-1.225651073455810547e+01 -5.921895027160644531e+00 2.405090570449829102e+00
-1.225613117218017578e+01 -5.919073581695556641e+00 1.895889759063720703e+00
-1.226550483703613281e+01 -5.918321132659912109e+00 1.395345807075500488e+00
-1.224128818511962891e+01 -5.901369571685791016e+00 8.954689502716064453e-01
-1.217702293395996094e+01 -5.867769241333007812e+00 4.011766314506530762e-01
-9.479408264160156250e+00 -5.443886280059814453e+00 1.163854300975799561e-01
-7.104640960693359375e+00 -4.428811073303222656e+00 1.022832561284303665e-02
-1.226077651977539062e+01 -5.828812122344970703e+00 4.000718116760253906e+00
-1.184628200531005859e+01 -6.189549446105957031e+00 3.787183046340942383e+00
-1.198819541931152344e+01 -6.842539787292480469e+00 3.765860080718994141e+00
-1.235013103485107422e+01 -5.873934268951416016e+00 3.473223209381103516e+00
-1.233000755310058594e+01 -5.867002010345458984e+00 2.932299613952636719e+00
-1.225665569305419922e+01 -6.393075942993164062e+00 2.827559471130371094e+00
-1.230328750610351562e+01 -5.851654529571533203e+00 2.407178640365600586e+00
-1.230563735961914062e+01 -5.850138664245605469e+00 1.897959232330322266e+00
-1.233213996887207031e+01 -5.857461452484130859e+00 1.398811340332031250e+00
-1.228538131713867188e+01 -5.829997539520263672e+00 8.960607051849365234e-01
-1.221550750732421875e+01 -5.794227123260498047e+00 4.012656509876251221e-01
-9.589207649230957031e+00 -5.428972721099853516e+00 1.173223108053207397e-01
-7.167459487915039062e+00 -4.407133579254150391e+00 1.027963869273662567e-02
-1.231108093261718750e+01 -5.760382652282714844e+00 4.005523681640625000e+00
-1.187633800506591797e+01 -6.112782478332519531e+00 3.784729480743408203e+00
-1.215775489807128906e+01 -6.840761184692382812e+00 3.805866479873657227e+00
-1.241315269470214844e+01 -5.810783386230468750e+00 3.480853796005249023e+00
-1.198600864410400391e+01 -6.163938999176025391e+00 3.278125286102294922e+00
-1.241889953613281250e+01 -5.816116333007812500e+00 2.944897174835205078e+00
-1.225992393493652344e+01 -6.299392700195312500e+00 2.819343328475952148e+00
-1.241030979156494141e+01 -5.809452533721923828e+00 2.421097755432128906e+00
-1.241486263275146484e+01 -5.808942317962646484e+00 1.909272193908691406e+00
-1.239308166503906250e+01 -5.793478488922119141e+00 1.401665210723876953e+00
-1.237607288360595703e+01 -5.780263900756835938e+00 9.000715613365173340e-01
-1.227256679534912109e+01 -5.729312419891357422e+00 4.019775986671447754e-01
-1.206668186187744141e+01 -6.173504352569580078e+00 2.744538486003875732e-01
-9.631070137023925781e+00 -5.374905109405517578e+00 1.174287796020507812e-01
-7.063543796539306641e+00 -4.283733844757080078e+00 1.009271387010812759e-02
-1.190075016021728516e+01 -6.033270359039306641e+00 3.780640363693237305e+00
-1.226446247100830078e+01 -6.802062988281250000e+00 3.826132774353027344e+00
-1.265720844268798828e+01 -5.830616950988769531e+00 3.539192199707031250e+00
-1.202360439300537109e+01 -6.090278148651123047e+00 3.278125286102294922e+00
-1.210160636901855469e+01 -6.703457832336425781e+00 3.224411249160766602e+00
-1.248454284667968750e+01 -5.753719329833984375e+00 2.952035665512084961e+00
-1.218645477294921875e+01 -6.167422294616699219e+00 2.793692827224731445e+00
-1.247434329986572266e+01 -5.746379375457763672e+00 2.426665544509887695e+00
-1.223392581939697266e+01 -6.186083316802978516e+00 2.284261703491210938e+00
-1.248895740509033203e+01 -5.750469207763671875e+00 1.915204644203186035e+00
-1.223209381103515625e+01 -6.179796218872070312e+00 1.775042653083801270e+00
-1.242749214172363281e+01 -5.716911315917968750e+00 1.401563286781311035e+00
-1.221150398254394531e+01 -6.164044380187988281e+00 1.271374702453613281e+00
-1.244575881958007812e+01 -5.720051288604736328e+00 9.025700688362121582e-01
-1.215944576263427734e+01 -6.132441997528076172e+00 7.685359716415405273e-01
-1.234291458129882812e+01 -5.670175075531005859e+00 4.031346142292022705e-01
-1.208826255798339844e+01 -6.091249465942382812e+00 2.740894258022308350e-01
-9.672630310058593750e+00 -5.320528030395507812e+00 1.175352409482002258e-01
-7.316263675689697266e+00 -4.375821590423583984e+00 1.041525043547153473e-02
-1.279062461853027344e+01 -5.794515609741210938e+00 4.138098716735839844e+00
-1.233523464202880859e+01 -6.158691406250000000e+00 3.906589031219482422e+00
-1.272011280059814453e+01 -5.765247821807861328e+00 3.546822786331176758e+00
-1.207118129730224609e+01 -6.021593093872070312e+00 3.280961275100708008e+00
-1.213310718536376953e+01 -6.623943805694580078e+00 3.221914291381835938e+00
-1.219688606262207031e+01 -6.078983783721923828e+00 2.787480592727661133e+00
-1.222132301330566406e+01 -6.085838317871093750e+00 2.274893045425415039e+00
-1.222449970245361328e+01 -6.082095623016357422e+00 1.768491864204406738e+00
-1.220897293090820312e+01 -6.069055080413818359e+00 1.267210125923156738e+00
-1.217717266082763672e+01 -6.047947406768798828e+00 7.672964334487915039e-01
-1.210212421417236328e+01 -6.005407810211181641e+00 2.735630869865417480e-01
-9.790365219116210938e+00 -5.307302474975585938e+00 1.185679286718368530e-01
-6.777932167053222656e+00 -3.997587919235229492e+00 9.613795205950737000e-03
-1.279527282714843750e+01 -5.702259063720703125e+00 4.128204822540283203e+00
-1.242805004119873047e+01 -6.110055446624755859e+00 3.924036502838134766e+00
-1.216895198822021484e+01 -5.977400302886962891e+00 3.297504425048828125e+00
-1.216494655609130859e+01 -6.544757843017578125e+00 3.219644546508789062e+00
-1.223043823242187500e+01 -6.002304077148437500e+00 2.786679267883300781e+00
-1.223186492919921875e+01 -5.997706890106201172e+00 2.269962310791015625e+00
-1.223487091064453125e+01 -5.993884086608886719e+00 1.764638423919677734e+00
-1.222183513641357422e+01 -5.982208728790283203e+00 1.264711380004882812e+00
-1.218535137176513672e+01 -5.959079742431640625e+00 7.654933929443359375e-01
-1.210371208190917969e+01 -5.913920402526855469e+00 2.727735638618469238e-01
-9.835094451904296875e+00 -5.253726482391357422e+00 1.187169849872589111e-01
-6.779857635498046875e+00 -3.942853212356567383e+00 9.582030586898326874e-03
-1.283704853057861328e+01 -5.626721382141113281e+00 4.130466461181640625e+00
-1.228257846832275391e+01 -5.945235729217529297e+00 3.866514444351196289e+00
-1.198437786102294922e+01 -6.941163539886474609e+00 3.641065835952758789e+00
-1.227975368499755859e+01 -5.938578605651855469e+00 3.317592620849609375e+00
-1.220229339599609375e+01 -6.468623161315917969e+00 3.218963384628295898e+00
-1.228556251525878906e+01 -5.936097145080566406e+00 2.790887355804443359e+00
-1.225244617462158203e+01 -5.914821624755859375e+00 2.267003774642944336e+00
-1.229017639160156250e+01 -5.927746772766113281e+00 1.767335772514343262e+00
-1.226459026336669922e+01 -5.910130023956298828e+00 1.265359282493591309e+00
-1.222528553009033203e+01 -5.885931968688964844e+00 7.657188177108764648e-01
-1.213346481323242188e+01 -5.836508274078369141e+00 2.726318538188934326e-01
-9.910504341125488281e+00 -5.216101169586181641e+00 1.192386522889137268e-01
-7.575144290924072266e+00 -4.343375205993652344e+00 1.066814828664064407e-02
-1.289951992034912109e+01 -5.559998989105224609e+00 4.139512062072753906e+00
-1.229798126220703125e+01 -5.859827041625976562e+00 3.859971523284912109e+00
-1.184636592864990234e+01 -6.195023059844970703e+00 3.647156953811645508e+00
-1.198558902740478516e+01 -6.843998908996582031e+00 3.628607034683227539e+00
-1.232911968231201172e+01 -5.869384288787841797e+00 3.321137428283691406e+00
-1.227110576629638672e+01 -6.408958911895751953e+00 3.226681232452392578e+00
-1.234298801422119141e+01 -5.870701789855957031e+00 2.795696735382080078e+00
-1.229384231567382812e+01 -6.409914016723632812e+00 2.700016975402832031e+00
-1.231879997253417969e+01 -5.853925228118896484e+00 2.272592067718505859e+00
-1.234244251251220703e+01 -5.859880447387695312e+00 1.769647836685180664e+00
-1.231051921844482422e+01 -5.839458942413330078e+00 1.266377329826354980e+00
-1.230086803436279297e+01 -5.829621791839599609e+00 7.681979537010192871e-01
-1.219344520568847656e+01 -5.773500442504882812e+00 2.731784284114837646e-01
-9.960076332092285156e+00 -5.164398670196533203e+00 1.194515675306320190e-01
-6.888670921325683594e+00 -3.893802642822265625e+00 9.667551144957542419e-03
-1.289629840850830078e+01 -5.465024948120117188e+00 4.127639293670654297e+00
-1.235199737548828125e+01 -5.792836189270019531e+00 3.865696430206298828e+00
-1.188586997985839844e+01 -6.123102188110351562e+00 3.647683382034301758e+00
-1.201218700408935547e+01 -6.761788368225097656e+00 3.624030113220214844e+00
-1.243265247344970703e+01 -5.825368404388427734e+00 3.339334726333618164e+00
-1.239031314849853516e+01 -5.800256252288818359e+00 2.798301935195922852e+00
-1.229190444946289062e+01 -6.313282966613769531e+00 2.691032886505126953e+00
-1.242418003082275391e+01 -5.810824394226074219e+00 2.285412073135375977e+00
-1.243297195434570312e+01 -5.809648036956787109e+00 1.777483224868774414e+00
-1.238581562042236328e+01 -5.782346248626708984e+00 1.270449161529541016e+00
-1.237169456481933594e+01 -5.770494461059570312e+00 7.703953385353088379e-01
-1.214935588836669922e+01 -6.213293552398681641e+00 6.411395668983459473e-01
-1.224404716491699219e+01 -5.705753803253173828e+00 2.735225856304168701e-01
-1.005747604370117188e+01 -5.136845111846923828e+00 1.202393993735313416e-01
-6.936892509460449219e+00 -3.865089416503906250e+00 9.701759554445743561e-03
-1.291187953948974609e+01 -5.378415107727050781e+00 4.121985912322998047e+00
-1.193354129791259766e+01 -6.055294990539550781e+00 3.650841712951660156e+00
-1.216508007049560547e+01 -6.749894142150878906e+00 3.657593011856079102e+00
-1.257934284210205078e+01 -5.800238132476806641e+00 3.369112253189086914e+00
-1.207778930664062500e+01 -6.120538711547851562e+00 3.155859947204589844e+00
-1.249596595764160156e+01 -5.756505012512207031e+00 2.814132928848266602e+00
-1.222705841064453125e+01 -6.185458183288574219e+00 2.668477058410644531e+00
-1.250261211395263672e+01 -5.754277229309082031e+00 2.293301343917846680e+00
-1.224282932281494141e+01 -6.190752983093261719e+00 2.153252363204956055e+00
-1.247108840942382812e+01 -5.734494209289550781e+00 1.777868628501892090e+00
-1.218557453155517578e+01 -6.148454189300537109e+00 1.639610886573791504e+00
-1.216430950164794922e+01 -6.132398605346679688e+00 1.136743545532226562e+00
-1.243772029876708984e+01 -5.708634853363037109e+00 7.723110914230346680e-01
-1.214978218078613281e+01 -6.119756698608398438e+00 6.391684412956237793e-01
-1.238152122497558594e+01 -5.677609443664550781e+00 2.758102118968963623e-01
-1.014954853057861328e+01 -5.105593204498291016e+00 1.209633499383926392e-01
-7.254112720489501953e+00 -3.983706951141357422e+00 1.011103857308626175e-02
-1.276906490325927734e+01 -5.798351764678955078e+00 3.973652601242065430e+00
-1.201448440551757812e+01 -6.003952503204345703e+00 3.664264917373657227e+00
-1.221560192108154297e+01 -6.680228233337402344e+00 3.660390138626098633e+00
-1.270052814483642578e+01 -5.761883258819580078e+00 3.392036199569702148e+00
-1.211773109436035156e+01 -6.047620296478271484e+00 3.156540870666503906e+00
-1.215678882598876953e+01 -6.634290695190429688e+00 3.095670938491821289e+00
-1.223578929901123047e+01 -6.095873832702636719e+00 2.662168979644775391e+00
-1.222840976715087891e+01 -6.089533805847167969e+00 2.144104003906250000e+00
-1.217594623565673828e+01 -6.050152778625488281e+00 1.633289575576782227e+00
-1.217671489715576172e+01 -6.045236110687255859e+00 1.134415149688720703e+00
-1.216115379333496094e+01 -6.032219886779785156e+00 6.378074288368225098e-01
-1.244711112976074219e+01 -5.615509986877441406e+00 2.764985263347625732e-01
-1.021025371551513672e+01 -5.057868003845214844e+00 1.213146746158599854e-01
-7.186076641082763672e+00 -3.889144897460937500e+00 9.982758201658725739e-03
-1.277277755737304688e+01 -5.705766201019287109e+00 3.963838577270507812e+00
-1.239214992523193359e+01 -6.097945690155029297e+00 3.767965793609619141e+00
-1.216422462463378906e+01 -5.977878570556640625e+00 3.159037828445434570e+00
-1.217577934265136719e+01 -6.548017024993896484e+00 3.090217351913452148e+00
-1.224123764038085938e+01 -6.005118846893310547e+00 2.655287504196166992e+00
-1.224869155883789062e+01 -6.006123065948486328e+00 2.141157865524291992e+00
-1.222086715698242188e+01 -5.979256153106689453e+00 1.634363055229187012e+00
-1.218940639495849609e+01 -5.958590984344482422e+00 1.132169961929321289e+00
-1.217460060119628906e+01 -5.946089267730712891e+00 6.365872025489807129e-01
-1.257089042663574219e+01 -5.578774452209472656e+00 2.784824669361114502e-01
-1.029681873321533203e+01 -5.022302627563476562e+00 1.219747513532638550e-01
-7.386277675628662109e+00 -3.939091682434082031e+00 1.022710371762514114e-02
-1.293286132812500000e+01 -5.109877586364746094e+00 4.097958564758300781e+00
-1.283925819396972656e+01 -5.641219139099121094e+00 3.973652601242065430e+00
-1.229910087585449219e+01 -5.958698749542236328e+00 3.728485584259033203e+00
-1.221645545959472656e+01 -5.910762310028076172e+00 3.163123607635498047e+00
-1.220020580291748047e+01 -6.464959621429443359e+00 3.086290836334228516e+00
-1.229553127288818359e+01 -5.938432216644287109e+00 2.659110546112060547e+00
-1.226040267944335938e+01 -5.918828010559082031e+00 2.136816501617431641e+00
-1.227521419525146484e+01 -5.912775039672851562e+00 1.636748433113098145e+00
-1.225716686248779297e+01 -5.898811340332031250e+00 1.135080337524414062e+00
-1.224866580963134766e+01 -5.889455318450927734e+00 6.385583281517028809e-01
-1.261679649353027344e+01 -5.506735324859619141e+00 2.787456512451171875e-01
-1.035808849334716797e+01 -4.973743915557861328e+00 1.223367154598236084e-01
-7.419160842895507812e+00 -3.898347616195678711e+00 1.023932080715894699e-02
-1.328679656982421875e+01 -5.155693054199218750e+00 4.200004577636718750e+00
-1.287186241149902344e+01 -5.561569213867187500e+00 3.973107337951660156e+00
-1.232324028015136719e+01 -5.877306461334228516e+00 3.724800825119018555e+00
-1.232283401489257812e+01 -5.869194507598876953e+00 3.181282758712768555e+00
-1.223618412017822266e+01 -6.388172626495361328e+00 3.085418224334716797e+00
-1.233528327941894531e+01 -5.864562988281250000e+00 2.659875154495239258e+00
-1.234734916687011719e+01 -5.867657184600830078e+00 2.145654439926147461e+00
-1.233010292053222656e+01 -5.846277236938476562e+00 1.639253139495849609e+00
-1.231474494934082031e+01 -5.833730697631835938e+00 1.137076139450073242e+00
-1.231888198852539062e+01 -5.830426692962646484e+00 6.403417587280273438e-01
-1.046796798706054688e+01 -4.947696685791015625e+00 1.232735961675643921e-01
-7.802610397338867188e+00 -4.038929939270019531e+00 1.073412131518125534e-02
-1.300714302062988281e+01 -4.955567836761474609e+00 4.101915836334228516e+00
-1.281984901428222656e+01 -5.445994377136230469e+00 3.946663379669189453e+00
-1.238439655303955078e+01 -5.813470363616943359e+00 3.732433795928955078e+00
-1.194258785247802734e+01 -6.155123233795166016e+00 3.532240629196166992e+00
-1.241152381896972656e+01 -5.818275451660156250e+00 3.194902420043945312e+00
-1.228035831451416016e+01 -6.315650463104248047e+00 3.086726903915405273e+00
-1.239592838287353516e+01 -5.800412654876708984e+00 2.665227413177490234e+00
-1.230030918121337891e+01 -6.312343597412109375e+00 2.557405710220336914e+00
-1.243054771423339844e+01 -5.813967704772949219e+00 2.153872489929199219e+00
-1.241252803802490234e+01 -5.792343616485595703e+00 1.645455121994018555e+00
-1.237740325927734375e+01 -5.770691871643066406e+00 1.139570832252502441e+00
-1.237253379821777344e+01 -5.763164997100830078e+00 6.412804126739501953e-01
-1.216132926940917969e+01 -6.206201553344726562e+00 5.125780701637268066e-01
-1.053530216217041016e+01 -4.900665283203125000e+00 1.237101033329963684e-01
-7.844172954559326172e+00 -3.999608516693115234e+00 1.075733453035354614e-02
-1.271985054016113281e+01 -5.311619758605957031e+00 3.905771255493164062e+00
-1.269133567810058594e+01 -5.862792015075683594e+00 3.814025640487670898e+00
-1.194132423400878906e+01 -6.062028884887695312e+00 3.520798921585083008e+00
-1.255222511291503906e+01 -5.790556907653808594e+00 3.221914291381835938e+00
-1.212560749053955078e+01 -6.142278194427490234e+00 3.038299083709716797e+00
-1.249815464019775391e+01 -5.755034446716308594e+00 2.679563760757446289e+00
-1.223349952697753906e+01 -6.183522224426269531e+00 2.535578727722167969e+00
-1.223097229003906250e+01 -6.171527862548828125e+00 2.020566940307617188e+00
-1.248573112487792969e+01 -5.733474254608154297e+00 1.650464534759521484e+00
-1.216647911071777344e+01 -6.130995273590087891e+00 1.506506085395812988e+00
-1.211786460876464844e+01 -6.098543643951416016e+00 1.003362536430358887e+00
-1.240221500396728516e+01 -5.684642791748046875e+00 6.409988403320312500e-01
-1.215900135040283203e+01 -6.111269950866699219e+00 5.108898282051086426e-01
-1.061608982086181641e+01 -4.859234809875488281e+00 1.243062913417816162e-01
-8.006188392639160156e+00 -4.020512580871582031e+00 1.094548124819993973e-02
-1.271125984191894531e+01 -5.777623653411865234e+00 3.809288024902343750e+00
-1.198435020446777344e+01 -5.991671562194824219e+00 3.522578954696655273e+00
-1.214560222625732422e+01 -6.059048175811767578e+00 3.033936500549316406e+00
-1.220518970489501953e+01 -6.075478076934814453e+00 2.521936893463134766e+00
-1.222519779205322266e+01 -6.074792385101318359e+00 2.013417243957519531e+00
-1.219140434265136719e+01 -6.050042152404785156e+00 1.504967451095581055e+00
-1.216399288177490234e+01 -6.028503894805908203e+00 1.004100084304809570e+00
-1.216940212249755859e+01 -6.023250102996826172e+00 5.097643136978149414e-01
-1.068308830261230469e+01 -4.810838699340820312e+00 1.247427910566329956e-01
-8.026225090026855469e+00 -3.969095468521118164e+00 1.093937270343303680e-02
-1.290632057189941406e+01 -5.204422950744628906e+00 3.943119525909423828e+00
-1.278081989288330078e+01 -5.714878559112548828e+00 3.819552898406982422e+00
-1.221177864074707031e+01 -6.012001514434814453e+00 3.578516721725463867e+00
-1.218430328369140625e+01 -5.985270500183105469e+00 3.034372568130493164e+00
-1.222016429901123047e+01 -5.989655017852783203e+00 2.517389535903930664e+00
-1.223647212982177734e+01 -5.987056732177734375e+00 2.009185791015625000e+00
-1.223008251190185547e+01 -5.975996017456054688e+00 1.505187273025512695e+00
-1.218014049530029297e+01 -5.943694114685058594e+00 1.002403616905212402e+00
-1.218008136749267578e+01 -5.935771465301513672e+00 5.086764097213745117e-01
-1.078554725646972656e+01 -4.777596473693847656e+00 1.255944967269897461e-01
-7.516369819641113281e+00 -3.659738779067993164e+00 1.021366473287343979e-02
-1.296216297149658203e+01 -5.134700298309326172e+00 3.950480222702026367e+00
-1.283683872222900391e+01 -5.645670413970947266e+00 3.825869321823120117e+00
-1.230935859680175781e+01 -5.966487407684326172e+00 3.596315622329711914e+00
-1.226384830474853516e+01 -5.931216716766357422e+00 3.045061588287353516e+00
-1.226554107666015625e+01 -5.918833732604980469e+00 2.519208431243896484e+00
-1.227208614349365234e+01 -5.911433219909667969e+00 2.009039878845214844e+00
-1.227995586395263672e+01 -5.907304286956787109e+00 1.506835937500000000e+00
-1.225862979888916016e+01 -5.889143466949462891e+00 1.005870342254638672e+00
-1.220726299285888672e+01 -5.856601238250732422e+00 5.083012580871582031e-01
-1.090358161926269531e+01 -4.750066280364990234e+00 1.266271919012069702e-01
-7.268157005310058594e+00 -3.483877420425415039e+00 9.847145527601242065e-03
-1.301315116882324219e+01 -5.062743663787841797e+00 3.956477642059326172e+00
-1.236144733428955078e+01 -5.898342609405517578e+00 3.600892066955566406e+00
-1.232644462585449219e+01 -5.868440628051757812e+00 3.051605939865112305e+00
-1.235492038726806641e+01 -5.868777275085449219e+00 2.530122041702270508e+00
-1.231974792480468750e+01 -5.841531753540039062e+00 2.010936737060546875e+00
-1.233932781219482422e+01 -5.842904567718505859e+00 1.509693503379821777e+00
-1.234502124786376953e+01 -5.837689399719238281e+00 1.010000944137573242e+00
-1.225561904907226562e+01 -5.787562847137451172e+00 5.088264346122741699e-01
-1.099870204925537109e+01 -4.711422443389892578e+00 1.273937225341796875e-01
-7.677381038665771484e+00 -3.622270107269287109e+00 1.037126779556274414e-02
-1.274978828430175781e+01 -5.421650886535644531e+00 3.779809713363647461e+00
-1.242104244232177734e+01 -5.833484172821044922e+00 3.607757329940795898e+00
-1.242849922180175781e+01 -5.823753356933593750e+00 3.067966699600219727e+00
-1.243345546722412109e+01 -5.812848567962646484e+00 2.538852930068969727e+00
-1.241273403167724609e+01 -5.792604446411132812e+00 2.020275115966796875e+00
-1.241368579864501953e+01 -5.785135269165039062e+00 1.514419436454772949e+00
-1.239236164093017578e+01 -5.767301559448242188e+00 1.010959744453430176e+00
-1.236249065399169922e+01 -5.745526790618896484e+00 5.117901563644409180e-01
-1.111218738555908203e+01 -4.679551124572753906e+00 1.283731758594512939e-01
-7.808301448822021484e+00 -3.625631570816040039e+00 1.051787566393613815e-02
-1.282197856903076172e+01 -5.359688282012939453e+00 3.791390419006347656e+00
-1.265413093566894531e+01 -5.848453044891357422e+00 3.664966821670532227e+00
-1.252692127227783203e+01 -5.776398181915283203e+00 3.083454847335815430e+00
-1.251176738739013672e+01 -5.756175518035888672e+00 2.547583580017089844e+00
-1.238115406036376953e+01 -5.662083148956298828e+00 5.111148953437805176e-01
-1.116933250427246094e+01 -4.623135089874267578e+00 1.287032216787338257e-01
-7.657584667205810547e+00 -3.498694181442260742e+00 1.028574723750352859e-02
-1.270122337341308594e+01 -5.775903701782226562e+00 3.668272256851196289e+00
-1.123639202117919922e+01 -4.570337772369384766e+00 1.291503608226776123e-01
-7.838524818420410156e+00 -3.523389339447021484e+00 1.049955002963542938e-02
-1.279027652740478516e+01 -5.721952915191650391e+00 3.683782339096069336e+00
-1.141464805603027344e+01 -4.561417579650878906e+00 1.308750510215759277e-01
-8.127970695495605469e+00 -3.593709230422973633e+00 1.085751596838235855e-02
-1.147965431213378906e+01 -4.505907058715820312e+00 1.313009113073348999e-01
-7.678502082824707031e+00 -3.338807344436645508e+00 1.022954657673835754e-02
-1.152854633331298828e+01 -4.443656444549560547e+00 1.315457820892333984e-01
-7.783436775207519531e+00 -3.327797412872314453e+00 1.034194603562355042e-02
-1.276617050170898438e+01 -5.431412696838378906e+00 3.647422552108764648e+00
-1.167530250549316406e+01 -4.418134212493896484e+00 1.329085081815719604e-01
-7.928163051605224609e+00 -3.332285881042480469e+00 1.050687953829765320e-02
-1.277695083618164062e+01 -5.343649864196777344e+00 3.641065835952758789e+00
-1.175749683380126953e+01 -4.366953849792480469e+00 1.335366368293762207e-01
-8.337565422058105469e+00 -3.444319486618041992e+00 1.102122850716114044e-02
-1.184607696533203125e+01 -4.317327499389648438e+00 1.342392861843109131e-01
-8.332597732543945312e+00 -3.382564306259155273e+00 1.098701916635036469e-02
-1.190247631072998047e+01 -4.255332469940185547e+00 1.345799714326858521e-01
-8.090330123901367188e+00 -3.226537942886352539e+00 1.064126938581466675e-02
-1.205197620391845703e+01 -4.225560665130615234e+00 1.359746456146240234e-01
-8.812033653259277344e+00 -3.451845884323120117e+00 1.156245544552803040e-02
-1.213346958160400391e+01 -4.170709609985351562e+00 1.366027742624282837e-01
-8.387848854064941406e+00 -3.226461410522460938e+00 1.097968965768814087e-02
-1.224885559082031250e+01 -4.126509666442871094e+00 1.376141756772994995e-01
-8.602075576782226562e+00 -3.248416185379028320e+00 1.123380940407514572e-02
-1.235275840759277344e+01 -4.077288150787353516e+00 1.384978145360946655e-01
-8.294599533081054688e+00 -3.074284315109252930e+00 1.080742571502923965e-02
-1.244509696960449219e+01 -4.023255348205566406e+00 1.392537057399749756e-01
-8.302029609680175781e+00 -3.019230604171752930e+00 1.079276483505964279e-02
-1.259157466888427734e+01 -3.985440969467163086e+00 1.406164318323135376e-01
-8.778143882751464844e+00 -3.131529808044433594e+00 1.138652581721544266e-02
-1.263680553436279297e+01 -3.914615154266357422e+00 1.408506482839584351e-01
-8.140234947204589844e+00 -2.847779273986816406e+00 1.053620129823684692e-02
-1.281083106994628906e+01 -3.882537126541137695e+00 1.425221264362335205e-01
-7.873781204223632812e+00 -2.700452804565429688e+00 1.016968209296464920e-02
-1.292261505126953125e+01 -3.829999685287475586e+00 1.435015946626663208e-01
-8.715811729431152344e+00 -2.929596424102783203e+00 1.123380940407514572e-02
-1.302078723907470703e+01 -3.772340059280395508e+00 1.443320065736770630e-01
-8.537010192871093750e+00 -2.811315536499023438e+00 1.098091155290603638e-02
-1.306966590881347656e+01 -3.699728488922119141e+00 1.446194499731063843e-01
-8.116306304931640625e+00 -2.617682933807373047e+00 1.041891612112522125e-02
-1.328584289550781250e+01 -3.673021554946899414e+00 1.467593610286712646e-01
-8.944673538208007812e+00 -2.824375152587890625e+00 1.145982928574085236e-02
-1.342590904235839844e+01 -3.623216867446899414e+00 1.480582058429718018e-01
-8.316926956176757812e+00 -2.570145368576049805e+00 1.063516177237033844e-02
-1.347786521911621094e+01 -3.548661470413208008e+00 1.483882367610931396e-01
-8.097065925598144531e+00 -2.447877407073974609e+00 1.033461652696132660e-02
-1.361173534393310547e+01 -3.494741439819335938e+00 1.496232151985168457e-01
-7.717796325683593750e+00 -2.281629085540771484e+00 9.832484647631645203e-03
-1.373380661010742188e+01 -3.436398267745971680e+00 1.507304310798645020e-01
-8.296538352966308594e+00 -2.397467136383056641e+00 1.055086217820644379e-02
-1.375269031524658203e+01 -3.351590871810913086e+00 1.507091373205184937e-01
-8.286070823669433594e+00 -2.339450836181640625e+00 1.051909755915403366e-02
-1.406779766082763672e+01 -3.337073802947998047e+00 1.539349704980850220e-01
-9.308640480041503906e+00 -2.566594362258911133e+00 1.179702673107385635e-02
-1.411723899841308594e+01 -3.257437229156494141e+00 1.542543470859527588e-01
-8.938923835754394531e+00 -2.405735969543457031e+00 1.130955573171377182e-02
-1.421013927459716797e+01 -3.187167167663574219e+00 1.550528258085250854e-01
-8.730090141296386719e+00 -2.292179346084594727e+00 1.102733612060546875e-02
-1.439259147644042969e+01 -3.135461091995239258e+00 1.568307578563690186e-01
-8.944522857666015625e+00 -2.289908409118652344e+00 1.128023583441972733e-02
-1.467863845825195312e+01 -3.103560447692871094e+00 1.597371995449066162e-01
-8.018223762512207031e+00 -2.000421762466430664e+00 1.009637769311666489e-02
-1.471111965179443359e+01 -3.016247272491455078e+00 1.598862558603286743e-01
-9.102161407470703125e+00 -2.211611032485961914e+00 1.144394744187593460e-02
-1.475387001037597656e+01 -2.930795669555664062e+00 1.601524204015731812e-01
-9.634252548217773438e+00 -2.278384208679199219e+00 1.209512911736965179e-02
-9.452166557312011719e+00 -2.174169540405273438e+00 1.184956170618534088e-02
-9.327726364135742188e+00 -2.085367679595947266e+00 1.167729776352643967e-02
-8.883003234863281250e+00 -1.928790569305419922e+00 1.110552717000246048e-02
-8.815411567687988281e+00 -1.857547998428344727e+00 1.100656762719154358e-02
-4.983096122741699219e+00 -4.655575454235076904e-01 1.485389024019241333e-01
-8.049695014953613281e+00 -1.644679903984069824e+00 1.003773603588342667e-02
-4.973909378051757812e+00 -4.339305758476257324e-01 1.481828987598419189e-01
-9.246606826782226562e+00 -1.830196142196655273e+00 1.151602901518344879e-02
-4.967511177062988281e+00 -4.026761949062347412e-01 1.479158997535705566e-01
-9.418733596801757812e+00 -1.804280757904052734e+00 1.171639282256364822e-02
-9.701994895935058594e+00 -1.796899676322937012e+00 1.205481216311454773e-02
-9.705946922302246094e+00 -1.736102938652038574e+00 1.204625982791185379e-02
-9.494692802429199219e+00 -1.638258457183837891e+00 1.177137065678834915e-02
-4.978614330291748047e+00 -4.616877436637878418e-01 1.012424305081367493e-01
-9.547971725463867188e+00 -1.587184548377990723e+00 1.182512752711772919e-02
-4.981353282928466797e+00 -4.311308562755584717e-01 1.012424305081367493e-01
-8.468372344970703125e+00 -1.354376554489135742e+00 1.047755777835845947e-02
-4.988887310028076172e+00 -4.009581804275512695e-01 1.013436466455459595e-01
-9.920577049255371094e+00 -1.524264216423034668e+00 1.226250641047954559e-02
-1.010386180877685547e+01 -1.489024281501770020e+00 1.247753016650676727e-02
-9.347392082214355469e+00 -1.318993568420410156e+00 1.153313368558883667e-02
-4.949893474578857422e+00 -4.862408041954040527e-01 5.295473709702491760e-02
-9.918212890625000000e+00 -1.337524890899658203e+00 1.222707610577344894e-02
-4.970706939697265625e+00 -4.575093090534210205e-01 5.314636602997779846e-02
-1.012757492065429688e+01 -1.302537798881530762e+00 1.247508730739355087e-02
-4.964454174041748047e+00 -4.262312054634094238e-01 5.305055156350135803e-02
-1.013835430145263672e+01 -1.240736126899719238e+00 1.247875299304723740e-02
-4.964982509613037109e+00 -3.956030309200286865e-01 5.302926152944564819e-02
-1.019643592834472656e+01 -1.184389352798461914e+00 1.254106033593416214e-02
-9.049465179443359375e+00 -9.949238896369934082e-01 1.112263184040784836e-02
-9.771555900573730469e+00 -1.013670563697814941e+00 1.200227718800306320e-02
-4.973394393920898438e+00 -4.850987792015075684e-01 6.104985717684030533e-03
-4.983565807342529297e+00 -4.569934010505676270e-01 1.878790110349655151e-01
-4.994203090667724609e+00 -4.562109410762786865e-01 6.126977037638425827e-03
-5.001210689544677734e+00 -4.276833832263946533e-01 1.884417384862899780e-01
-4.993918895721435547e+00 -4.253039062023162842e-01 6.123311817646026611e-03
-4.971512317657470703e+00 -3.926852643489837646e-01 6.092769093811511993e-03
-1.014214134216308594e+01 -7.385080456733703613e-01 1.242377515882253647e-02
-1.018040561676025391e+01 -6.785241961479187012e-01 1.246531307697296143e-02
-1.126739692687988281e+01 -6.815567016601562500e-01 1.379089057445526123e-02
-9.665736198425292969e+00 -5.251695513725280762e-01 1.182634849101305008e-02
-9.966431617736816406e+00 -4.801931381225585938e-01 1.219042483717203140e-02
-8.880152702331542969e+00 -3.732560873031616211e-01 1.085873879492282867e-02
-9.922605514526367188e+00 -3.560961782932281494e-01 1.213056035339832306e-02
-1.012551403045654297e+01 -3.011815547943115234e-01 1.237612683326005936e-02
-1.067102050781250000e+01 -2.518841624259948730e-01 1.304074842482805252e-02
-1.064736843109130859e+01 -1.859666854143142700e-01 1.301020476967096329e-02
-1.070630550384521484e+01 -1.212891936302185059e-01 1.308106631040573120e-02
-1.078284740447998047e+01 -5.598887056112289429e-02 1.317391730844974518e-02
-1.071398830413818359e+01 1.010938547551631927e-02 1.308961771428585052e-02
-1.452762603759765625e+01 1.028499230742454529e-01 1.774929650127887726e-02
-1.060206699371337891e+01 1.401188671588897705e-01 1.295400597155094147e-02
-1.036805152893066406e+01 2.006607204675674438e-01 1.266934257000684738e-02
-1.004872798919677734e+01 2.561700344085693359e-01 1.228083204478025436e-02
-1.298549556732177734e+01 4.107796549797058105e-01 1.587271876633167267e-02
-1.111206626892089844e+01 4.197812378406524658e-01 1.358564011752605438e-02
-1.443007659912109375e+01 6.338157653808593750e-01 1.764667034149169922e-02
-7.519629955291748047e+00 2.896919965744018555e+00 1.631701588630676270e-01
-7.482168197631835938e+00 2.935337066650390625e+00 1.627450287342071533e-01
-7.515021324157714844e+00 2.901076793670654297e+00 8.576665818691253662e-02
-7.485911369323730469e+00 2.942743539810180664e+00 8.563890308141708374e-02
-7.518050193786621094e+00 2.855276346206665039e+00 9.825155138969421387e-03
-7.491994380950927734e+00 2.898105144500732422e+00 9.814158082008361816e-03
-7.468488693237304688e+00 2.941821813583374023e+00 9.806828573346138000e-03
-3.186453819274902344e+00 4.461887836456298828e+00 1.110204905271530151e-01
-3.120997428894042969e+00 4.427422523498535156e+00 1.096843630075454712e-01
-3.069219112396240234e+00 4.411200046539306641e+00 1.088138520717620850e-01
-3.126962900161743164e+00 4.384953022003173828e+00 5.734101310372352600e-02
-3.106905221939086914e+00 4.413869380950927734e+00 5.746876820921897888e-02
-3.065500259399414062e+00 4.412319660186767578e+00 5.720261111855506897e-02
-3.078743219375610352e+00 4.380252838134765625e+00 6.541143637150526047e-03
-3.054088592529296875e+00 4.402348041534423828e+00 6.546030752360820770e-03
