-4.026626236736774445e-03 -7.517930269241333008e-01 4.242724552750587463e-02
-4.053838551044464111e-03 -7.344362735748291016e-01 6.128602847456932068e-02
-4.661918804049491882e-02 -7.014227509498596191e-01 6.533633172512054443e-02
-5.807821452617645264e-02 -7.211554646492004395e-01 2.716142125427722931e-02
-1.146817877888679504e-01 -7.147092223167419434e-01 1.465697214007377625e-02
-6.563756614923477173e-02 -6.659452915191650391e-01 4.949321597814559937e-02
-1.054857000708580017e-01 -7.124385833740234375e-01 3.383805230259895325e-02
-1.312986612319946289e+00 -2.050595045089721680e+00 7.226697355508804321e-02
-1.323367595672607422e+00 -2.039146184921264648e+00 7.214830815792083740e-02
-1.364443778991699219e+00 -2.075242519378662109e+00 1.636553555727005005e-01
-1.338051795959472656e+00 -2.034328222274780273e+00 7.226697355508804321e-02
-1.370512008666992188e+00 -2.056866884231567383e+00 1.628663390874862671e-01
-1.343301773071289062e+00 -2.015267372131347656e+00 7.188130915164947510e-02
-1.379198193550109863e+00 -2.042629957199096680e+00 1.624060720205307007e-01
-1.346130728721618652e+00 -1.992905974388122559e+00 7.137698680162429810e-02
-1.393959403038024902e+00 -2.037423133850097656e+00 1.626690924167633057e-01
-1.355510711669921875e+00 -1.980484366416931152e+00 7.122865319252014160e-02
-1.353397011756896973e+00 -1.951595425605773926e+00 7.048700004816055298e-02
-1.320641517639160156e+00 -2.059432268142700195e+00 4.953813552856445312e-02
-1.340481400489807129e+00 -2.063987731933593750e+00 1.388886570930480957e-01
-1.326714873313903809e+00 -2.041230916976928711e+00 4.929520562291145325e-02
-1.355316162109375000e+00 -2.059059619903564453e+00 1.391140371561050415e-01
-1.341964602470397949e+00 -2.037226438522338867e+00 4.939642548561096191e-02
-1.370695114135742188e+00 -2.054857730865478516e+00 1.393957585096359253e-01
-1.338341593742370605e+00 -2.004839181900024414e+00 4.880933463573455811e-02
-1.388309717178344727e+00 -2.053853034973144531e+00 1.399028450250625610e-01
-1.348937392234802246e+00 -1.994105458259582520e+00 4.874860867857933044e-02
-1.404271006584167480e+00 -2.050238370895385742e+00 1.402409225702285767e-01
-1.367930650711059570e+00 -1.995686769485473633e+00 4.899153858423233032e-02
-1.327883601188659668e+00 -2.069980382919311523e+00 1.155468598008155823e-01
-1.384712815284729004e+00 -1.993825316429138184e+00 4.915349557995796204e-02
-1.314687609672546387e+00 -2.047050237655639648e+00 2.590246684849262238e-02
-1.341104269027709961e+00 -2.062631130218505859e+00 1.155937910079956055e-01
-1.326132297515869141e+00 -2.037269115447998047e+00 2.588117495179176331e-02
-1.354834437370300293e+00 -2.056031703948974609e+00 1.156876608729362488e-01
-1.352373719215393066e+00 -2.049960374832153320e+00 2.614733204245567322e-02
-1.374081373214721680e+00 -2.057648181915283203e+00 1.162508502602577209e-01
-1.367705464363098145e+00 -2.045780420303344727e+00 2.620056457817554474e-02
-1.383322000503540039e+00 -2.044214487075805664e+00 1.159692555665969849e-01
-1.366772055625915527e+00 -2.017481088638305664e+00 2.594505064189434052e-02
-1.399793267250061035e+00 -2.041455030441284180e+00 1.162977814674377441e-01
-1.389311790466308594e+00 -2.023895978927612305e+00 2.613668702542781830e-02
-1.315910458564758301e+00 -2.073718070983886719e+00 3.000569297000765800e-03
-1.320471405982971191e+00 -2.054527759552001953e+00 9.168855100870132446e-02
-1.408555507659912109e+00 -2.025184154510498047e+00 2.626444026827812195e-02
-1.326445937156677246e+00 -2.062240600585937500e+00 2.995682647451758385e-03
-1.345061779022216797e+00 -2.067187786102294922e+00 1.824094206094741821e-01
-1.339598178863525391e+00 -2.056434631347656250e+00 9.213874489068984985e-02
-1.335798025131225586e+00 -2.049036741256713867e+00 2.988352207466959953e-03
-1.361563563346862793e+00 -2.064723491668701172e+00 1.829257458448410034e-01
-1.346685409545898438e+00 -2.039836883544921875e+00 9.176358580589294434e-02
-1.343935608863830566e+00 -2.034127235412597656e+00 2.978578442707657814e-03
-1.370882272720336914e+00 -2.051355361938476562e+00 1.824831962585449219e-01
-1.360287547111511230e+00 -2.033196449279785156e+00 9.183862060308456421e-02
-1.363624095916748047e+00 -2.036644935607910156e+00 2.994460985064506531e-03
-1.368345022201538086e+00 -2.020609855651855469e+00 1.804916560649871826e-01
-1.372176647186279297e+00 -2.023984432220458984e+00 9.180109947919845581e-02
-1.374410629272460938e+00 -2.025757074356079102e+00 2.990795765072107315e-03
-1.384548425674438477e+00 -2.013989210128784180e+00 2.985908649861812592e-03
-1.414026737213134766e+00 -2.030072927474975586e+00 3.022560616955161095e-03
-6.003905773162841797e+00 -6.777014255523681641e+00 1.106154639273881912e-02
-6.135515213012695312e+00 -6.840544700622558594e+00 1.122647896409034729e-02
-6.455918788909912109e+00 -6.936538696289062500e+00 1.157711632549762726e-02
-6.037521362304687500e+00 -6.407702445983886719e+00 1.075611356645822525e-02
-6.647539138793945312e+00 -6.968949317932128906e+00 1.176648400723934174e-02
-6.347381591796875000e+00 -6.492845535278320312e+00 1.109331101179122925e-02
-7.004123687744140625e+00 -6.990918159484863281e+00 1.209024246782064438e-02
-6.728580474853515625e+00 -6.633978843688964844e+00 1.154412887990474701e-02
-6.592211246490478516e+00 -6.420236587524414062e+00 1.124236173927783966e-02
-7.164046764373779297e+00 -6.892009258270263672e+00 1.214522123336791992e-02
-7.307685375213623047e+00 -6.944361209869384766e+00 1.231626234948635101e-02
-7.327555179595947266e+00 -6.878174781799316406e+00 1.227838825434446335e-02
-6.939909934997558594e+00 -6.434658050537109375e+00 1.156245544552803040e-02
-7.309640884399414062e+00 -6.694531917572021484e+00 1.210978999733924866e-02
-7.361703395843505859e+00 -6.659617424011230469e+00 1.212811563163995743e-02
-7.448660373687744141e+00 -6.655632019042968750e+00 1.220386289060115814e-02
-7.590576171875000000e+00 -6.699133396148681641e+00 1.236879732459783554e-02
-7.717472553253173828e+00 -6.727341651916503906e+00 1.250807475298643112e-02
-7.750268936157226562e+00 -6.672683715820312500e+00 1.249463483691215515e-02
-7.449773311614990234e+00 -6.334791183471679688e+00 1.194729935377836227e-02
-7.657738685607910156e+00 -6.431087970733642578e+00 1.221730187535285950e-02
-6.462447643280029297e+00 -5.359990119934082031e+00 1.025764737278223038e-02
-7.432827472686767578e+00 -6.088235855102539062e+00 1.173838414251804352e-02
-8.120796203613281250e+00 -6.568907260894775391e+00 1.276097260415554047e-02
-8.057814598083496094e+00 -6.436571121215820312e+00 1.259970385581254959e-02
-8.005294799804687500e+00 -6.314548015594482422e+00 1.245676074177026749e-02
-8.013911247253417969e+00 -6.241959571838378906e+00 1.241033617407083511e-02
-7.539987087249755859e+00 -5.798845291137695312e+00 1.162109710276126862e-02
-7.929031372070312500e+00 -6.020984649658203125e+00 1.216354593634605408e-02
-7.687390804290771484e+00 -5.763468265533447266e+00 1.173838414251804352e-02
-7.604455471038818359e+00 -5.628734588623046875e+00 1.155878975987434387e-02
-7.544384002685546875e+00 -5.512938976287841797e+00 1.141584757715463638e-02
-7.305569171905517578e+00 -5.269972324371337891e+00 1.100534573197364807e-02
-6.998086452484130859e+00 -4.983168125152587891e+00 1.049588434398174286e-02
-7.017894744873046875e+00 -4.932659149169921875e+00 1.048000156879425049e-02
-7.177026748657226562e+00 -4.978996753692626953e+00 1.067181397229433060e-02
-7.492934226989746094e+00 -5.130339145660400391e+00 1.109453197568655014e-02
-7.587244033813476562e+00 -5.126817703247070312e+00 1.118738390505313873e-02
-7.394752979278564453e+00 -4.930929660797119141e+00 1.085873879492282867e-02
-6.953713893890380859e+00 -4.575449466705322266e+00 1.016968209296464920e-02
-7.799427509307861328e+00 -5.063616752624511719e+00 1.136086974292993546e-02
-8.135177612304687500e+00 -5.210918903350830078e+00 1.180313527584075928e-02
-8.013988494873046875e+00 -5.064214229583740234e+00 1.158200297504663467e-02
-8.039818763732910156e+00 -5.011771678924560547e+00 1.157467160373926163e-02
-7.683680057525634766e+00 -4.724547863006591797e+00 1.102000661194324493e-02
-8.062238693237304688e+00 -4.889399528503417969e+00 1.151969470083713531e-02
-8.118692398071289062e+00 -4.855750083923339844e+00 1.155756786465644836e-02
-8.146611213684082031e+00 -4.804827213287353516e+00 1.155512407422065735e-02
-8.063561439514160156e+00 -4.689395904541015625e+00 1.139629911631345749e-02
-8.080038070678710938e+00 -4.632866859436035156e+00 1.137919537723064423e-02
-8.008199691772460938e+00 -4.526612758636474609e+00 1.123869605362415314e-02
-8.164236068725585938e+00 -4.548939228057861328e+00 1.141829136759042740e-02
-8.480370521545410156e+00 -4.657124996185302734e+00 1.182023994624614716e-02
-8.273090362548828125e+00 -4.477443218231201172e+00 1.149281673133373260e-02
-8.298643112182617188e+00 -4.425654888153076172e+00 1.149037294089794159e-02
-8.278724670410156250e+00 -4.349999427795410156e+00 1.142562087625265121e-02
-7.807939529418945312e+00 -4.041687965393066406e+00 1.074145268648862839e-02
-8.492731094360351562e+00 -4.330296993255615234e+00 1.164675410836935043e-02
-7.856949329376220703e+00 -3.945568323135375977e+00 1.074145268648862839e-02
-8.391949653625488281e+00 -4.149951934814453125e+00 1.143783889710903168e-02
-8.505365371704101562e+00 -4.141283035278320312e+00 1.155756786465644836e-02
-8.528812408447265625e+00 -4.088152885437011719e+00 1.155512407422065735e-02
-8.456062316894531250e+00 -3.989660263061523438e+00 1.142317801713943481e-02
-8.533895492553710938e+00 -3.962547302246093750e+00 1.149525959044694901e-02
-8.596250534057617188e+00 -3.927563428878784180e+00 1.154657173901796341e-02
-8.642990112304687500e+00 -3.884993791580200195e+00 1.157711632549762726e-02
-8.480088233947753906e+00 -3.749394893646240234e+00 1.132788229733705521e-02
-8.616649627685546875e+00 -3.746737718582153320e+00 1.147937774658203125e-02
-8.575112342834472656e+00 -3.666277647018432617e+00 1.139385625720024109e-02
-8.602978706359863281e+00 -3.615917682647705078e+00 1.140118669718503952e-02
-8.638867378234863281e+00 -3.568789720535278320e+00 1.141951233148574829e-02
-8.354835510253906250e+00 -3.391591548919677734e+00 1.101634092628955841e-02
-8.499027252197265625e+00 -3.389532089233398438e+00 1.117883156985044479e-02
-8.443313598632812500e+00 -3.307411193847656250e+00 1.107865013182163239e-02
-8.966513633728027344e+00 -3.449050188064575195e+00 1.173716224730014801e-02
-8.987507820129394531e+00 -3.393967866897583008e+00 1.173716224730014801e-02
-9.016602516174316406e+00 -3.341885328292846680e+00 1.174815744161605835e-02
-8.891272544860839844e+00 -3.233522653579711914e+00 1.155878975987434387e-02
-8.665120124816894531e+00 -3.091209888458251953e+00 1.123991888016462326e-02
-8.712241172790527344e+00 -3.047889947891235352e+00 1.127657014876604080e-02
-8.597405433654785156e+00 -2.948632240295410156e+00 1.110430620610713959e-02
-8.785954475402832031e+00 -2.953173398971557617e+00 1.132421661168336868e-02
-9.005272865295410156e+00 -2.965518951416015625e+00 1.158322487026453018e-02
-8.815823554992675781e+00 -2.843292236328125000e+00 1.131688710302114487e-02
-8.827381134033203125e+00 -2.787338972091674805e+00 1.130955573171377182e-02
-8.814701080322265625e+00 -2.723970174789428711e+00 1.127168349921703339e-02
-9.064807891845703125e+00 -2.740441799163818359e+00 1.156978495419025421e-02
-9.062273979187011719e+00 -2.679099798202514648e+00 1.154535077512264252e-02
-8.982472419738769531e+00 -2.595682859420776367e+00 1.142317801713943481e-02
-8.832700729370117188e+00 -2.493783950805664062e+00 1.121303997933864594e-02
-9.027145385742187500e+00 -2.488979816436767578e+00 1.144028175622224808e-02
-8.848154067993164062e+00 -2.381306886672973633e+00 1.119471341371536255e-02
-8.853893280029296875e+00 -2.324685335159301758e+00 1.118371821939945221e-02
-8.764334678649902344e+00 -2.243777751922607422e+00 1.105299405753612518e-02
-8.892427444458007812e+00 -2.218522071838378906e+00 1.119715720415115356e-02
-9.024423599243164062e+00 -2.192722558975219727e+00 1.134620886296033859e-02
-8.558914184570312500e+00 -2.024079561233520508e+00 1.074511650949716568e-02
-9.045779228210449219e+00 -2.080693006515502930e+00 1.134010031819343567e-02
-9.007628440856933594e+00 -2.013804674148559570e+00 1.127657014876604080e-02
-9.081380844116210938e+00 -1.971864700317382812e+00 1.135353837162256241e-02
-9.064932823181152344e+00 -1.910125970840454102e+00 1.131810899823904037e-02
-9.077461242675781250e+00 -1.854668736457824707e+00 1.131933089345693588e-02
-9.107309341430664062e+00 -1.802624702453613281e+00 1.134254317730665207e-02
-9.106412887573242188e+00 -1.744451642036437988e+00 1.132788229733705521e-02
-9.207406044006347656e+00 -1.705297231674194336e+00 1.144028175622224808e-02
-9.221633911132812500e+00 -1.649473786354064941e+00 1.144516840577125549e-02
-9.096576690673828125e+00 -1.569565653800964355e+00 1.127779204398393631e-02
-9.115900039672851562e+00 -1.515360236167907715e+00 1.129000913351774216e-02
-9.158600807189941406e+00 -1.464767098426818848e+00 1.133154798299074173e-02
-9.130845069885253906e+00 -1.402924537658691406e+00 1.128634437918663025e-02
-9.139281272888183594e+00 -1.346872329711914062e+00 1.128634437918663025e-02
-9.172127723693847656e+00 -1.294262409210205078e+00 1.131688710302114487e-02
-9.194762229919433594e+00 -1.239963650703430176e+00 1.133521366864442825e-02
-9.219058036804199219e+00 -1.185690760612487793e+00 1.135598216205835342e-02
-9.340309143066406250e+00 -1.143070936203002930e+00 1.149648148566484451e-02
-8.482956886291503906e+00 -9.853565692901611328e-01 1.043357606977224350e-02
-9.228386878967285156e+00 -1.014595031738281250e+00 1.134254317730665207e-02
-9.202610015869140625e+00 -9.546498656272888184e-01 1.130344811826944351e-02
-8.912697792053222656e+00 -8.693335652351379395e-01 1.094059459865093231e-02
-8.961681365966796875e+00 -8.186325430870056152e-01 1.099435053765773773e-02
-8.977495193481445312e+00 -7.645626664161682129e-01 1.100778952240943909e-02
-9.053794860839843750e+00 -7.151328921318054199e-01 1.109575387090444565e-02
-8.915389060974121094e+00 -6.491811871528625488e-01 1.092104613780975342e-02
-8.944149971008300781e+00 -5.961277484893798828e-01 1.095158979296684265e-02
-8.943646430969238281e+00 -5.409947037696838379e-01 1.094670221209526062e-02
-8.943801879882812500e+00 -4.859445989131927490e-01 1.094303838908672333e-02
-8.989564895629882812e+00 -4.331266582012176514e-01 1.099557150155305862e-02
-8.899136543273925781e+00 -3.740540146827697754e-01 1.088195107877254486e-02
-8.849297523498535156e+00 -3.175779581069946289e-01 1.081842090934514999e-02
-8.827089309692382812e+00 -2.625601589679718018e-01 1.078909914940595627e-02
-8.843530654907226562e+00 -2.087471783161163330e-01 1.080742571502923965e-02
-8.883638381958007812e+00 -1.551614254713058472e-01 1.085507310926914215e-02
-8.862425804138183594e+00 -1.004003137350082397e-01 1.082819513976573944e-02
-8.884873390197753906e+00 -4.613383114337921143e-02 1.085507310926914215e-02
-8.830989837646484375e+00 8.332647383213043213e-03 1.078909914940595627e-02
-8.825772285461425781e+00 6.248302757740020752e-02 1.078299060463905334e-02
-8.805225372314453125e+00 1.163714826107025146e-01 1.075855642557144165e-02
-8.683367729187011719e+00 1.680557578802108765e-01 1.061072666198015213e-02
-8.645185470581054688e+00 2.203898280858993530e-01 1.056552305817604065e-02
-8.637673377990722656e+00 2.732418179512023926e-01 1.055819261819124222e-02
-1.466903400421142578e+01 1.085833907127380371e+00 1.566071957349777222e-01
-8.318060874938964844e+00 3.142319023609161377e-01 1.016968209296464920e-02
-8.293996810913085938e+00 3.642992675304412842e-01 1.014280412346124649e-02
-1.469943523406982422e+01 1.269635915756225586e+00 1.570862829685211182e-01
-8.467386245727539062e+00 4.239852130413055420e-01 1.035782881081104279e-02
-1.482379436492919922e+01 1.372063040733337402e+00 1.585022211074829102e-01
-8.448650360107421875e+00 4.750339388847351074e-01 1.033828221261501312e-02
-8.433599472045898438e+00 5.261178016662597656e-01 1.032362133264541626e-02
-8.430212974548339844e+00 5.778554677963256836e-01 1.032362133264541626e-02
-8.208116531372070312e+00 6.132546663284301758e-01 1.005606073886156082e-02
-8.476310729980468750e+00 6.856172680854797363e-01 1.038959436118602753e-02
-8.415159225463867188e+00 7.326700091361999512e-01 1.031995564699172974e-02
-8.314920425415039062e+00 7.753772139549255371e-01 1.020266953855752945e-02
-8.312991142272949219e+00 8.266788125038146973e-01 1.020633429288864136e-02
-8.320690155029296875e+00 8.790366649627685547e-01 1.022221706807613373e-02
-8.181970596313476562e+00 9.151794910430908203e-01 1.005850546061992645e-02
-1.483429431915283203e+01 2.297464370727539062e+00 1.598223745822906494e-01
-8.296365737915039062e+00 9.795537590980529785e-01 1.020633429288864136e-02
-8.009360313415527344e+00 9.955336451530456543e-01 9.860584512352943420e-03
-8.124075889587402344e+00 1.060450434684753418e+00 1.000963617116212845e-02
-1.495992755889892578e+01 2.599744319915771484e+00 1.616641879081726074e-01
-7.923223495483398438e+00 1.083717703819274902e+00 9.770176373422145844e-03
-1.495747184753417969e+01 2.693969011306762695e+00 1.618132293224334717e-01
-7.910485267639160156e+00 1.131463766098022461e+00 9.762845933437347412e-03
-1.493476295471191406e+01 2.784596204757690430e+00 1.617493480443954468e-01
-7.907350063323974609e+00 1.180570960044860840e+00 9.767733514308929443e-03
-7.913791656494140625e+00 1.231219649314880371e+00 9.784838184714317322e-03
-7.960380554199218750e+00 1.288542866706848145e+00 9.852032177150249481e-03
-4.903324604034423828e+00 1.383457899093627930e+00 1.512088477611541748e-01
-7.988812446594238281e+00 1.343498945236206055e+00 9.897236712276935577e-03
-4.880338668823242188e+00 1.409358263015747070e+00 1.507638543844223022e-01
-7.948894500732421875e+00 1.386991381645202637e+00 9.858140721917152405e-03
-4.851468563079833984e+00 1.433329582214355469e+00 1.501408666372299194e-01
-7.935314178466796875e+00 1.434849143028259277e+00 9.852032177150249481e-03
-8.047261238098144531e+00 1.506140351295471191e+00 1.000230479985475540e-02
-7.883728504180908203e+00 1.525659918785095215e+00 9.810494258999824524e-03
-4.867615222930908203e+00 1.344792842864990234e+00 1.022546514868736267e-01
-7.873238086700439453e+00 1.573808670043945312e+00 9.809272363781929016e-03
-4.870816707611083984e+00 1.377900481224060059e+00 1.024975851178169250e-01
-7.873227119445800781e+00 1.624108672142028809e+00 9.821489453315734863e-03
-4.862270355224609375e+00 1.407761335372924805e+00 1.024975851178169250e-01
-1.458653640747070312e+01 3.657711267471313477e+00 1.601098179817199707e-01
-7.765301704406738281e+00 1.651583909988403320e+00 9.699316695332527161e-03
-4.844913482666015625e+00 1.435013771057128906e+00 1.023153886198997498e-01
-1.456478786468505859e+01 3.747392892837524414e+00 1.601204723119735718e-01
-7.766742706298828125e+00 1.701768159866333008e+00 9.713976643979549408e-03
-4.809224605560302734e+00 1.456599712371826172e+00 1.017485335469245911e-01
-7.763958930969238281e+00 1.751152157783508301e+00 9.723750874400138855e-03
-7.591362953186035156e+00 1.761241436004638672e+00 9.520943276584148407e-03
-4.869339466094970703e+00 1.348871588706970215e+00 5.379579588770866394e-02
-7.652394771575927734e+00 1.824954271316528320e+00 9.611352346837520599e-03
-4.958490371704101562e+00 1.403578758239746094e+00 2.421227842569351196e-01
-4.855198860168457031e+00 1.377086758613586426e+00 5.373191833496093750e-02
-7.604144573211669922e+00 1.862832427024841309e+00 9.564925916492938995e-03
-4.873988628387451172e+00 1.412018537521362305e+00 2.384151369333267212e-01
-4.848578453063964844e+00 1.407409191131591797e+00 5.375320836901664734e-02
-7.641060829162597656e+00 1.921650171279907227e+00 9.626012295484542847e-03
-4.851354598999023438e+00 1.440548777580261230e+00 5.388096347451210022e-02
-7.606855869293212891e+00 1.962752342224121094e+00 9.597912430763244629e-03
-4.849121570587158203e+00 1.472322583198547363e+00 5.395548790693283081e-02
-7.545365810394287109e+00 1.996345520019531250e+00 9.535604156553745270e-03
-1.468234062194824219e+01 4.556529998779296875e+00 1.636763364076614380e-01
-7.524288177490234375e+00 2.040250062942504883e+00 9.524608962237834930e-03
-1.419467639923095703e+01 4.500856876373291016e+00 1.585448235273361206e-01
-4.898552417755126953e+00 1.360589385032653809e+00 6.211276166141033173e-03
-4.886196613311767578e+00 1.387663960456848145e+00 1.906926780939102173e-01
-4.881454944610595703e+00 1.388159036636352539e+00 6.200280971825122833e-03
-4.871832370758056641e+00 1.415945649147033691e+00 1.904675811529159546e-01
-1.493776512145996094e+01 4.939018726348876953e+00 1.675090044736862183e-01
-4.875725746154785156e+00 1.418923139572143555e+00 6.203945726156234741e-03
-4.893703937530517578e+00 1.454924821853637695e+00 1.916680932044982910e-01
-4.885138034820556641e+00 1.454234242439270020e+00 6.227158941328525543e-03
-1.385681438446044922e+01 4.771029949188232422e+00 1.560322940349578857e-01
-4.856989860534667969e+00 1.478357791900634766e+00 6.202724296599626541e-03
-1.291967391967773438e+01 4.537224769592285156e+00 1.457905322313308716e-01
-7.368659496307373047e+00 2.292348623275756836e+00 9.428092278540134430e-03
-7.295367717742919922e+00 2.318738698959350586e+00 9.352345019578933716e-03
-7.233446121215820312e+00 2.348021268844604492e+00 9.291258640587329865e-03
-1.328382492065429688e+01 4.941612243652343750e+00 1.509007662534713745e-01
-7.280602931976318359e+00 2.412808179855346680e+00 9.370670653879642487e-03
-7.197456836700439453e+00 2.434367179870605469e+00 9.282706305384635925e-03
-6.961184024810791016e+00 2.402152776718139648e+00 8.996821008622646332e-03
-1.424035549163818359e+01 5.597944259643554688e+00 1.629098057746887207e-01
-7.126480102539062500e+00 2.508231878280639648e+00 9.230172261595726013e-03
-7.085542678833007812e+00 2.542791843414306641e+00 9.197184816002845764e-03
-7.118641853332519531e+00 2.604084491729736328e+00 9.260714985430240631e-03
-7.085663318634033203e+00 2.641427278518676758e+00 9.238723665475845337e-03
-1.445156669616699219e+01 6.094551563262939453e+00 1.669873297214508057e-01
-7.069322586059570312e+00 2.684854269027709961e+00 9.238723665475845337e-03
-1.489084053039550781e+01 6.387702941894531250e+00 1.725127696990966797e-01
-6.983699321746826172e+00 2.701483011245727539e+00 9.148316457867622375e-03
-1.444442939758300781e+01 6.301424026489257812e+00 1.677858084440231323e-01
-6.982809066772460938e+00 2.750513792037963867e+00 9.169085882604122162e-03
-1.463583374023437500e+01 6.492108821868896484e+00 1.704686880111694336e-01
-7.027059078216552734e+00 2.817872285842895508e+00 9.249719791114330292e-03
-1.425207042694091797e+01 6.426823139190673828e+00 1.664550304412841797e-01
-6.929087162017822266e+00 2.828060865402221680e+00 9.143428876996040344e-03
-1.462414932250976562e+01 6.702888488769531250e+00 1.712778061628341675e-01
-6.892210006713867188e+00 2.862468957901000977e+00 9.117772802710533142e-03
-1.415218830108642578e+01 6.591945171356201172e+00 1.662207990884780884e-01
-6.878201484680175781e+00 2.906261920928955078e+00 9.122659452259540558e-03
-6.887801647186279297e+00 2.960256576538085938e+00 9.159311652183532715e-03
-6.841103076934814453e+00 2.990048646926879883e+00 9.121438488364219666e-03
-1.359806728363037109e+01 6.641128540039062500e+00 1.611212193965911865e-01
-6.830852031707763672e+00 3.035623550415039062e+00 9.132433682680130005e-03
-1.393329906463623047e+01 6.911056518554687500e+00 1.655926704406738281e-01
-6.804806709289550781e+00 3.074186086654663086e+00 9.122659452259540558e-03
-1.289129829406738281e+01 6.493076801300048828e+00 1.536794453859329224e-01
-6.744920730590820312e+00 3.097103834152221680e+00 9.067681618034839630e-03
-6.641514301300048828e+00 3.099106073379516602e+00 8.954061195254325867e-03
-1.283106040954589844e+01 6.661381244659423828e+00 1.539243161678314209e-01
-6.618758678436279297e+00 3.138085603713989258e+00 8.949173614382743835e-03
-6.602982997894287109e+00 3.180374145507812500e+00 8.954061195254325867e-03
-6.586937427520751953e+00 3.222587108612060547e+00 8.958947844803333282e-03
-6.576890945434570312e+00 3.267838001251220703e+00 8.972386829555034637e-03
-6.579036235809326172e+00 3.319392919540405273e+00 9.002930484712123871e-03
-6.562104701995849609e+00 3.361522197723388672e+00 9.007817134261131287e-03
-6.502318859100341797e+00 3.381422758102416992e+00 8.954061195254325867e-03
-6.390359401702880859e+00 3.373175144195556641e+00 8.828222751617431641e-03
-6.359845161437988281e+00 3.407127380371093750e+00 8.814783766865730286e-03
-1.165199089050292969e+01 6.891139984130859375e+00 1.441297233104705811e-01
-6.492568016052246094e+00 3.529671669006347656e+00 9.028586558997631073e-03
-6.469037055969238281e+00 3.568476915359497070e+00 9.026142768561840057e-03
-6.431312084197998047e+00 3.599312067031860352e+00 9.004151448607444763e-03
-6.416062831878662109e+00 3.642655849456787109e+00 9.013925679028034210e-03
-6.387525081634521484e+00 3.678462266921997070e+00 9.005373343825340271e-03
-6.380377292633056641e+00 3.726664543151855469e+00 9.027364663779735565e-03
-6.421059608459472656e+00 3.803457021713256836e+00 9.117772802710533142e-03
-6.445606708526611328e+00 3.871619462966918945e+00 9.186189621686935425e-03
-6.367923259735107422e+00 3.878325939178466797e+00 9.109220467507839203e-03
-6.411224365234375000e+00 3.958831787109375000e+00 9.205737151205539703e-03
-6.374098300933837891e+00 3.990136623382568359e+00 9.187411516904830933e-03
-6.428020000457763672e+00 4.079000949859619141e+00 9.301031939685344696e-03
-6.637712478637695312e+00 5.367325782775878906e+00 2.533497214317321777e-01
-6.447445869445800781e+00 4.147037029266357422e+00 9.365784004330635071e-03
-6.595374584197998047e+00 5.400354385375976562e+00 2.529937624931335449e-01
-6.457900524139404297e+00 4.210002899169921875e+00 9.418318979442119598e-03
-6.436118125915527344e+00 4.252304553985595703e+00 9.424426592886447906e-03
-6.368358135223388672e+00 4.263898372650146484e+00 9.363340213894844055e-03
-6.423999786376953125e+00 4.358476161956787109e+00 9.484292007982730865e-03
-6.682483196258544922e+00 5.343573093414306641e+00 1.732518970966339111e-01
-6.388895034790039062e+00 4.392146110534667969e+00 9.472073987126350403e-03
-6.647238731384277344e+00 5.382587909698486328e+00 1.731911599636077881e-01
-6.359363555908203125e+00 4.429550170898437500e+00 9.468409232795238495e-03
-6.616406440734863281e+00 5.425175189971923828e+00 1.732518970966339111e-01
-6.374550819396972656e+00 4.498469352722167969e+00 9.531939402222633362e-03
-6.472105503082275391e+00 4.627061367034912109e+00 9.720085188746452332e-03
-6.456551074981689453e+00 4.676071643829345703e+00 9.739633649587631226e-03
-6.434187889099121094e+00 4.720332622528076172e+00 9.749406948685646057e-03
-6.674336433410644531e+00 5.344582080841064453e+00 9.103658050298690796e-02
-6.413129806518554688e+00 4.765687465667724609e+00 9.761624038219451904e-03
-6.627436161041259766e+00 5.374097824096679688e+00 9.084493666887283325e-02
-6.391756534576416016e+00 4.810961246490478516e+00 9.773841127753257751e-03
-6.594336509704589844e+00 5.414661884307861328e+00 9.084493666887283325e-02
-6.431305408477783203e+00 4.902835369110107422e+00 9.880132973194122314e-03
-6.426429748535156250e+00 4.961760520935058594e+00 9.919228032231330872e-03
-6.420285224914550781e+00 5.020194053649902344e+00 9.957101196050643921e-03
-6.478733062744140625e+00 5.130264282226562500e+00 1.009637769311666489e-02
-6.441671371459960938e+00 5.165541172027587891e+00 1.008782628923654556e-02
-6.475063800811767578e+00 5.257921218872070312e+00 1.019045244902372360e-02
-6.431866168975830078e+00 5.288660526275634766e+00 1.017334777861833572e-02
-6.384693145751953125e+00 5.315868854522705078e+00 1.015013456344604492e-02
-6.342015743255615234e+00 5.346565246582031250e+00 1.013425178825855255e-02
-6.417855262756347656e+00 5.478219032287597656e+00 1.030896045267581940e-02
-6.511227607727050781e+00 5.627347469329833984e+00 1.051420997828245163e-02
-6.375732421875000000e+00 5.578952789306640625e+00 1.035049837082624435e-02
-6.385542869567871094e+00 5.657092571258544922e+00 1.042257994413375854e-02
-6.455676078796386719e+00 5.790313720703125000e+00 1.059484481811523438e-02
-6.397816181182861328e+00 5.809647560119628906e+00 1.055819261819124222e-02
-6.387078762054443359e+00 5.871805667877197266e+00 1.059973146766424179e-02
-6.361177921295166016e+00 5.920423507690429688e+00 1.061683613806962967e-02
-6.349476337432861328e+00 5.982659339904785156e+00 1.065837405622005463e-02
-6.266338348388671875e+00 5.977332592010498047e+00 1.058018393814563751e-02
-6.369097232818603516e+00 6.150431156158447266e+00 1.081719901412725449e-02
-6.327663421630859375e+00 6.185900211334228516e+00 1.081109046936035156e-02
-6.189370155334472656e+00 6.125426769256591797e+00 1.063882652670145035e-02
-6.374197006225585938e+00 6.386237621307373047e+00 1.102367229759693146e-02
-6.287150382995605469e+00 6.376806259155273438e+00 1.094059459865093231e-02
-6.274416923522949219e+00 6.442485809326171875e+00 1.098701916635036469e-02
-6.372039794921875000e+00 6.623553276062011719e+00 1.122892182320356369e-02
-6.292014598846435547e+00 6.621208190917968750e+00 1.115928404033184052e-02
-6.284119606018066406e+00 6.694687843322753906e+00 1.121792662888765335e-02
-6.333351612091064453e+00 6.830648899078369141e+00 1.138041727244853973e-02
-6.325090408325195312e+00 6.906253814697265625e+00 1.144150365144014359e-02
-6.215508937835693359e+00 6.870775222778320312e+00 1.131933089345693588e-02
-6.170568943023681641e+00 6.905800819396972656e+00 1.131444424390792847e-02
-1.750828146934509277e+00 3.633386850357055664e+00 1.197033077478408813e-01
-3.023481369018554688e+00 6.581555366516113281e+00 2.149616181850433350e-01
-2.976454019546508789e+00 6.585410118103027344e+00 2.144869565963745117e-01
-1.763477444648742676e+00 3.666077613830566406e+00 8.237461745738983154e-02
-1.754213333129882812e+00 3.704841375350952148e+00 8.300219476222991943e-02
-1.725113034248352051e+00 3.701941490173339844e+00 8.269852399826049805e-02
-3.008416175842285156e+00 6.560643196105957031e+00 1.461445987224578857e-01
-2.968515396118164062e+00 6.579890251159667969e+00 1.461648344993591309e-01
-1.827576279640197754e+00 3.741957187652587891e+00 1.956599801778793335e-01
-1.802850246429443359e+00 3.749499559402465820e+00 1.954722404479980469e-01
-1.771263241767883301e+00 3.742433547973632812e+00 1.945336014032363892e-01
-3.043304681777954102e+00 6.542404651641845703e+00 7.682375609874725342e-02
-3.002271413803100586e+00 6.559136390686035156e+00 7.680246233940124512e-02
-2.958273649215698242e+00 6.569228649139404297e+00 7.670664787292480469e-02
-1.827184677124023438e+00 3.694895982742309570e+00 5.035972222685813904e-03
-1.807566881179809570e+00 3.709090232849121094e+00 1.549026370048522949e-01
-1.805354237556457520e+00 3.707835912704467773e+00 5.038415547460317612e-03
-1.786935567855834961e+00 3.724616289138793945e+00 1.550902128219604492e-01
-1.781272768974304199e+00 3.716138601303100586e+00 5.034750327467918396e-03
-1.736738204956054688e+00 3.677679777145385742e+00 1.526892036199569702e-01
-1.745209693908691406e+00 3.698961973190307617e+00 4.996876697987318039e-03
-1.726691961288452148e+00 3.718670845031738281e+00 5.009094253182411194e-03
-2.996268510818481445e+00 6.557926654815673828e+00 8.808675222098827362e-03
-2.951463699340820312e+00 6.566154956817626953e+00 8.795236237347126007e-03
-2.893730640411376953e+00 6.544813632965087891e+00 8.742701262235641479e-03
-4.504554346203804016e-02 6.637393236160278320e-01 3.125678747892379761e-02
-1.393691822886466980e-02 7.397170662879943848e-01 1.498088333755731583e-02
-9.860438294708728790e-03 7.357625961303710938e-01 6.839029490947723389e-02
-5.894646514207124710e-03 7.233861088752746582e-01 1.408787667751312256e-01
-1.791081950068473816e-02 7.587881088256835938e-01 9.272932657040655613e-04
