-6.203381538391113281e+00 2.841889858245849609e+00 5.046685338020324707e-01
-6.184947490692138672e+00 3.111169576644897461e+00 3.252864778041839600e-01
-6.238070487976074219e+00 2.861734151840209961e+00 2.576583623886108398e-01
-8.362357139587402344e+00 4.597898006439208984e+00 1.932331472635269165e-01
-1.077385711669921875e+01 5.426565647125244141e+00 1.284370571374893188e-01
-6.139677524566650391e+00 2.819190740585327148e+00 8.254009298980236053e-03
-6.084034442901611328e+00 3.088609933853149414e+00 1.590301036834716797e+00
-6.108737468719482422e+00 3.106516122817993164e+00 1.334620833396911621e+00
-6.172895908355712891e+00 2.860780715942382812e+00 1.258512854576110840e+00
-6.076360702514648438e+00 3.091386318206787109e+00 1.070036292076110840e+00
-6.165350914001464844e+00 2.862514495849609375e+00 1.002550125122070312e+00
-6.371665000915527344e+00 3.855018615722656250e+00 1.037345051765441895e+00
-6.105014801025390625e+00 3.112673997879028320e+00 8.232046961784362793e-01
-6.118879795074462891e+00 2.844833850860595703e+00 7.461640238761901855e-01
-6.137171268463134766e+00 3.131768703460693359e+00 5.749410986900329590e-01
-6.174074172973632812e+00 2.874427556991577148e+00 5.037096738815307617e-01
-6.209525108337402344e+00 2.894889354705810547e+00 2.572081685066223145e-01
-8.301682472229003906e+00 4.631100654602050781e+00 1.924841105937957764e-01
-1.075994396209716797e+01 5.502587318420410156e+00 1.286712735891342163e-01
-6.175729274749755859e+00 2.881758451461791992e+00 8.326091803610324860e-03
-6.114854335784912109e+00 3.156998634338378906e+00 1.340164184570312500e+00
-6.142771720886230469e+00 2.892738103866577148e+00 1.255966305732727051e+00
-6.371699810028076172e+00 3.907116651535034180e+00 1.320598721504211426e+00
-6.123985767364501953e+00 3.163067102432250977e+00 1.081820487976074219e+00
-6.110092163085937500e+00 2.882562160491943359e+00 9.964219331741333008e-01
-6.347891330718994141e+00 3.894041776657104492e+00 1.037345051765441895e+00
-6.092854499816894531e+00 3.153726100921630859e+00 8.241588473320007324e-01
-6.094119071960449219e+00 2.878928422927856445e+00 7.452847361564636230e-01
-6.268464088439941406e+00 3.848330259323120117e+00 7.536295056343078613e-01
-6.155419349670410156e+00 2.911830425262451172e+00 5.036358833312988281e-01
-6.160036563873291016e+00 2.917963027954101562e+00 2.558950781822204590e-01
-6.397817611694335938e+00 3.932356834411621094e+00 2.228825092315673828e-01
-6.170580863952636719e+00 2.925595521926879883e+00 8.343195542693138123e-03
-6.158841609954833984e+00 2.940008640289306641e+00 1.525475740432739258e+00
-6.106670379638671875e+00 3.200382471084594727e+00 1.342649102210998535e+00
-6.114262104034423828e+00 2.925282239913940430e+00 1.253783583641052246e+00
-6.340916156768798828e+00 3.941979885101318359e+00 1.319206833839416504e+00
-6.151709079742431641e+00 3.225355148315429688e+00 1.090193390846252441e+00
-6.086045265197753906e+00 2.917005538940429688e+00 9.954006075859069824e-01
-6.299487590789794922e+00 3.917749404907226562e+00 1.033344030380249023e+00
-6.083936214447021484e+00 3.196593523025512695e+00 8.255900740623474121e-01
-6.087988376617431641e+00 2.921857833862304688e+00 7.467135190963745117e-01
-6.266691684722900391e+00 3.900387525558471680e+00 7.562795281410217285e-01
-6.304827690124511719e+00 3.927177429199218750e+00 4.894537627696990967e-01
-6.231162071228027344e+00 2.998604536056518555e+00 2.596091628074645996e-01
-6.365085124969482422e+00 3.966252803802490234e+00 2.225858420133590698e-01
-6.220083713531494141e+00 2.995948076248168945e+00 8.434825576841831207e-03
-6.111708164215087891e+00 2.963691234588623047e+00 1.518277049064636230e+00
-6.053121089935302734e+00 3.219814538955688477e+00 1.335194230079650879e+00
-6.105926513671875000e+00 2.967471837997436523e+00 1.255784392356872559e+00
-6.283284664154052734e+00 3.959811449050903320e+00 1.312247157096862793e+00
-6.143140316009521484e+00 3.269073724746704102e+00 1.092209100723266602e+00
-6.063584804534912109e+00 2.952128648757934570e+00 9.946710467338562012e-01
-6.237627506256103516e+00 3.932559013366699219e+00 1.027135729789733887e+00
-6.077348709106445312e+00 3.240871429443359375e+00 8.273791670799255371e-01
-6.075306415557861328e+00 2.961771488189697266e+00 7.473729848861694336e-01
-6.263674259185791016e+00 3.952036380767822266e+00 7.588275671005249023e-01
-6.235728263854980469e+00 3.044020652770996094e+00 5.132247209548950195e-01
-6.253613471984863281e+00 3.948741197586059570e+00 4.873497188091278076e-01
-6.233294486999511719e+00 3.046875238418579102e+00 2.604720294475555420e-01
-6.338093757629394531e+00 4.003632068634033203e+00 2.224968373775482178e-01
-6.183619022369384766e+00 3.025268077850341797e+00 8.410390466451644897e-03
-6.089906215667724609e+00 2.999411344528198242e+00 1.517404437065124512e+00
-6.307951450347900391e+00 4.028094768524169922e+00 1.607242822647094727e+00
-6.077903747558593750e+00 3.000093460083007812e+00 1.253783583641052246e+00
-6.250571250915527344e+00 3.992989301681518555e+00 1.310507297515869141e+00
-6.040388107299804688e+00 3.262109518051147461e+00 1.077478885650634766e+00
-6.063979625701904297e+00 2.998486995697021484e+00 9.977351427078247070e-01
-6.184170722961425781e+00 3.952091217041015625e+00 1.022307038307189941e+00
-6.066817283630371094e+00 3.003844499588012695e+00 7.485820055007934570e-01
-6.235117435455322266e+00 3.987715482711791992e+00 7.583180069923400879e-01
-6.184767246246337891e+00 3.066277980804443359e+00 5.105693936347961426e-01
-6.239351749420166016e+00 3.993493318557739258e+00 4.881387352943420410e-01
-6.215376853942871094e+00 3.085508823394775391e+00 2.605095505714416504e-01
-6.320984363555908203e+00 4.047297477722167969e+00 2.227638363838195801e-01
-6.131804466247558594e+00 3.046689271926879883e+00 8.365186862647533417e-03
-6.111537456512451172e+00 3.056803703308105469e+00 1.527438998222351074e+00
-6.091027736663818359e+00 3.053193330764770508e+00 1.260331749916076660e+00
-6.271415710449218750e+00 4.060703754425048828e+00 1.320076823234558105e+00
-6.063148975372314453e+00 3.044517278671264648e+00 1.000653386116027832e+00
-6.101552486419677734e+00 3.067802190780639648e+00 7.551764249801635742e-01
-6.150693416595458984e+00 3.096545696258544922e+00 5.093154311180114746e-01
-1.079984951019287109e+01 5.444236755371093750e+00 4.540534317493438721e-01
-8.393719673156738281e+00 4.622657299041748047e+00 1.020235642790794373e-01
-6.087103843688964844e+00 3.071192979812622070e+00 8.329756557941436768e-03
-6.182016849517822266e+00 4.055325984954833984e+00 1.587716579437255859e+00
-6.096716403961181641e+00 3.102998495101928711e+00 1.265424728393554688e+00
-6.159934997558593750e+00 4.042378425598144531e+00 1.301807641983032227e+00
-6.381353855133056641e+00 3.862307071685791016e+00 1.242882847785949707e+00
-6.058455944061279297e+00 3.088852405548095703e+00 1.002987980842590332e+00
-6.121131420135498047e+00 4.018442630767822266e+00 1.019961595535278320e+00
-6.365187644958496094e+00 3.855558872222900391e+00 9.638845324516296387e-01
-6.091466903686523438e+00 3.109702348709106445e+00 7.562755346298217773e-01
-6.168252468109130859e+00 4.052458763122558594e+00 7.561775445938110352e-01
-6.123586177825927734e+00 3.130142211914062500e+00 5.086516141891479492e-01
-1.075378704071044922e+01 5.504026889801025391e+00 4.535281956195831299e-01
-8.364324569702148438e+00 4.673585414886474609e+00 1.020129248499870300e-01
-9.371002197265625000e+00 4.800415992736816406e+00 1.286359690129756927e-02
-6.141547679901123047e+00 4.082897663116455078e+00 1.583727240562438965e+00
-6.087172031402587891e+00 3.145314216613769531e+00 1.267425537109375000e+00
-6.156334877014160156e+00 4.094277381896972656e+00 1.306331515312194824e+00
-6.382756710052490234e+00 3.916867256164550781e+00 1.247813701629638672e+00
-6.085954189300537109e+00 3.150070190429687500e+00 1.010721206665039062e+00
-6.103781223297119141e+00 4.060863018035888672e+00 1.021203398704528809e+00
-6.305072307586669922e+00 3.872225761413574219e+00 9.583612680435180664e-01
-6.081978321075439453e+00 3.152050971984863281e+00 7.574844956398010254e-01
-6.134990692138671875e+00 4.084717273712158203e+00 7.551583051681518555e-01
-6.293469905853271484e+00 3.868125915527343750e+00 6.865867376327514648e-01
-6.169770240783691406e+00 4.110982418060302734e+00 4.885332584381103516e-01
-6.361924648284912109e+00 3.913260459899902344e+00 4.215115904808044434e-01
-6.220464706420898438e+00 4.146328926086425781e+00 2.218738496303558350e-01
-6.425566196441650391e+00 3.955498933792114258e+00 1.527847647666931152e-01
-9.374198913574218750e+00 4.874896049499511719e+00 1.290880236774682999e-02
-6.129354000091552734e+00 4.129244804382324219e+00 1.587086677551269531e+00
-6.109556198120117188e+00 3.204528808593750000e+00 1.276156425476074219e+00
-6.130280494689941406e+00 4.131424903869628906e+00 1.306157469749450684e+00
-6.356090068817138672e+00 3.954394102096557617e+00 1.247320532798767090e+00
-6.143579483032226562e+00 3.227845191955566406e+00 1.023561239242553711e+00
-6.088603973388671875e+00 4.104882717132568359e+00 1.022858858108520508e+00
-6.273617267608642578e+00 3.906122207641601562e+00 9.572051763534545898e-01
-6.029096603393554688e+00 3.171725273132324219e+00 7.533079981803894043e-01
-6.100740432739257812e+00 4.116163253784179688e+00 7.540371417999267578e-01
-6.275532722473144531e+00 3.910355329513549805e+00 6.872345209121704102e-01
-6.139467239379882812e+00 4.145411968231201172e+00 4.881387352943420410e-01
-6.336099624633789062e+00 3.951166391372680664e+00 4.213989078998565674e-01
-6.184966564178466797e+00 4.177704811096191406e+00 2.215178608894348145e-01
-6.365551471710205078e+00 3.972619295120239258e+00 1.519345045089721680e-01
-9.325537681579589844e+00 4.922520160675048828e+00 1.288314443081617355e-02
-6.111169338226318359e+00 4.171737194061279297e+00 1.588976263999938965e+00
-6.148801326751708984e+00 3.273377418518066406e+00 1.288524985313415527e+00
-6.121892452239990234e+00 4.180623531341552734e+00 1.309811353683471680e+00
-6.310848712921142578e+00 3.980164766311645508e+00 1.243211507797241211e+00
-6.118420124053955078e+00 3.262687921524047852e+00 1.022685766220092773e+00
-6.097650527954101562e+00 4.165629863739013672e+00 1.028653383255004883e+00
-6.220179557800292969e+00 3.926016569137573242e+00 9.527094364166259766e-01
-5.996369838714599609e+00 3.201637268066406250e+00 7.516593933105468750e-01
-6.056481361389160156e+00 4.140606403350830078e+00 7.516928911209106445e-01
-6.253946781158447266e+00 3.950382947921752930e+00 6.875121593475341797e-01
-6.099916458129882812e+00 4.173426628112792969e+00 4.870209693908691406e-01
-6.280510902404785156e+00 3.970230340957641602e+00 4.193141460418701172e-01
-6.174063205718994141e+00 4.225738525390625000e+00 2.220518440008163452e-01
-6.334296703338623047e+00 4.007326126098632812e+00 1.517725437879562378e-01
-9.324247360229492188e+00 4.995231151580810547e+00 1.292346138507127762e-02
-6.314449787139892578e+00 4.033699035644531250e+00 1.532613396644592285e+00
-6.103512287139892578e+00 3.297489881515502930e+00 1.283250212669372559e+00
-6.112321376800537109e+00 4.229314804077148438e+00 1.313291192054748535e+00
-6.257220268249511719e+00 4.000216960906982422e+00 1.237459063529968262e+00
-6.093149662017822266e+00 4.217621803283691406e+00 1.032240390777587891e+00
-6.168405532836914062e+00 3.946471691131591797e+00 9.484706521034240723e-01
-6.035049915313720703e+00 4.180522441864013672e+00 7.522025108337402344e-01
-6.227912902832031250e+00 3.987608432769775391e+00 6.873270869255065918e-01
-6.060252666473388672e+00 4.201111793518066406e+00 4.859032034873962402e-01
-6.251828670501708984e+00 4.005998611450195312e+00 4.190324246883392334e-01
-6.133233547210693359e+00 4.253289222717285156e+00 2.215178608894348145e-01
-6.284340381622314453e+00 4.029926776885986328e+00 1.511652171611785889e-01
-8.420131683349609375e+00 4.577587604522705078e+00 1.170906238257884979e-02
-6.301916599273681641e+00 4.080355167388916016e+00 1.535619378089904785e+00
-6.104801654815673828e+00 4.279741287231445312e+00 1.317293047904968262e+00
-6.218484878540039062e+00 4.029416561126708984e+00 1.234664916992187500e+00
-6.082563400268554688e+00 4.265734672546386719e+00 1.034861683845520020e+00
-6.124104022979736328e+00 3.971296072006225586e+00 9.453878402709960938e-01
-5.992185592651367188e+00 4.205473423004150391e+00 7.500621080398559570e-01
-6.199986934661865234e+00 4.023578643798828125e+00 6.869568824768066406e-01
-6.223781585693359375e+00 4.042108535766601562e+00 4.188070595264434814e-01
-6.120106220245361328e+00 4.300035953521728516e+00 2.219925075769424438e-01
-8.391010284423828125e+00 4.628683090209960938e+00 1.170784048736095428e-02
-6.171916484832763672e+00 4.050144672393798828e+00 1.509968876838684082e+00
-6.055143833160400391e+00 4.300582408905029297e+00 1.312247157096862793e+00
-6.156541347503662109e+00 4.043130397796630859e+00 1.227268815040588379e+00
-6.333662509918212891e+00 3.833347558975219727e+00 1.161984086036682129e+00
-6.044163703918457031e+00 4.294371604919433594e+00 1.032792210578918457e+00
-6.092162609100341797e+00 4.003896236419677734e+00 9.442318081855773926e-01
-6.293306827545166016e+00 3.816430568695068359e+00 8.841519355773925781e-01
-6.175181865692138672e+00 4.061545372009277344e+00 6.869568824768066406e-01
-6.369376659393310547e+00 3.873212575912475586e+00 7.936822623014450073e-02
-8.350234031677246094e+00 4.673245429992675781e+00 1.169073674827814102e-02
-6.152659416198730469e+00 4.091736316680908203e+00 1.511371612548828125e+00
-6.140649795532226562e+00 4.086841583251953125e+00 1.229076743125915527e+00
-6.362226963043212891e+00 3.904173374176025391e+00 1.171597480773925781e+00
-6.079861640930175781e+00 4.049447536468505859e+00 9.461585283279418945e-01
-6.285840511322021484e+00 3.864854097366333008e+00 8.864179849624633789e-01
-6.144344806671142578e+00 4.095493316650390625e+00 6.863090991973876953e-01
-6.308599948883056641e+00 3.881883144378662109e+00 6.180990934371948242e-01
-6.197796344757080078e+00 4.134246826171875000e+00 4.204410314559936523e-01
-6.392787456512451172e+00 3.936763286590576172e+00 3.527417480945587158e-01
-6.359109401702880859e+00 3.920617818832397461e+00 7.953856140375137329e-02
-8.292704582214355469e+00 4.708100795745849609e+00 1.165041886270046234e-02
-6.185933113098144531e+00 4.168832778930664062e+00 1.525799989700317383e+00
-6.115458011627197266e+00 4.124443054199218750e+00 1.229076743125915527e+00
-6.349895000457763672e+00 3.950443744659423828e+00 1.173768162727355957e+00
-6.070518016815185547e+00 4.097218036651611328e+00 9.485991001129150391e-01
-6.267063617706298828e+00 3.906501770019531250e+00 8.871335983276367188e-01
-6.108373165130615234e+00 4.125872135162353516e+00 6.851060390472412109e-01
-6.288889884948730469e+00 3.923155784606933594e+00 6.185148358345031738e-01
-6.160732269287109375e+00 4.164370059967041016e+00 4.196522235870361328e-01
-6.329534530639648438e+00 3.951580762863159180e+00 3.505828678607940674e-01
-6.198454380035400391e+00 4.193021774291992188e+00 1.515296101570129395e-01
-6.334933280944824219e+00 3.959562778472900391e+00 7.953856140375137329e-02
-9.405806541442871094e+00 5.416636466979980469e+00 1.326065976172685623e-02
-6.178036212921142578e+00 4.218865394592285156e+00 1.530208587646484375e+00
-6.277296066284179688e+00 3.957376718521118164e+00 1.445106506347656250e+00
-6.092479228973388672e+00 4.163558959960937500e+00 1.229569792747497559e+00
-6.302139282226562500e+00 3.974575757980346680e+00 1.169426679611206055e+00
-6.058361530303955078e+00 4.143346309661865234e+00 9.506542682647705078e-01
-6.241297245025634766e+00 3.943821668624877930e+00 8.868951201438903809e-01
-6.074725151062011719e+00 4.157650947570800781e+00 6.841805577278137207e-01
-6.252907752990722656e+00 3.954213142395019531e+00 6.173506975173950195e-01
-6.102939128875732422e+00 4.180089950561523438e+00 4.174547791481018066e-01
-6.291663646697998047e+00 3.981796979904174805e+00 3.498319685459136963e-01
-6.161889076232910156e+00 4.223627090454101562e+00 1.512664258480072021e-01
-6.310518741607666016e+00 3.998358488082885742e+00 7.953856140375137329e-02
-9.378437995910644531e+00 5.477777957916259766e+00 1.326921116560697556e-02
-6.308311462402343750e+00 4.031231403350830078e+00 1.457913637161254883e+00
-6.109798431396484375e+00 4.230625152587890625e+00 1.238280892372131348e+00
-6.238512039184570312e+00 3.988161087036132812e+00 1.162139058113098145e+00
-6.066245079040527344e+00 4.203600883483886719e+00 9.559206962585449219e-01
-6.195242881774902344e+00 3.968120098114013672e+00 8.837940692901611328e-01
-6.041736125946044922e+00 4.189739704132080078e+00 6.833477020263671875e-01
-6.226010799407958984e+00 3.990892648696899414e+00 6.171012520790100098e-01
-6.067332744598388672e+00 4.210627079010009766e+00 4.167786538600921631e-01
-6.267954349517822266e+00 4.020865917205810547e+00 3.498789072036743164e-01
-6.138321399688720703e+00 4.263067245483398438e+00 1.513271629810333252e-01
-9.363578796386718750e+00 5.546432018280029297e+00 1.329609006643295288e-02
-6.262037754058837891e+00 4.055988788604736328e+00 1.452943682670593262e+00
-6.102296829223632812e+00 4.281063556671142578e+00 1.242061018943786621e+00
-6.174128532409667969e+00 4.000578880310058594e+00 1.154696464538574219e+00
-6.043584823608398438e+00 4.243022918701171875e+00 9.564345479011535645e-01
-6.136635303497314453e+00 3.983892917633056641e+00 8.789039850234985352e-01
-5.998805522918701172e+00 4.214711666107177734e+00 6.814042329788208008e-01
-6.198898792266845703e+00 4.027390480041503906e+00 6.168517470359802246e-01
-5.984210968017578125e+00 4.207578182220458984e+00 4.128345549106597900e-01
-6.118589401245117188e+00 4.305253982543945312e+00 1.514891237020492554e-01
-9.346515655517578125e+00 5.614079952239990234e+00 1.332052517682313919e-02
-6.133339405059814453e+00 4.020141124725341797e+00 1.709244370460510254e+00
-6.209134101867675781e+00 4.076021194458007812e+00 1.446444511413574219e+00
-6.077522277832031250e+00 4.319569110870361328e+00 1.242389798164367676e+00
-6.144510269165039062e+00 4.035133838653564453e+00 1.153766155242919922e+00
-6.368883609771728516e+00 3.862167358398437500e+00 1.098559141159057617e+00
-6.006121635437011719e+00 4.271977901458740234e+00 9.546361565589904785e-01
-6.086362838745117188e+00 4.004553794860839844e+00 8.752065896987915039e-01
-6.179896354675292969e+00 4.069186687469482422e+00 6.174338459968566895e-01
-6.308992862701416016e+00 3.842434883117675781e+00 9.024921804666519165e-03
-6.103689193725585938e+00 4.054465770721435547e+00 1.707882404327392578e+00
-6.208524227142333984e+00 4.130353450775146484e+00 1.452179074287414551e+00
-6.134439468383789062e+00 4.082612037658691406e+00 1.156557083129882812e+00
-6.384675025939941406e+00 3.925526380538940430e+00 1.105417013168334961e+00
-6.075719833374023438e+00 4.051187515258789062e+00 8.772342205047607422e-01
-6.291540145874023438e+00 3.872805118560791016e+00 8.169446587562561035e-01
-6.155641078948974609e+00 4.107582569122314453e+00 6.175169944763183594e-01
-6.328438758850097656e+00 3.900088787078857422e+00 5.498099327087402344e-01
-6.207003116607666016e+00 4.144988059997558594e+00 3.506767451763153076e-01
-6.404694557189941406e+00 3.951712131500244141e+00 2.825312912464141846e-01
-6.304866790771484375e+00 3.893157720565795898e+00 9.053020738065242767e-03
-6.163530826568603516e+00 4.155202388763427734e+00 1.447591423988342285e+00
-6.318096160888671875e+00 3.932094812393188477e+00 1.376560926437377930e+00
-6.121559143066406250e+00 4.128460884094238281e+00 1.158882975578308105e+00
-6.360468387603759766e+00 3.964628219604492188e+00 1.105417013168334961e+00
-6.064733028411865234e+00 4.097840785980224609e+00 8.792617917060852051e-01
-6.276934146881103516e+00 3.917124509811401367e+00 8.181536197662353516e-01
-6.111334800720214844e+00 4.132436752319335938e+00 6.156044006347656250e-01
-6.299314498901367188e+00 3.935675382614135742e+00 5.493673682212829590e-01
-6.169044017791748047e+00 4.174598217010498047e+00 3.499727547168731689e-01
-6.359146595001220703e+00 3.977688074111938477e+00 2.815934121608734131e-01
-6.168343067169189453e+00 4.178833961486816406e+00 7.932563871145248413e-02
-6.333412647247314453e+00 3.964667558670043945e+00 9.128767997026443481e-03
-6.154128551483154297e+00 4.204016208648681641e+00 1.451414465904235840e+00
-6.290523529052734375e+00 3.968688964843750000e+00 1.375833392143249512e+00
-6.101821422576904297e+00 4.169846057891845703e+00 1.159968256950378418e+00
-6.264934062957763672e+00 3.958662033081054688e+00 1.093014597892761230e+00
-6.057498455047607422e+00 4.147315979003906250e+00 8.818857669830322266e-01
-6.247740745544433594e+00 3.952377080917358398e+00 8.174941539764404297e-01
-6.081753253936767578e+00 4.167040824890136719e+00 6.151885986328125000e-01
-6.257354259490966797e+00 3.963047742843627930e+00 5.478183627128601074e-01
-6.120245933532714844e+00 4.196555137634277344e+00 3.486586809158325195e-01
-6.318585395812988281e+00 4.006464958190917969e+00 2.808806002140045166e-01
-6.156600952148437500e+00 4.226224422454833984e+00 7.950662821531295776e-02
-6.345273494720458984e+00 4.026493072509765625e+00 9.181302972137928009e-03
-6.073335647583007812e+00 4.203711032867431641e+00 1.438416123390197754e+00
-6.247000694274902344e+00 3.995027542114257812e+00 1.371649861335754395e+00
-6.150844097137451172e+00 4.258946895599365234e+00 1.174233436584472656e+00
-6.218866348266601562e+00 3.983155250549316406e+00 1.089220881462097168e+00
-6.063753128051757812e+00 4.206477165222167969e+00 8.865373134613037109e-01
-6.222535133361816406e+00 3.990101575851440430e+00 8.173842430114746094e-01
-6.041335105895996094e+00 4.194049835205078125e+00 6.136918067932128906e-01
-6.224527359008789062e+00 3.995979785919189453e+00 5.470807552337646484e-01
-6.087818145751953125e+00 4.229469776153564453e+00 3.482832312583923340e-01
-6.291361331939697266e+00 4.043538570404052734e+00 2.807680666446685791e-01
-6.135478973388671875e+00 4.267346858978271484e+00 7.957050204277038574e-02
-9.114398002624511719e+00 5.862436771392822266e+00 1.323989126831293106e-02
-6.266102313995361328e+00 4.061630249023437500e+00 1.381290197372436523e+00
-9.079930305480957031e+00 5.919343471527099609e+00 1.324233412742614746e-02
-6.164172172546386719e+00 4.041792869567871094e+00 1.647636055946350098e+00
-6.213942050933837891e+00 4.082185268402099609e+00 1.375287652015686035e+00
-6.086843490600585938e+00 4.326094150543212891e+00 1.172062635421752930e+00
-6.127369403839111328e+00 4.031438827514648438e+00 1.081779479980468750e+00
-5.987412929534912109e+00 4.263295173645019531e+00 8.829591870307922363e-01
-6.169782161712646484e+00 4.063974380493164062e+00 8.169446587562561035e-01
-6.183347702026367188e+00 4.077553749084472656e+00 5.478183627128601074e-01
-8.697186470031738281e+00 5.746179103851318359e+00 1.273531652987003326e-02
-6.142507553100585938e+00 4.081699848175048828e+00 1.648508548736572266e+00
-6.185503005981445312e+00 4.118056297302246094e+00 1.374560117721557617e+00
-6.112394809722900391e+00 4.075545310974121094e+00 1.083530426025390625e+00
-6.142249584197998047e+00 4.100099086761474609e+00 8.166149258613586426e-01
-6.164015769958496094e+00 4.119296073913574219e+00 5.483347177505493164e-01
-6.220019817352294922e+00 4.161435127258300781e+00 2.809556424617767334e-01
-6.222942829132080078e+00 4.166536331176757812e+00 9.149537421762943268e-03
-6.119775772094726562e+00 4.120948314666748047e+00 1.649163007736206055e+00
-6.169085502624511719e+00 4.161982059478759766e+00 1.376560926437377930e+00
-6.086452960968017578e+00 4.112420082092285156e+00 1.083384513854980469e+00
-6.105450630187988281e+00 4.129913806915283203e+00 8.150761723518371582e-01
-6.132018089294433594e+00 4.152566432952880859e+00 5.477445721626281738e-01
-6.181962013244628906e+00 4.191111087799072266e+00 2.803929150104522705e-01
-6.145954608917236328e+00 4.169831752777099609e+00 9.073791094124317169e-03
-6.143431663513183594e+00 4.199756145477294922e+00 1.376560926437377930e+00
-6.078248023986816406e+00 4.161425113677978516e+00 1.086448669433593750e+00
-6.072616100311279297e+00 4.162240982055664062e+00 8.140870332717895508e-01
-6.107245445251464844e+00 4.190678119659423828e+00 5.478183627128601074e-01
-6.121534824371337891e+00 4.205199241638183594e+00 2.788172364234924316e-01
-6.073282241821289062e+00 4.175172805786132812e+00 9.004151448607444763e-03
-6.121588706970214844e+00 4.240172386169433594e+00 1.377470374107360840e+00
-6.129821300506591797e+00 4.252210140228271484e+00 1.100310087203979492e+00
-6.050228118896484375e+00 4.201691150665283203e+00 8.145266175270080566e-01
-6.078960418701171875e+00 4.226364612579345703e+00 5.475970506668090820e-01
-6.101358413696289062e+00 4.246676921844482422e+00 2.790798544883728027e-01
-6.043446540832519531e+00 4.209501266479492188e+00 8.998042903840541840e-03
-6.098675727844238281e+00 4.279912948608398438e+00 1.378197908401489258e+00
-6.103614807128906250e+00 4.289741992950439453e+00 1.100310087203979492e+00
-6.033275127410888672e+00 4.245027065277099609e+00 8.157356381416320801e-01
-6.012963294982910156e+00 4.235444545745849609e+00 5.439828634262084961e-01
-6.093152999877929688e+00 4.296703815460205078e+00 2.799052000045776367e-01
-5.960310935974121094e+00 4.206143856048583984e+00 8.912522345781326294e-03
-5.959300994873046875e+00 4.236913681030273438e+00 1.352551102638244629e+00
-6.065896511077880859e+00 4.319079399108886719e+00 1.098267436027526855e+00
-8.880841255187988281e+00 6.349124431610107422e+00 1.333762891590595245e-02
-8.843337059020996094e+00 6.404669761657714844e+00 1.334007270634174347e-02
-8.799839973449707031e+00 6.455852985382080078e+00 1.333396416157484055e-02
-8.732771873474121094e+00 6.489446640014648438e+00 1.329242438077926636e-02
-8.664825439453125000e+00 6.521859645843505859e+00 1.324966363608837128e-02
-8.735981941223144531e+00 6.659780025482177734e+00 1.342070661485195160e-02
-8.781230926513671875e+00 6.779870986938476562e+00 1.355387549847364426e-02
-8.904108047485351562e+00 6.962362289428710938e+00 1.380921714007854462e-02
-8.578207015991210938e+00 6.792758464813232422e+00 1.336817163974046707e-02
-8.518422126770019531e+00 6.830876827239990234e+00 1.334007270634174347e-02
-2.477006435394287109e+00 2.526705026626586914e+00 7.598447799682617188e-01
-2.556293725967407227e+00 2.640713453292846680e+00 9.334133863449096680e-01
-2.481860637664794922e+00 2.562927007675170898e+00 7.661435604095458984e-01
-2.584255695343017578e+00 2.703531026840209961e+00 1.102154970169067383e+00
-2.534013986587524414e+00 2.650044202804565430e+00 9.311979413032531738e-01
-2.478252887725830078e+00 2.590824365615844727e+00 7.699227929115295410e-01
-2.549838066101074219e+00 2.700505733489990234e+00 1.094522714614868164e+00
-2.501733064651489258e+00 2.648632049560546875e+00 9.252902269363403320e-01
-2.434778690338134766e+00 2.576844930648803711e+00 7.613145112991333008e-01
-2.411278963088989258e+00 2.552866458892822266e+00 6.204552650451660156e-01
-2.394165515899658203e+00 2.535634517669677734e+00 4.857682883739471436e-01
-2.505742073059082031e+00 2.686638593673706055e+00 1.082650303840637207e+00
-2.472871541976928711e+00 2.650467634201049805e+00 9.206133484840393066e-01
-2.476959705352783203e+00 2.653920412063598633e+00 7.795809507369995117e-01
-2.389523267745971680e+00 2.561133384704589844e+00 6.188893318176269531e-01
-2.375184535980224609e+00 2.546655654907226562e+00 4.850784838199615479e-01
-2.420003652572631836e+00 2.596527099609375000e+00 3.636664748191833496e-01
-2.413818836212158203e+00 2.620128154754638672e+00 1.049859881401062012e+00
-2.377741813659667969e+00 2.580064058303833008e+00 8.910749554634094238e-01
-2.410926103591918945e+00 2.615155696868896484e+00 7.638339996337890625e-01
-2.359749317169189453e+00 2.560540199279785156e+00 6.152355074882507324e-01
-2.354145050048828125e+00 2.555354118347167969e+00 4.839747846126556396e-01
-2.397962331771850586e+00 2.604740381240844727e+00 3.627491593360900879e-01
-2.384784936904907227e+00 2.620700836181640625e+00 1.044206380844116211e+00
-2.348164796829223633e+00 2.579553365707397461e+00 8.859057426452636719e-01
-2.377060651779174805e+00 2.610381364822387695e+00 7.581650614738464355e-01
-2.485787153244018555e+00 2.536491870880126953e+00 7.264282703399658203e-01
-2.338027477264404297e+00 2.568417310714721680e+00 6.136695742607116699e-01
-2.333088636398315430e+00 2.563890457153320312e+00 4.828710854053497314e-01
-2.374572753906250000e+00 2.611309051513671875e+00 3.616279661655426025e-01
-2.355193853378295898e+00 2.620302677154541016e+00 1.038270115852355957e+00
-2.360158443450927734e+00 2.624904394149780273e+00 8.964903354644775391e-01
-2.525826930999755859e+00 2.607361793518066406e+00 8.829267024993896484e-01
-2.367537260055541992e+00 2.632186889648437500e+00 7.602646946907043457e-01
-2.452459573745727539e+00 2.533394813537597656e+00 7.212180495262145996e-01
-2.316956520080566406e+00 2.576856613159179688e+00 6.122776269912719727e-01
-2.313340425491333008e+00 2.573738098144531250e+00 4.820432960987091064e-01
-2.361164331436157227e+00 2.628790378570556641e+00 3.620356917381286621e-01
-2.444784402847290039e+00 2.723800420761108398e+00 2.411763072013854980e-01
-2.369002819061279297e+00 2.668418645858764648e+00 1.051555871963500977e+00
-2.540584564208984375e+00 2.653146982192993164e+00 1.040848374366760254e+00
-2.391634464263916016e+00 2.692963838577270508e+00 9.147056341171264648e-01
-2.507765769958496094e+00 2.620704889297485352e+00 8.822177648544311523e-01
-2.367575883865356445e+00 2.664937257766723633e+00 7.655136585235595703e-01
-2.463275432586669922e+00 2.576010465621948242e+00 7.290334105491638184e-01
-2.308294773101806641e+00 2.599123954772949219e+00 6.141915321350097656e-01
-2.303422689437866211e+00 2.594550132751464844e+00 4.832849800586700439e-01
-2.348951101303100586e+00 2.647693395614624023e+00 3.626472353935241699e-01
-2.416110515594482422e+00 2.725310087203979492e+00 2.399927824735641479e-01
-2.485440969467163086e+00 2.804499149322509766e+00 1.112187504768371582e-01
-2.384205818176269531e+00 2.718964815139770508e+00 1.065689682960510254e+00
-2.524257421493530273e+00 2.668685913085937500e+00 1.040848374366760254e+00
-2.371870040893554688e+00 2.703944921493530273e+00 9.134749174118041992e-01
-2.492305517196655273e+00 2.636749029159545898e+00 8.824540972709655762e-01
-2.351824522018432617e+00 2.680149078369140625e+00 7.657236456871032715e-01
-2.408404111862182617e+00 2.549767255783081055e+00 7.174105644226074219e-01
-2.300745248794555664e+00 2.622862339019775391e+00 6.164534687995910645e-01
-2.415139913558959961e+00 2.558686971664428711e+00 5.862686038017272949e-01
-2.302478551864624023e+00 2.625762462615966797e+00 4.864581227302551270e-01
-2.391871690750122070e+00 2.535808324813842773e+00 4.514997601509094238e-01
-2.332005262374877930e+00 2.661308288574218750e+00 3.625453114509582520e-01
-2.394083976745605469e+00 2.734078168869018555e+00 2.394667714834213257e-01
-2.474111318588256836e+00 2.826465845108032227e+00 1.114857494831085205e-01
-2.342986583709716797e+00 2.705264806747436523e+00 1.054665327072143555e+00
-2.505864620208740234e+00 2.682015180587768555e+00 1.040030479431152344e+00
-2.341906309127807617e+00 2.703064203262329102e+00 9.083056449890136719e-01
-2.480721712112426758e+00 2.656963348388671875e+00 8.841083645820617676e-01
-2.346861362457275391e+00 2.707828283309936523e+00 7.695029377937316895e-01
-2.394718885421752930e+00 2.566645860671997070e+00 7.180117368698120117e-01
-2.296860218048095703e+00 2.651071071624755859e+00 6.197593212127685547e-01
-2.388631820678710938e+00 2.561914443969726562e+00 5.836388468742370605e-01
-2.285675287246704102e+00 2.639091968536376953e+00 4.863201379776000977e-01
-2.362746477127075195e+00 2.535925149917602539e+00 4.489307701587677002e-01
-2.314980983734130859e+00 2.674815177917480469e+00 3.624433875083923340e-01
-2.386401176452636719e+00 2.759282588958740234e+00 2.403872907161712646e-01
-2.456722021102905273e+00 2.841593503952026367e+00 1.114857494831085205e-01
-2.322602033615112305e+00 2.715216636657714844e+00 1.052969217300415039e+00
-2.391483068466186523e+00 2.591284990310668945e+00 9.991381168365478516e-01
-2.307632207870483398e+00 2.696763277053833008e+00 9.014133810997009277e-01
-2.372806310653686523e+00 2.572849512100219727e+00 8.512585759162902832e-01
-2.327659130096435547e+00 2.719206333160400391e+00 7.686631083488464355e-01
-2.386228561401367188e+00 2.589215993881225586e+00 7.202160358428955078e-01
-2.290793895721435547e+00 2.677085638046264648e+00 6.225431561470031738e-01
-2.360839366912841797e+00 2.563462257385253906e+00 5.806804299354553223e-01
-2.290684938430786133e+00 2.677904129028320312e+00 4.908729195594787598e-01
-2.345127105712890625e+00 2.548185825347900391e+00 4.485454261302947998e-01
-2.439275503158569336e+00 2.652343750000000000e+00 3.349181115627288818e-01
-2.383035659790039062e+00 2.789806604385375977e+00 2.417680770158767700e-01
-2.422363996505737305e+00 2.836850404739379883e+00 1.107144281268119812e-01
-2.290422439575195312e+00 2.711098670959472656e+00 1.045902371406555176e+00
-2.362574815750122070e+00 2.591689586639404297e+00 9.936857819557189941e-01
-2.282908678054809570e+00 2.701248407363891602e+00 8.982133865356445312e-01
-2.377914190292358398e+00 2.610346078872680664e+00 8.588210940361022949e-01
-2.303355693817138672e+00 2.724477767944335938e+00 7.661435604095458984e-01
-2.369637012481689453e+00 2.603084325790405273e+00 7.200157046318054199e-01
-2.264790058135986328e+00 2.679809570312500000e+00 6.199333071708679199e-01
-2.335772991180419922e+00 2.567684412002563477e+00 5.783793330192565918e-01
-2.328780412673950195e+00 2.561793565750122070e+00 4.484169781208038330e-01
-2.386132001876831055e+00 2.626724958419799805e+00 3.298281431198120117e-01
-2.369733333587646484e+00 2.808951854705810547e+00 2.421625703573226929e-01
-1.226298809051513672e+00 1.454102277755737305e+00 5.645486712455749512e-02
-2.260839223861694336e+00 2.709634542465209961e+00 1.039966106414794922e+00
-2.348559379577636719e+00 2.608282327651977539e+00 9.945036172866821289e-01
-2.279954671859741211e+00 2.731575489044189453e+00 9.036288261413574219e-01
-2.412547349929809570e+00 2.681228160858154297e+00 8.772547841072082520e-01
-2.525314807891845703e+00 2.605865716934204102e+00 8.457695245742797852e-01
-2.281582355499267578e+00 2.732555627822875977e+00 7.644639015197753906e-01
-2.358860492706298828e+00 2.623403310775756836e+00 7.216188311576843262e-01
-2.470314979553222656e+00 2.552675008773803711e+00 6.917778253555297852e-01
-2.282379150390625000e+00 2.734479904174804688e+00 6.293288469314575195e-01
-2.316018581390380859e+00 2.577565908432006836e+00 5.773932337760925293e-01
-2.284300565719604492e+00 2.737753391265869141e+00 4.966673851013183594e-01
-2.315005540847778320e+00 2.578248023986816406e+00 4.488023221492767334e-01
-2.293384313583374023e+00 2.750591516494750977e+00 3.669280409812927246e-01
-2.376619577407836914e+00 2.648727655410766602e+00 3.307535946369171143e-01
-2.258559703826904297e+00 2.710747241973876953e+00 2.324971258640289307e-01
-2.504783391952514648e+00 2.793526649475097656e+00 2.117418050765991211e-01
-1.178331732749938965e+00 1.414748311042785645e+00 5.464522540569305420e-02
-2.250270605087280273e+00 2.730858325958251953e+00 1.042792916297912598e+00
-2.362562656402587891e+00 2.656433105468750000e+00 1.007316589355468750e+00
-2.545119285583496094e+00 2.655967950820922852e+00 1.003580093383789062e+00
-2.259452342987060547e+00 2.741026163101196289e+00 9.021518826484680176e-01
-2.396050214767456055e+00 2.695980787277221680e+00 8.772547841072082520e-01
-2.489074468612670898e+00 2.600206136703491211e+00 8.389597535133361816e-01
-2.254820346832275391e+00 2.734434366226196289e+00 7.611045241355895996e-01
-2.344671010971069336e+00 2.640025138854980469e+00 7.222200036048889160e-01
-2.444431543350219727e+00 2.557141542434692383e+00 6.889105439186096191e-01
-2.254283189773559570e+00 2.734755277633666992e+00 6.261969804763793945e-01
-2.305397272109985352e+00 2.597630023956298828e+00 5.787081122398376465e-01
-2.245414257049560547e+00 2.724965095520019531e+00 4.918386638164520264e-01
-2.305064439773559570e+00 2.599081754684448242e+00 4.499583840370178223e-01
-2.266346216201782227e+00 2.752324342727661133e+00 3.652972579002380371e-01
-2.362303733825683594e+00 2.665496110916137695e+00 3.310312330722808838e-01
-1.207802414894104004e+00 1.467838287353515625e+00 1.252565085887908936e-01
-2.458469867706298828e+00 2.775956153869628906e+00 2.092626690864562988e-01
-1.161374092102050781e+00 1.411916255950927734e+00 5.425956472754478455e-02
-2.501987934112548828e+00 2.827081680297851562e+00 7.644299417734146118e-02
-2.231050252914428711e+00 2.741638422012329102e+00 1.041662216186523438e+00
-2.388126611709594727e+00 2.718586683273315430e+00 1.025309205055236816e+00
-2.527448177337646484e+00 2.670133113861083984e+00 1.003053665161132812e+00
-2.240755319595336914e+00 2.752583265304565430e+00 9.014133810997009277e-01
-2.371129751205444336e+00 2.701138734817504883e+00 8.741825222969055176e-01
-2.457014083862304688e+00 2.598446607589721680e+00 8.335120081901550293e-01
-2.233678102493286133e+00 2.742911338806152344e+00 7.596348524093627930e-01
-2.334242582321166992e+00 2.660990715026855469e+00 7.240235805511474609e-01
-2.417239189147949219e+00 2.559959650039672852e+00 6.856609582901000977e-01
-2.216944932937622070e+00 2.723334074020385742e+00 6.204552650451660156e-01
-2.303069591522216797e+00 2.627303600311279297e+00 5.821596384048461914e-01
-2.412071943283081055e+00 2.555380821228027344e+00 5.515314936637878418e-01
-2.224901199340820312e+00 2.734082221984863281e+00 4.910109043121337891e-01
-2.298221826553344727e+00 2.623620271682739258e+00 4.517566859722137451e-01
-2.440314531326293945e+00 2.589825391769409180e+00 4.274652898311614990e-01
-2.244394540786743164e+00 2.760004281997680664e+00 3.644818663597106934e-01
-2.359020709991455078e+00 2.694924831390380859e+00 3.328821063041687012e-01
-1.189963340759277344e+00 1.464380025863647461e+00 1.243359819054603577e-01
-2.428900957107543945e+00 2.776710748672485352e+00 2.081921249628067017e-01
-1.162772417068481445e+00 1.431429147720336914e+00 5.473422259092330933e-02
-2.471434354782104492e+00 2.827325344085693359e+00 7.603810727596282959e-02
-2.211181402206420898e+00 2.751537799835205078e+00 1.040248870849609375e+00
-2.348071336746215820e+00 2.706300258636474609e+00 1.015222430229187012e+00
-2.507063627243041992e+00 2.681362867355346680e+00 1.001474499702453613e+00
-2.222609043121337891e+00 2.764769554138183594e+00 9.009210467338562012e-01
-2.339871168136596680e+00 2.698751449584960938e+00 8.687469363212585449e-01
-2.490881681442260742e+00 2.666853427886962891e+00 8.505363464355468750e-01
-2.216192960739135742e+00 2.755803346633911133e+00 7.594248652458190918e-01
-2.329418897628784180e+00 2.688591480255126953e+00 7.276306748390197754e-01
-2.420232057571411133e+00 2.594841957092285156e+00 6.910132169723510742e-01
-2.192789077758789062e+00 2.727675676345825195e+00 6.183673143386840820e-01
-2.298527240753173828e+00 2.654808998107910156e+00 5.851181149482727051e-01
-2.380178451538085938e+00 2.552791595458984375e+00 5.478101968765258789e-01
-2.200638294219970703e+00 2.738417863845825195e+00 4.893553256988525391e-01
-2.280782461166381836e+00 2.636172533035278320e+00 4.514997601509094238e-01
-2.401378631591796875e+00 2.580039739608764648e+00 4.234101176261901855e-01
-2.212468385696411133e+00 2.755108118057250977e+00 3.620356917381286621e-01
-2.339184522628784180e+00 2.705582857131958008e+00 3.324193954467773438e-01
-1.177208662033081055e+00 1.466984629631042480e+00 1.239414811134338379e-01
-2.411164999008178711e+00 2.790806531906127930e+00 2.081357836723327637e-01
-1.153967499732971191e+00 1.438536882400512695e+00 5.473422259092330933e-02
-2.467106819152832031e+00 2.857572078704833984e+00 7.644299417734146118e-02
-2.197237968444824219e+00 2.768810510635375977e+00 1.041662216186523438e+00
-2.320778846740722656e+00 2.708237171173095703e+00 1.010587930679321289e+00
-2.402854204177856445e+00 2.601726531982421875e+00 9.662057757377624512e-01
-2.203192472457885742e+00 2.775318861007690430e+00 8.999364972114562988e-01
-2.289771318435668945e+00 2.673941373825073242e+00 8.562214970588684082e-01
-2.421640157699584961e+00 2.624823331832885742e+00 8.323770165443420410e-01
-2.181001186370849609e+00 2.746380329132080078e+00 7.531260251998901367e-01
-2.309056043624877930e+00 2.698367834091186523e+00 7.264282703399658203e-01
-2.394953489303588867e+00 2.599536657333374023e+00 6.883370280265808105e-01
-2.169888496398925781e+00 2.733366489410400391e+00 6.166274547576904297e-01
-2.280271291732788086e+00 2.666613340377807617e+00 5.846250057220458984e-01
-2.355100393295288086e+00 2.557174444198608398e+00 5.456393957138061523e-01
-2.181331396102905273e+00 2.748765945434570312e+00 4.888035058975219727e-01
-2.358623743057250977e+00 2.565489530563354492e+00 4.186393022537231445e-01
-2.193048954010009766e+00 2.765513658523559570e+00 3.616279661655426025e-01
-2.316073417663574219e+00 2.712312936782836914e+00 3.314939737319946289e-01
-2.461517095565795898e+00 2.679283857345581055e+00 3.036028444766998291e-01
-1.171283841133117676e+00 1.478090524673461914e+00 1.242702379822731018e-01
-2.386866569519042969e+00 2.797194004058837891e+00 2.075159847736358643e-01
-1.139533162117004395e+00 1.438538789749145508e+00 5.446722730994224548e-02
-2.428119182586669922e+00 2.847550868988037109e+00 7.577493041753768921e-02
-2.175474405288696289e+00 2.776200294494628906e+00 1.039400815963745117e+00
-2.286714076995849609e+00 2.701862812042236328e+00 1.002954721450805664e+00
-2.367339372634887695e+00 2.595039367675781250e+00 9.583098292350769043e-01
-2.187915802001953125e+00 2.791073560714721680e+00 9.006749391555786133e-01
-2.267673969268798828e+00 2.681263446807861328e+00 8.540945053100585938e-01
-2.417952537536621094e+00 2.653309583663940430e+00 8.366898894309997559e-01
-2.513985872268676758e+00 2.563363313674926758e+00 8.025490045547485352e-01
-2.165918588638305664e+00 2.762019157409667969e+00 7.537559270858764648e-01
-2.308898210525512695e+00 2.731940031051635742e+00 7.316385507583618164e-01
-2.371030569076538086e+00 2.605471611022949219e+00 6.860432624816894531e-01
-2.151860952377319336e+00 2.745079040527343750e+00 6.162794232368469238e-01
-2.338700771331787109e+00 2.570846319198608398e+00 5.454843640327453613e-01
-2.154039144515991211e+00 2.748845577239990234e+00 4.864581227302551270e-01
-2.337497949600219727e+00 2.574033260345458984e+00 4.176851212978363037e-01
-2.181558847427368164e+00 2.785967111587524414e+00 3.625453114509582520e-01
-2.441012859344482422e+00 2.689908981323242188e+00 3.031038939952850342e-01
-1.156043171882629395e+00 1.477391123771667480e+00 1.236127242445945740e-01
-2.381883144378662109e+00 2.826292514801025391e+00 2.085865288972854614e-01
-1.140538454055786133e+00 1.458100795745849609e+00 5.494188889861106873e-02
-1.135423541069030762e+00 1.348224401473999023e+00 3.569094464182853699e-02
-2.167204141616821289e+00 2.800875902175903320e+00 1.043640971183776855e+00
-2.254666805267333984e+00 2.697388172149658203e+00 9.961393475532531738e-01
-2.349434614181518555e+00 2.607366085052490234e+00 9.575201869010925293e-01
-2.169562339782714844e+00 2.802912712097167969e+00 9.001826047897338867e-01
-2.241212844848632812e+00 2.683195352554321289e+00 8.503133058547973633e-01
-2.406187534332275391e+00 2.673162937164306641e+00 8.382787704467773438e-01
-2.509074926376342773e+00 2.589955568313598633e+00 8.060393333435058594e-01
-2.144141674041748047e+00 2.769072532653808594e+00 7.520762681961059570e-01
-2.292719602584838867e+00 2.746807813644409180e+00 7.318389415740966797e-01
-2.356967449188232422e+00 2.622160911560058594e+00 6.866167187690734863e-01
-2.131360530853271484e+00 2.753558635711669922e+00 6.152355074882507324e-01
-2.289076089859008789e+00 2.744389295578002930e+00 5.954726934432983398e-01
-2.325523376464843750e+00 2.588087320327758789e+00 5.461045503616333008e-01
-2.142586708068847656e+00 2.769060611724853516e+00 4.876997768878936768e-01
-2.286478996276855469e+00 2.743221759796142578e+00 4.625464081764221191e-01
-2.328952550888061523e+00 2.596457719802856445e+00 4.189971089363098145e-01
-2.146776914596557617e+00 2.776477813720703125e+00 3.595894873142242432e-01
-2.290261745452880859e+00 2.749711275100708008e+00 3.326044976711273193e-01
-2.415815114974975586e+00 2.695189237594604492e+00 3.020228743553161621e-01
-1.133534550666809082e+00 1.467085242271423340e+00 1.221661865711212158e-01
-1.227596521377563477e+00 1.474911332130432129e+00 1.082937046885490417e-01
-2.530563116073608398e+00 2.825191020965576172e+00 1.782012283802032471e-01
-1.164210438728332520e+00 1.399748682975769043e+00 3.686511889100074768e-02
-2.174435377120971680e+00 2.846134185791015625e+00 1.055513381958007812e+00
-2.245423316955566406e+00 2.720075368881225586e+00 9.994106888771057129e-01
-2.367385625839233398e+00 2.659927368164062500e+00 9.714697599411010742e-01
-2.555942535400390625e+00 2.666272640228271484e+00 9.710357189178466797e-01
-2.150557756423950195e+00 2.813862085342407227e+00 8.994442224502563477e-01
-2.228416681289672852e+00 2.701393842697143555e+00 8.517312407493591309e-01
-2.378092288970947266e+00 2.674775838851928711e+00 8.341929912567138672e-01
-2.485038995742797852e+00 2.596841096878051758e+00 8.034215569496154785e-01
-2.128298282623291016e+00 2.783730030059814453e+00 7.524961829185485840e-01
-2.258996725082397461e+00 2.740412712097167969e+00 7.264282703399658203e-01
-2.344743967056274414e+00 2.640977621078491211e+00 6.877636313438415527e-01
-2.109640836715698242e+00 2.760325431823730469e+00 6.138435602188110352e-01
-2.259023427963256836e+00 2.742394924163818359e+00 5.920211672782897949e-01
-2.302386045455932617e+00 2.594180107116699219e+00 5.443989634513854980e-01
-2.102105379104614258e+00 2.751460790634155273e+00 4.823192059993743896e-01
-2.248174667358398438e+00 2.731166839599609375e+00 4.581791460514068604e-01
-2.319561243057250977e+00 2.618130445480346680e+00 4.201898276805877686e-01
-2.270184040069580078e+00 2.759867429733276367e+00 3.321417868137359619e-01
-2.393286943435668945e+00 2.703246593475341797e+00 3.012744486331939697e-01
-1.216621637344360352e+00 1.480102181434631348e+00 1.081246808171272278e-01
-2.496633291244506836e+00 2.821961641311645508e+00 1.770279258489608765e-01
-1.137196421623229980e+00 1.384461045265197754e+00 3.627803176641464233e-02
-2.499752998352050781e+00 2.828470468521118164e+00 4.018981009721755981e-02
-2.186390876770019531e+00 2.898477315902709961e+00 1.069929838180541992e+00
-2.222611665725708008e+00 2.726344585418701172e+00 9.966845512390136719e-01
-2.379683256149291992e+00 2.707009077072143555e+00 9.833137392997741699e-01
-2.534214735031127930e+00 2.676287412643432617e+00 9.690015316009521484e-01
-2.105228662490844727e+00 2.789868354797363281e+00 8.876287937164306641e-01
-2.214868068695068359e+00 2.718783140182495117e+00 8.529129028320312500e-01
-2.355209112167358398e+00 2.681999206542968750e+00 8.319230675697326660e-01
-2.467717647552490234e+00 2.610621929168701172e+00 8.029853105545043945e-01
-2.115890026092529297e+00 2.802979469299316406e+00 7.541759014129638672e-01
-2.233479976654052734e+00 2.743584871292114258e+00 7.236227393150329590e-01
-2.317493200302124023e+00 2.642768859863281250e+00 6.845140457153320312e-01
-2.071903705596923828e+00 2.745705842971801758e+00 6.077538728713989258e-01
-2.208540201187133789e+00 2.714884042739868164e+00 5.831457972526550293e-01
-2.290332317352294922e+00 2.612715721130371094e+00 5.453293323516845703e-01
-2.404444694519042969e+00 2.551702022552490234e+00 5.171063542366027832e-01
-2.223867416381835938e+00 2.735675573348999023e+00 4.566377401351928711e-01
-2.305414438247680664e+00 2.634555339813232422e+00 4.205476343631744385e-01
-2.433464527130126953e+00 2.585209608078002930e+00 3.925906419754028320e-01
-2.243789911270141602e+00 2.762152433395385742e+00 3.307535946369171143e-01
-2.370751142501831055e+00 2.711128950119018555e+00 3.005260527133941650e-01
-1.195561289787292480e+00 1.472811222076416016e+00 1.070541366934776306e-01
-2.466125488281250000e+00 2.822184085845947266e+00 1.760892868041992188e-01
