-2.077324390411376953e+00 -5.406062126159667969e+00 3.816213905811309814e-01
-1.845180988311767578e+00 -5.377175807952880859e+00 3.208243548870086670e-01
-1.629035592079162598e+00 -5.375381946563720703e+00 2.638992667198181152e-01
-1.418738842010498047e+00 -5.369829177856445312e+00 2.085126638412475586e-01
-2.091901779174804688e+00 -5.441161632537841797e+00 1.730135381221771240e-01
-1.886324048042297363e+00 -5.490829944610595703e+00 1.175594478845596313e-01
-2.006022691726684570e+00 -6.516126155853271484e+00 1.327739238739013672e+00
-1.781173229217529297e+00 -6.637580871582031250e+00 1.271245241165161133e+00
-1.917898297309875488e+00 -5.497797012329101562e+00 9.702112674713134766e-01
-1.681604027748107910e+00 -5.458934783935546875e+00 8.965294361114501953e-01
-1.451163172721862793e+00 -5.392748355865478516e+00 8.236640691757202148e-01
-2.125657081604003906e+00 -5.443253993988037109e+00 8.139826655387878418e-01
-1.889290213584899902e+00 -5.409717082977294922e+00 7.421808242797851562e-01
-1.649393439292907715e+00 -5.337809562683105469e+00 6.711348295211791992e-01
-1.439074397087097168e+00 -5.336687088012695312e+00 6.111972332000732422e-01
-2.121699571609497070e+00 -5.427527904510498047e+00 5.970734953880310059e-01
-1.882689356803894043e+00 -5.384777069091796875e+00 5.301867127418518066e-01
-1.656484484672546387e+00 -5.354131221771240234e+00 4.676697552204132080e-01
-1.444884181022644043e+00 -5.347093105316162109e+00 4.096651673316955566e-01
-2.117001533508300781e+00 -5.409940242767333984e+00 3.828049302101135254e-01
-1.880778670310974121e+00 -5.373291492462158203e+00 3.212750852108001709e-01
-1.668490290641784668e+00 -5.386277198791503906e+00 2.649317979812622070e-01
-1.451922059059143066e+00 -5.361988067626953125e+00 2.085501998662948608e-01
-2.141647100448608398e+00 -5.470108032226562500e+00 1.743485331535339355e-01
-1.933204889297485352e+00 -5.516893863677978516e+00 1.183692216873168945e-01
-2.076011657714843750e+00 -6.599199771881103516e+00 1.347236752510070801e+00
-1.840114593505859375e+00 -6.692896842956542969e+00 1.283977746963500977e+00
-1.982012152671813965e+00 -5.571424961090087891e+00 9.853323101997375488e-01
-1.723076701164245605e+00 -5.473957061767578125e+00 9.007159471511840820e-01
-1.484488010406494141e+00 -5.384696006774902344e+00 8.238099813461303711e-01
-2.170726060867309570e+00 -5.459560394287109375e+00 8.183974623680114746e-01
-1.928769707679748535e+00 -5.415773391723632812e+00 7.446213960647583008e-01
-1.691979527473449707e+00 -5.358832836151123047e+00 6.750707626342773438e-01
-1.480261802673339844e+00 -5.358414173126220703e+00 6.147143244743347168e-01
-2.159376621246337891e+00 -5.425498962402343750e+00 5.982965826988220215e-01
-1.920041322708129883e+00 -5.385316371917724609e+00 5.313897728919982910e-01
-1.699518442153930664e+00 -5.376173019409179688e+00 4.704970717430114746e-01
-1.475271582603454590e+00 -5.329476356506347656e+00 4.090013206005096436e-01
-2.156804084777832031e+00 -5.413534164428710938e+00 3.839884400367736816e-01
-1.923781871795654297e+00 -5.389859199523925781e+00 3.229654431343078613e-01
-1.703015446662902832e+00 -5.380699634552001953e+00 2.651664316654205322e-01
-1.489068746566772461e+00 -5.368385314941406250e+00 2.091504484415054321e-01
-2.178501844406127930e+00 -5.465220928192138672e+00 1.746155172586441040e-01
-1.972738623619079590e+00 -5.520933628082275391e+00 1.187133789062500000e-01
-2.056706190109252930e+00 -6.400372505187988281e+00 1.309197664260864258e+00
-1.871553063392639160e+00 -6.647405147552490234e+00 1.277429580688476562e+00
-1.762074947357177734e+00 -5.480209827423095703e+00 9.035069346427917480e-01
-1.524219274520874023e+00 -5.399288654327392578e+00 8.274577260017395020e-01
-2.216817855834960938e+00 -5.477353572845458984e+00 8.230882287025451660e-01
-1.962979197502136230e+00 -5.406632900238037109e+00 7.450067400932312012e-01
-1.732142686843872070e+00 -5.371028900146484375e+00 6.779332756996154785e-01
-1.514735817909240723e+00 -5.354969501495361328e+00 6.153737306594848633e-01
-2.193746805191040039e+00 -5.414912700653076172e+00 5.986023545265197754e-01
-1.961552143096923828e+00 -5.396829128265380859e+00 5.337033867835998535e-01
-1.739210367202758789e+00 -5.386507034301757812e+00 4.723264873027801514e-01
-1.518822669982910156e+00 -5.358703136444091797e+00 4.119517207145690918e-01
-2.193730354309082031e+00 -5.409445285797119141e+00 3.846459686756134033e-01
-1.970813989639282227e+00 -5.416421413421630859e+00 3.252755403518676758e-01
-1.747060060501098633e+00 -5.404365539550781250e+00 2.668559849262237549e-01
-1.528532624244689941e+00 -5.382218360900878906e+00 2.100508362054824829e-01
-2.217632055282592773e+00 -5.465644359588623047e+00 1.750605255365371704e-01
-2.002471208572387695e+00 -5.497452259063720703e+00 1.184704452753067017e-01
-1.811951756477355957e+00 -5.522145271301269531e+00 1.131808876991271973e+00
-1.941985368728637695e+00 -6.738787174224853516e+00 1.297255873680114746e+00
-1.805220842361450195e+00 -5.498391628265380859e+00 9.083136320114135742e-01
-1.562262892723083496e+00 -5.406941413879394531e+00 8.300840854644775391e-01
-2.252270698547363281e+00 -5.468227386474609375e+00 8.237780332565307617e-01
-2.001623392105102539e+00 -5.409368038177490234e+00 7.470619678497314453e-01
-1.771897673606872559e+00 -5.381046295166015625e+00 6.805571913719177246e-01
-1.551987051963806152e+00 -5.360849857330322266e+00 6.171322464942932129e-01
-2.234514474868774414e+00 -5.419744014739990234e+00 6.006408333778381348e-01
-1.999125838279724121e+00 -5.396830081939697266e+00 5.349065065383911133e-01
-1.776908755302429199e+00 -5.389930248260498047e+00 4.735738337039947510e-01
-1.550841093063354492e+00 -5.346409797668457031e+00 4.117304682731628418e-01
-2.243629693984985352e+00 -5.436467170715332031e+00 3.875389993190765381e-01
-2.010607004165649414e+00 -5.422012805938720703e+00 3.263460695743560791e-01
-1.788327932357788086e+00 -5.418207168579101562e+00 2.680762410163879395e-01
-1.566827297210693359e+00 -5.390969753265380859e+00 2.107636183500289917e-01
-2.258756399154663086e+00 -5.470412254333496094e+00 1.756538450717926025e-01
-2.050778627395629883e+00 -5.524427890777587891e+00 1.193207055330276489e-01
-2.170989274978637695e+00 -5.770471096038818359e+00 1.261079430580139160e+00
-1.854841232299804688e+00 -5.537914276123046875e+00 1.137352347373962402e+00
-1.969671130180358887e+00 -6.680528163909912109e+00 1.288343191146850586e+00
-1.840493917465209961e+00 -5.491895198822021484e+00 9.090889096260070801e-01
-1.595409870147705078e+00 -5.397253990173339844e+00 8.300840854644775391e-01
-2.289226055145263672e+00 -5.462526321411132812e+00 8.250197172164916992e-01
-2.040724515914916992e+00 -5.412759780883789062e+00 7.492455244064331055e-01
-1.805514454841613770e+00 -5.371954917907714844e+00 6.807957291603088379e-01
-1.588520765304565430e+00 -5.363615512847900391e+00 6.185610890388488770e-01
-2.276193380355834961e+00 -5.426113128662109375e+00 6.028832197189331055e-01
-2.039586067199707031e+00 -5.404024600982666016e+00 5.368499159812927246e-01
-1.813125491142272949e+00 -5.388371467590332031e+00 4.744054079055786133e-01
-1.587872266769409180e+00 -5.351134300231933594e+00 4.128368496894836426e-01
-2.283126115798950195e+00 -5.437318801879882812e+00 3.885910511016845703e-01
-2.045955181121826172e+00 -5.415177822113037109e+00 3.266841471195220947e-01
-1.826960921287536621e+00 -5.423224449157714844e+00 2.688740789890289307e-01
-1.600445866584777832e+00 -5.383170604705810547e+00 2.108386605978012085e-01
-2.309700965881347656e+00 -5.497919082641601562e+00 1.769888103008270264e-01
-2.104797601699829102e+00 -5.565043926239013672e+00 1.204746440052986145e-01
-2.189876794815063477e+00 -5.714044570922851562e+00 1.251660943031311035e+00
-2.030779600143432617e+00 -6.735160350799560547e+00 1.301257491111755371e+00
-1.884705662727355957e+00 -5.511345863342285156e+00 9.142057299613952637e-01
-1.635653138160705566e+00 -5.411037445068359375e+00 8.337318897247314453e-01
-2.339013814926147461e+00 -5.486642837524414062e+00 8.308141827583312988e-01
-2.081364393234252930e+00 -5.419577598571777344e+00 7.519429922103881836e-01
-1.844239592552185059e+00 -5.377680778503417969e+00 6.829426288604736328e-01
-1.621113300323486328e+00 -5.352816104888916016e+00 6.184511780738830566e-01
-2.319596052169799805e+00 -5.435833930969238281e+00 6.055332422256469727e-01
-2.078423023223876953e+00 -5.406279087066650391e+00 5.383306741714477539e-01
-1.846801042556762695e+00 -5.379029750823974609e+00 4.745717048645019531e-01
-1.622992992401123047e+00 -5.348925590515136719e+00 4.134269654750823975e-01
-2.324676990509033203e+00 -5.442477703094482422e+00 3.899718225002288818e-01
-2.085598468780517578e+00 -5.419294834136962891e+00 3.276983499526977539e-01
-1.866696715354919434e+00 -5.430805206298828125e+00 2.698127031326293945e-01
-1.641293764114379883e+00 -5.399063587188720703e+00 2.118515819311141968e-01
-2.348498344421386719e+00 -5.495592594146728516e+00 1.773744821548461914e-01
-2.119136571884155273e+00 -5.500711917877197266e+00 1.193612068891525269e-01
-2.216347217559814453e+00 -5.678596019744873047e+00 1.246851444244384766e+00
-2.076122283935546875e+00 -6.735728263854980469e+00 1.303804039955139160e+00
-1.921415567398071289e+00 -5.508072853088378906e+00 9.156012535095214844e-01
-1.672912716865539551e+00 -5.414132595062255859e+00 8.357746005058288574e-01
-2.370271205902099609e+00 -5.466735363006591797e+00 8.299863934516906738e-01
-2.116024255752563477e+00 -5.410398960113525391e+00 7.524567842483520508e-01
-1.888348221778869629e+00 -5.398127079010009766e+00 6.869978308677673340e-01
-1.658923745155334473e+00 -5.358909606933593750e+00 6.203195452690124512e-01
-2.369935750961303711e+00 -5.460738658905029297e+00 6.099159717559814453e-01
-2.124986886978149414e+00 -5.427729606628417969e+00 5.417547821998596191e-01
-1.883394598960876465e+00 -5.377942562103271484e+00 4.754864275455474854e-01
-1.664940476417541504e+00 -5.368393898010253906e+00 4.157135188579559326e-01
-2.363593816757202148e+00 -5.440924167633056641e+00 3.908923566341400146e-01
-2.121725797653198242e+00 -5.413832187652587891e+00 3.281491100788116455e-01
-1.907585740089416504e+00 -5.440930366516113281e+00 2.708921730518341064e-01
-1.678245544433593750e+00 -5.401296615600585938e+00 2.123392820358276367e-01
-2.391338348388671875e+00 -5.502163410186767578e+00 1.780568063259124756e-01
-2.152117967605590820e+00 -5.485743999481201172e+00 1.193207055330276489e-01
-2.283711194992065430e+00 -5.746831417083740234e+00 1.264886975288391113e+00
-2.120957612991333008e+00 -6.734117507934570312e+00 1.305986762046813965e+00
-1.963122844696044922e+00 -5.518517971038818359e+00 9.193225502967834473e-01
-1.717122316360473633e+00 -5.438671588897705078e+00 8.411732912063598633e-01
-2.426544904708862305e+00 -5.503746032714843750e+00 8.378503322601318359e-01
-2.163123369216918945e+00 -5.432325363159179688e+00 7.573378682136535645e-01
-1.925771594047546387e+00 -5.398595809936523438e+00 6.885483264923095703e-01
-1.700167179107666016e+00 -5.375164985656738281e+00 6.233969926834106445e-01
-2.413037061691284180e+00 -5.467936992645263672e+00 6.123621463775634766e-01
-2.160094261169433594e+00 -5.419213771820068359e+00 5.422174930572509766e-01
-1.919038653373718262e+00 -5.373792648315429688e+00 4.761516749858856201e-01
-1.705078959465026855e+00 -5.380893707275390625e+00 4.174837768077850342e-01
-2.404191493988037109e+00 -5.442748546600341797e+00 3.920758664608001709e-01
-2.163044452667236328e+00 -5.421112537384033203e+00 3.293886780738830566e-01
-1.947996377944946289e+00 -5.448875427246093750e+00 2.718777358531951904e-01
-1.714983940124511719e+00 -5.402327060699462891e+00 2.127894759178161621e-01
-2.431114673614501953e+00 -5.501101016998291016e+00 1.785017997026443481e-01
-2.210954666137695312e+00 -5.535572052001953125e+00 1.206973344087600708e-01
-2.325910329818725586e+00 -5.749967098236083984e+00 1.268694519996643066e+00
-1.998294115066528320e+00 -5.510083198547363281e+00 9.199427366256713867e-01
-1.748942852020263672e+00 -5.423325061798095703e+00 8.404437303543090820e-01
-2.460269451141357422e+00 -5.488753318786621094e+00 8.378503322601318359e-01
-2.202375173568725586e+00 -5.433655738830566406e+00 7.593930363655090332e-01
-1.963271498680114746e+00 -5.398808002471923828e+00 6.900988221168518066e-01
-1.737699866294860840e+00 -5.378818511962890625e+00 6.250455975532531738e-01
-2.451021432876586914e+00 -5.463011264801025391e+00 6.134833097457885742e-01
-2.195925712585449219e+00 -5.412316322326660156e+00 5.428653359413146973e-01
-1.970383882522583008e+00 -5.412483215332031250e+00 4.806421101093292236e-01
-1.740827083587646484e+00 -5.378869533538818359e+00 4.181475937366485596e-01
-2.452667236328125000e+00 -5.461574077606201172e+00 3.945086896419525146e-01
-2.203029394149780273e+00 -5.424388885498046875e+00 3.304028809070587158e-01
-1.984129548072814941e+00 -5.444328308105468750e+00 2.722531855106353760e-01
-1.751181721687316895e+00 -5.401207923889160156e+00 2.131646275520324707e-01
-2.472196578979492188e+00 -5.502491950988769531e+00 1.790357977151870728e-01
-2.258810043334960938e+00 -5.556170463562011719e+00 1.214463710784912109e-01
-2.364131450653076172e+00 -5.742834568023681641e+00 1.270297646522521973e+00
-1.851131677627563477e+00 -5.635117053985595703e+00 1.097174286842346191e+00
-2.033093214035034180e+00 -5.500498294830322266e+00 9.204079508781433105e-01
-1.784043192863464355e+00 -5.418129920959472656e+00 8.413192033767700195e-01
-2.509917020797729492e+00 -5.508704662322998047e+00 8.432309031486511230e-01
-2.238321065902709961e+00 -5.426457405090332031e+00 7.602921724319458008e-01
-2.003261804580688477e+00 -5.405279636383056641e+00 6.924842596054077148e-01
-1.773784518241882324e+00 -5.377494335174560547e+00 6.261447072029113770e-01
-2.492338418960571289e+00 -5.465066432952880859e+00 6.154198646545410156e-01
-2.238593816757202148e+00 -5.421749114990234375e+00 5.451789498329162598e-01
-2.006676912307739258e+00 -5.408699989318847656e+00 4.813905358314514160e-01
-1.778491973876953125e+00 -5.382290840148925781e+00 4.192540347576141357e-01
-2.490690231323242188e+00 -5.456407070159912109e+00 3.952319324016571045e-01
-2.246186733245849609e+00 -5.434759616851806641e+00 3.318678140640258789e-01
-2.020628213882446289e+00 -5.440479278564453125e+00 2.726755738258361816e-01
-1.793710708618164062e+00 -5.418821811676025391e+00 2.142901122570037842e-01
-2.506743192672729492e+00 -5.489037513732910156e+00 1.790951192378997803e-01
-2.298592805862426758e+00 -5.556064128875732422e+00 1.217500492930412292e-01
-2.399324178695678711e+00 -5.728220462799072266e+00 1.270297646522521973e+00
-1.868167042732238770e+00 -5.571444034576416016e+00 1.086988449096679688e+00
-2.073769092559814453e+00 -5.506410121917724609e+00 9.235090613365173340e-01
-1.833643436431884766e+00 -5.455844402313232422e+00 8.489065766334533691e-01
-2.559485197067260742e+00 -5.527352809906005859e+00 8.484734296798706055e-01
-2.287310123443603516e+00 -5.450113773345947266e+00 7.655586600303649902e-01
-2.039196014404296875e+00 -5.400316715240478516e+00 6.934384107589721680e-01
-1.813406705856323242e+00 -5.386291027069091797e+00 6.284527778625488281e-01
-2.532936096191406250e+00 -5.465014934539794922e+00 6.171526312828063965e-01
-2.279531717300415039e+00 -5.426270961761474609e+00 5.470297932624816895e-01
-2.040883302688598633e+00 -5.399081707000732422e+00 4.816399812698364258e-01
-1.820407152175903320e+00 -5.397736072540283203e+00 4.213193058967590332e-01
-2.534621238708496094e+00 -5.463651180267333984e+00 3.968757390975952148e-01
-2.294584989547729492e+00 -5.456768989562988281e+00 3.340652585029602051e-01
-2.057153940200805664e+00 -5.436386585235595703e+00 2.730979621410369873e-01
-1.830764293670654297e+00 -5.419074535369873047e+00 2.147403061389923096e-01
-2.556366443634033203e+00 -5.508006572723388672e+00 1.802224367856979370e-01
-2.329149961471557617e+00 -5.533561706542968750e+00 1.215678453445434570e-01
-2.433274745941162109e+00 -5.710687160491943359e+00 1.269696474075317383e+00
-2.670118570327758789e+00 -5.677264690399169922e+00 1.108502626419067383e+00
-2.116716861724853516e+00 -5.517563343048095703e+00 9.275404810905456543e-01
-1.871257185935974121e+00 -5.456655979156494141e+00 8.508033752441406250e-01
-2.596725940704345703e+00 -5.518713951110839844e+00 8.495771884918212891e-01
-2.335893869400024414e+00 -5.471547126770019531e+00 7.705681324005126953e-01
-2.079065561294555664e+00 -5.405309677124023438e+00 6.957045793533325195e-01
-1.851588845252990723e+00 -5.390102863311767578e+00 6.302112936973571777e-01
-2.562182426452636719e+00 -5.440370082855224609e+00 6.161333322525024414e-01
-2.318652868270874023e+00 -5.425916194915771484e+00 5.484179854393005371e-01
-2.081492662429809570e+00 -5.405987262725830078e+00 4.833862483501434326e-01
-1.854141712188720703e+00 -5.388350486755371094e+00 4.214668273925781250e-01
-2.578734636306762695e+00 -5.470561027526855469e+00 3.985195159912109375e-01
-2.340981245040893555e+00 -5.472879409790039062e+00 3.359246253967285156e-01
-2.100172042846679688e+00 -5.448827266693115234e+00 2.743651270866394043e-01
-1.870493531227111816e+00 -5.426634311676025391e+00 2.154906243085861206e-01
-2.598641872406005859e+00 -5.510298728942871094e+00 1.808157712221145630e-01
-2.979698181152343750e+00 -6.959388732910156250e+00 1.532908827066421509e-01
-2.216453790664672852e+00 -5.676126480102539062e+00 1.186669349670410156e+00
-2.719338655471801758e+00 -5.690983772277832031e+00 1.114418387413024902e+00
-2.163474082946777344e+00 -5.537597656250000000e+00 9.331224560737609863e-01
-1.909929752349853516e+00 -5.460012435913085938e+00 8.531379103660583496e-01
-2.628403186798095703e+00 -5.498208999633789062e+00 8.488873243331909180e-01
-2.374952554702758789e+00 -5.469846725463867188e+00 7.723664641380310059e-01
-2.121607780456542969e+00 -5.416487216949462891e+00 6.988055706024169922e-01
-1.888899803161621094e+00 -5.390834808349609375e+00 6.316400766372680664e-01
-2.613119840621948242e+00 -5.461338520050048828e+00 6.203122735023498535e-01
-2.369761466979980469e+00 -5.452680587768554688e+00 5.525824427604675293e-01
-2.120808362960815430e+00 -5.408885955810546875e+00 4.847999215126037598e-01
-1.892783761024475098e+00 -5.392869472503662109e+00 4.227207601070404053e-01
-2.616131544113159180e+00 -5.462734222412109375e+00 3.991112709045410156e-01
-2.380890369415283203e+00 -5.473060607910156250e+00 3.368261158466339111e-01
-2.135025739669799805e+00 -5.439558029174804688e+00 2.745528519153594971e-01
-1.912041187286376953e+00 -5.438622951507568359e+00 2.164285033941268921e-01
-2.635426759719848633e+00 -5.500560283660888672e+00 1.810234338045120239e-01
-1.932814717292785645e+00 -5.430504798889160156e+00 1.066252708435058594e+00
-2.771836996078491211e+00 -5.710513114929199219e+00 1.121551990509033203e+00
-2.214207649230957031e+00 -5.566444396972656250e+00 9.402549862861633301e-01
-1.957023262977600098e+00 -5.486394405364990234e+00 8.591203093528747559e-01
-2.662955284118652344e+00 -5.483759403228759766e+00 8.491632342338562012e-01
-2.420085668563842773e+00 -5.481481075286865234e+00 7.760915160179138184e-01
-2.162525892257690430e+00 -5.422734260559082031e+00 7.013102769851684570e-01
-1.930971264839172363e+00 -5.404415130615234375e+00 6.346076130867004395e-01
-2.659191846847534180e+00 -5.471148490905761719e+00 6.232680678367614746e-01
-2.414040803909301758e+00 -5.462627410888671875e+00 5.550811886787414551e-01
-2.158759593963623047e+00 -5.407802581787109375e+00 4.858809411525726318e-01
-1.929198503494262695e+00 -5.390543460845947266e+00 4.234583675861358643e-01
-2.650474309921264648e+00 -5.448374271392822266e+00 3.992427885532379150e-01
-2.419274330139160156e+00 -5.469305992126464844e+00 3.375022411346435547e-01
-2.179111003875732422e+00 -5.453255176544189453e+00 2.759138941764831543e-01
-1.953806281089782715e+00 -5.450305461883544922e+00 2.173663973808288574e-01
-2.683562755584716797e+00 -5.513945579528808594e+00 1.820024102926254272e-01
-2.815097093582153320e+00 -5.710179328918457031e+00 1.124857902526855469e+00
-2.541949272155761719e+00 -5.668491840362548828e+00 1.035133123397827148e+00
-2.248321056365966797e+00 -5.552753448486328125e+00 9.402549862861633301e-01
-1.992340683937072754e+00 -5.478931427001953125e+00 8.598498106002807617e-01
-2.726782560348510742e+00 -5.528607845306396484e+00 8.586827516555786133e-01
-2.463826656341552734e+00 -5.489147663116455078e+00 7.793027162551879883e-01
-2.208828687667846680e+00 -5.441562175750732422e+00 7.054847478866577148e-01
-1.971239209175109863e+00 -5.412077426910400391e+00 6.369156241416931152e-01
-2.700197935104370117e+00 -5.469893455505371094e+00 6.250008344650268555e-01
-2.454858303070068359e+00 -5.464060783386230469e+00 5.567469596862792969e-01
-2.204280138015747070e+00 -5.424921512603759766e+00 4.886251091957092285e-01
-1.967706680297851562e+00 -5.393594741821289062e+00 4.246385395526885986e-01
-2.696672916412353516e+00 -5.457952022552490234e+00 4.011495709419250488e-01
-2.459749221801757812e+00 -5.469838619232177734e+00 3.384601175785064697e-01
-2.214788675308227539e+00 -5.445333480834960938e+00 2.761954963207244873e-01
-1.989269852638244629e+00 -5.443846225738525391e+00 2.175914943218231201e-01
-2.736391067504882812e+00 -5.535906791687011719e+00 1.832780689001083374e-01
-2.866833448410034180e+00 -5.726260185241699219e+00 1.131469607353210449e+00
-2.281973600387573242e+00 -5.537940025329589844e+00 9.400999546051025391e-01
-2.029015302658081055e+00 -5.474952220916748047e+00 8.611630201339721680e-01
-2.768637895584106445e+00 -5.527712345123291016e+00 8.611660599708557129e-01
-2.507340431213378906e+00 -5.495580196380615234e+00 7.823854684829711914e-01
-2.248998880386352539e+00 -5.444423675537109375e+00 7.076315879821777344e-01
-2.003372430801391602e+00 -5.397084712982177734e+00 6.365859508514404297e-01
-2.739505290985107422e+00 -5.464783191680908203e+00 6.263258457183837891e-01
-2.504056692123413086e+00 -5.483313560485839844e+00 5.602636933326721191e-01
-2.244760274887084961e+00 -5.428791999816894531e+00 4.902050793170928955e-01
-2.011190176010131836e+00 -5.409462451934814453e+00 4.268513321876525879e-01
-2.750248432159423828e+00 -5.481436729431152344e+00 4.041084051132202148e-01
-2.501151323318481445e+00 -5.471895694732666016e+00 3.395306468009948730e-01
-2.260765314102172852e+00 -5.462099075317382812e+00 2.777442336082458496e-01
-2.026122570037841797e+00 -5.440902709960937500e+00 2.179666608572006226e-01
-2.764029502868652344e+00 -5.506505489349365234e+00 1.828627437353134155e-01
-2.569121599197387695e+00 -6.891702651977539062e+00 8.985825814306735992e-03
-2.915302515029907227e+00 -5.734897136688232422e+00 1.136689305305480957e+00
-2.325842142105102539e+00 -5.547521591186523438e+00 9.441313743591308594e-01
-2.062221527099609375e+00 -5.461473941802978516e+00 8.610171675682067871e-01
-2.817768335342407227e+00 -5.540636539459228516e+00 8.658568263053894043e-01
-2.550608634948730469e+00 -5.500785350799560547e+00 7.853398323059082031e-01
-2.288518190383911133e+00 -5.445167064666748047e+00 7.095399498939514160e-01
-2.046646833419799805e+00 -5.411651134490966797e+00 6.397732496261596680e-01
-2.780656337738037109e+00 -5.462942123413085938e+00 6.280584931373596191e-01
-2.537235260009765625e+00 -5.466942310333251953e+00 5.601711273193359375e-01
-2.280733585357666016e+00 -5.421345710754394531e+00 4.907871484756469727e-01
-2.044344186782836914e+00 -5.397020339965820312e+00 4.268513321876525879e-01
-2.796965599060058594e+00 -5.490242481231689453e+00 4.060151875019073486e-01
-2.543091535568237305e+00 -5.474555492401123047e+00 3.406575322151184082e-01
-2.300052642822265625e+00 -5.461933135986328125e+00 2.784482240676879883e-01
-2.061596155166625977e+00 -5.433974266052246094e+00 2.181917577981948853e-01
-2.818643569946289062e+00 -5.530408382415771484e+00 1.842273920774459839e-01
-2.588991880416870117e+00 -6.816913604736328125e+00 8.908856660127639771e-03
-2.426476240158081055e+00 -5.692149162292480469e+00 1.205019950866699219e+00
-2.375726938247680664e+00 -5.570403575897216797e+00 9.504886269569396973e-01
-2.102796316146850586e+00 -5.467185020446777344e+00 8.639353513717651367e-01
-2.861708402633666992e+00 -5.542603969573974609e+00 8.688920140266418457e-01
-2.591075658798217773e+00 -5.499385356903076172e+00 7.873950004577636719e-01
-2.330862760543823242e+00 -5.452019691467285156e+00 7.122831344604492188e-01
-2.088745832443237305e+00 -5.422179222106933594e+00 6.425209641456604004e-01
-2.831478357315063477e+00 -5.479361057281494141e+00 6.319316625595092773e-01
-2.569882631301879883e+00 -5.449470043182373047e+00 5.599859952926635742e-01
-2.323364734649658203e+00 -5.429237365722656250e+00 4.927828907966613770e-01
-2.083523750305175781e+00 -5.400192260742187500e+00 4.281052649021148682e-01
-3.031836748123168945e+00 -5.862068176269531250e+00 4.348800778388977051e-01
-2.592829227447509766e+00 -5.493157863616943359e+00 3.427985906600952148e-01
-2.351222276687622070e+00 -5.489037036895751953e+00 2.805601656436920166e-01
-2.105345010757446289e+00 -5.448253631591796875e+00 2.192797064781188965e-01
-2.875491619110107422e+00 -5.557396888732910156e+00 1.857106983661651611e-01
-2.645562887191772461e+00 -6.839138031005859375e+00 8.958947844803333282e-03
-2.478927135467529297e+00 -5.717678546905517578e+00 1.213621854782104492e+00
-2.409468650817871094e+00 -5.554815292358398438e+00 9.503335952758789062e-01
-2.142797231674194336e+00 -5.470759868621826172e+00 8.665617108345031738e-01
-2.922790050506591797e+00 -5.576698780059814453e+00 8.770318627357482910e-01
-2.632477760314941406e+00 -5.499484539031982422e+00 7.897071242332458496e-01
-2.372189521789550781e+00 -5.455825328826904297e+00 7.146685719490051270e-01
-2.124880313873291016e+00 -5.416662693023681641e+00 6.434001922607421875e-01
-2.878446578979492188e+00 -5.487431526184082031e+00 6.348874568939208984e-01
-2.608434200286865234e+00 -5.444374561309814453e+00 5.610965490341186523e-01
-2.365383148193359375e+00 -5.434982299804687500e+00 4.946123361587524414e-01
-2.128289461135864258e+00 -5.417008876800537109e+00 4.304656088352203369e-01
-3.002813100814819336e+00 -5.719667434692382812e+00 4.256748855113983154e-01
-2.616125106811523438e+00 -5.455539226531982422e+00 3.414463698863983154e-01
-2.388448715209960938e+00 -5.482748985290527344e+00 2.809825837612152100e-01
-2.145321846008300781e+00 -5.451971054077148438e+00 2.199549973011016846e-01
-2.911860942840576172e+00 -5.544073581695556641e+00 1.858590245246887207e-01
-2.693341016769409180e+00 -6.837663173675537109e+00 8.978495374321937561e-03
-2.526237964630126953e+00 -5.730203151702880859e+00 1.219547510147094727e+00
-2.451081752777099609e+00 -5.557100296020507812e+00 9.532796740531921387e-01
-2.184753179550170898e+00 -5.478644371032714844e+00 8.699176311492919922e-01
-2.967186212539672852e+00 -5.577896595001220703e+00 8.800669908523559570e-01
-2.671810150146484375e+00 -5.494822978973388672e+00 7.913769483566284180e-01
-2.410037517547607422e+00 -5.451156139373779297e+00 7.159805297851562500e-01
-2.161762952804565430e+00 -5.412753582000732422e+00 6.444993019104003906e-01
-3.002758026123046875e+00 -5.640017509460449219e+00 6.546608209609985352e-01
-2.657912969589233398e+00 -5.461393356323242188e+00 5.645207166671752930e-01
-2.413204908370971680e+00 -5.453172206878662109e+00 4.976059496402740479e-01
-2.172968864440917969e+00 -5.432551860809326172e+00 4.327521622180938721e-01
-2.956203937530517578e+00 -5.547906875610351562e+00 4.142341017723083496e-01
-2.670974016189575195e+00 -5.483366012573242188e+00 3.442072272300720215e-01
-2.426899671554565430e+00 -5.478950023651123047e+00 2.815457284450531006e-01
-2.183936595916748047e+00 -5.451691627502441406e+00 2.204802185297012329e-01
-2.953817367553710938e+00 -5.541097164154052734e+00 1.863633543252944946e-01
-2.707700252532958984e+00 -5.553837299346923828e+00 1.251106262207031250e-01
-2.757576942443847656e+00 -6.876698017120361328e+00 9.051799774169921875e-03
-2.578613519668579102e+00 -5.753109931945800781e+00 1.227766990661621094e+00
-2.807790994644165039e+00 -5.690506935119628906e+00 1.057321548461914062e+00
-2.228374481201171875e+00 -5.489885807037353516e+00 8.738572001457214355e-01
-3.015470981597900391e+00 -5.585731983184814453e+00 8.842059373855590820e-01
-2.714697122573852539e+00 -5.496998310089111328e+00 7.940744161605834961e-01
-2.463384628295898438e+00 -5.480639934539794922e+00 7.218248248100280762e-01
-2.201671838760375977e+00 -5.415961265563964844e+00 6.464776396751403809e-01
-3.120534896850585938e+00 -5.775524139404296875e+00 6.725995540618896484e-01
-2.704168319702148438e+00 -5.470868110656738281e+00 5.672044754028320312e-01
-2.449072599411010742e+00 -5.443715572357177734e+00 4.981048703193664551e-01
-2.217542886734008789e+00 -5.446826934814453125e+00 4.349649846553802490e-01
-2.976900100708007812e+00 -5.505087375640869141e+00 4.123930633068084717e-01
-2.712538242340087891e+00 -5.482982158660888672e+00 3.452214300632476807e-01
-2.470315694808959961e+00 -5.485815048217773438e+00 2.826721072196960449e-01
-2.221119165420532227e+00 -5.447442054748535156e+00 2.208553552627563477e-01
-2.997749090194702148e+00 -5.541331291198730469e+00 1.869863569736480713e-01
-2.751487016677856445e+00 -5.556829929351806641e+00 1.255559921264648438e-01
-2.815590620040893555e+00 -6.898533821105957031e+00 9.103111922740936279e-03
-3.806573629379272461e+00 -6.948799610137939453e+00 2.334906339645385742e+00
-2.627701759338378906e+00 -5.767549037933349609e+00 1.234266161918640137e+00
-2.846631526947021484e+00 -5.681108951568603516e+00 1.058800816535949707e+00
-2.276747941970825195e+00 -5.511769294738769531e+00 8.795477151870727539e-01
-3.059204578399658203e+00 -5.584496974945068359e+00 8.869652152061462402e-01
-2.764824390411376953e+00 -5.513037681579589844e+00 7.988270521163940430e-01
-2.505218744277954102e+00 -5.483483314514160156e+00 7.242102026939392090e-01
-2.251959562301635742e+00 -5.443680286407470703e+00 6.514234542846679688e-01
-3.145871162414550781e+00 -5.737949848175048828e+00 6.704591512680053711e-01
-2.743939638137817383e+00 -5.466630935668945312e+00 5.685001015663146973e-01
-2.496933460235595703e+00 -5.460305213928222656e+00 5.010153055191040039e-01
-2.254739284515380859e+00 -5.442330837249755859e+00 4.357025623321533203e-01
-3.099904298782348633e+00 -5.649429798126220703e+00 4.246228337287902832e-01
-2.745233774185180664e+00 -5.464450836181640625e+00 3.451087474822998047e-01
-2.515985965728759766e+00 -5.496894836425781250e+00 2.840331494808197021e-01
-2.259097814559936523e+00 -5.444787025451660156e+00 2.213055491447448730e-01
-3.053338289260864258e+00 -5.562263011932373047e+00 1.883213371038436890e-01
-2.779243469238281250e+00 -5.527337551116943359e+00 1.252725720405578613e-01
-2.895071268081665039e+00 -6.970709323883056641e+00 9.221619926393032074e-03
-3.835624933242797852e+00 -6.900997638702392578e+00 2.326708555221557617e+00
-2.897986173629760742e+00 -5.696063995361328125e+00 1.064882040023803711e+00
-2.318573951721191406e+00 -5.516848564147949219e+00 8.826118111610412598e-01
-3.118433475494384766e+00 -5.610637664794921875e+00 8.941392898559570312e-01
-2.806249618530273438e+00 -5.510993003845214844e+00 8.010106682777404785e-01
-2.539653778076171875e+00 -5.469809055328369141e+00 7.244487404823303223e-01
-2.287246942520141602e+00 -5.434340476989746094e+00 6.519730091094970703e-01
-3.105096340179443359e+00 -5.582052230834960938e+00 6.544569730758666992e-01
-2.779691219329833984e+00 -5.454127311706542969e+00 5.689628124237060547e-01
-2.544669866561889648e+00 -5.475608348846435547e+00 5.038426518440246582e-01
-2.291964054107666016e+00 -5.437583446502685547e+00 4.364401996135711670e-01
-3.111212730407714844e+00 -5.588454723358154297e+00 4.214667677879333496e-01
-2.793682336807250977e+00 -5.476853370666503906e+00 3.469681143760681152e-01
-2.551351785659790039e+00 -5.484975814819335938e+00 2.842208743095397949e-01
-2.307231426239013672e+00 -5.465806961059570312e+00 2.227311581373214722e-01
-3.071360349655151367e+00 -5.514605998992919922e+00 1.873423457145690918e-01
-2.792649030685424805e+00 -5.470109462738037109e+00 1.243615746498107910e-01
-3.900982379913330078e+00 -6.918274879455566406e+00 2.340559959411621094e+00
-2.949631214141845703e+00 -5.710601806640625000e+00 1.070963382720947266e+00
-2.355491876602172852e+00 -5.509795188903808594e+00 8.837791085243225098e-01
-3.170799970626831055e+00 -5.623318672180175781e+00 8.992438912391662598e-01
-2.846387863159179688e+00 -5.506003856658935547e+00 8.028090000152587891e-01
-2.578675270080566406e+00 -5.465796470642089844e+00 7.259992957115173340e-01
-2.330719470977783203e+00 -5.443960666656494141e+00 6.548306345939636230e-01
-3.130977153778076172e+00 -5.548166751861572266e+00 6.527242660522460938e-01
-2.826831817626953125e+00 -5.463499546051025391e+00 5.717391967773437500e-01
-2.582474708557128906e+00 -5.468902111053466797e+00 5.046741962432861328e-01
-2.342183589935302734e+00 -5.462831020355224609e+00 4.396119117736816406e-01
-3.124343633651733398e+00 -5.531898975372314453e+00 4.186394512653350830e-01
-2.858913898468017578e+00 -5.520782947540283203e+00 3.508558571338653564e-01
-2.584532260894775391e+00 -5.468314647674560547e+00 2.841739356517791748e-01
-2.354524612426757812e+00 -5.483685016632080078e+00 2.240442037582397461e-01
-3.132675170898437500e+00 -5.544390678405761719e+00 1.890036463737487793e-01
-2.860665082931518555e+00 -5.519445419311523438e+00 1.258799135684967041e-01
-3.011639833450317383e+00 -5.743938446044921875e+00 1.080660581588745117e+00
-2.410161495208740234e+00 -5.543323040008544922e+00 8.915123343467712402e-01
-3.219505310058593750e+00 -5.628689765930175781e+00 9.032448530197143555e-01
-2.886109113693237305e+00 -5.499851226806640625e+00 8.044788241386413574e-01
-2.627613067626953125e+00 -5.482102870941162109e+00 7.302929759025573730e-01
-2.380744218826293945e+00 -5.467832565307617188e+00 6.594467759132385254e-01
-3.154088497161865234e+00 -5.509857177734375000e+00 6.504819393157958984e-01
-2.893636703491210938e+00 -5.509521007537841797e+00 5.784024000167846680e-01
-2.632362365722656250e+00 -5.487096309661865234e+00 5.078341364860534668e-01
-2.379246234893798828e+00 -5.456583976745605469e+00 4.402757287025451660e-01
-3.186005592346191406e+00 -5.561110019683837891e+00 4.223215579986572266e-01
-2.908065080642700195e+00 -5.532300949096679688e+00 3.527151942253112793e-01
-2.618901252746582031e+00 -5.454154491424560547e+00 2.842678129673004150e-01
-2.398924589157104492e+00 -5.493861198425292969e+00 2.250571250915527344e-01
-3.174091339111328125e+00 -5.538073062896728516e+00 1.894486397504806519e-01
-2.895408868789672852e+00 -5.503558158874511719e+00 1.259204000234603882e-01
-3.054705142974853516e+00 -5.740154266357421875e+00 1.083454608917236328e+00
-2.454129934310913086e+00 -5.551050662994384766e+00 8.951601386070251465e-01
-3.292749166488647461e+00 -5.675652027130126953e+00 9.140059947967529297e-01
-2.937516450881958008e+00 -5.515300273895263672e+00 8.093598484992980957e-01
-2.669024467468261719e+00 -5.481945514678955078e+00 7.324398756027221680e-01
-2.427125215530395508e+00 -5.482204437255859375e+00 6.629638075828552246e-01
-3.210314750671386719e+00 -5.529113769531250000e+00 6.550685167312622070e-01
-2.940034389495849609e+00 -5.515386581420898438e+00 5.809010863304138184e-01
-2.673838853836059570e+00 -5.486966133117675781e+00 5.093309879302978516e-01
-2.416320085525512695e+00 -5.450087547302246094e+00 4.409395754337310791e-01
-3.221070766448974609e+00 -5.543181896209716797e+00 4.224530458450317383e-01
-2.948065280914306641e+00 -5.525804519653320312e+00 3.534476757049560547e-01
-2.670709609985351562e+00 -5.475690364837646484e+00 2.862389683723449707e-01
-2.449214696884155273e+00 -5.516485214233398438e+00 2.265952825546264648e-01
-3.220571517944335938e+00 -5.540096759796142578e+00 1.901903003454208374e-01
-2.949844121932983398e+00 -5.524494647979736328e+00 1.268111616373062134e-01
-2.725083112716674805e+00 -5.579754352569580078e+00 6.611357629299163818e-02
-2.579948186874389648e+00 -5.750876426696777344e+00 1.165929675102233887e+00
-2.490983247756958008e+00 -5.542204380035400391e+00 8.961815237998962402e-01
-3.357648372650146484e+00 -5.706559658050537109e+00 9.222837686538696289e-01
-2.994409084320068359e+00 -5.539921283721923828e+00 8.156539201736450195e-01
-2.710972547531127930e+00 -5.482375144958496094e+00 7.347059845924377441e-01
-2.469284772872924805e+00 -5.486242771148681641e+00 6.652718782424926758e-01
-3.274971485137939453e+00 -5.561601638793945312e+00 6.612859368324279785e-01
-2.973346948623657227e+00 -5.496366977691650391e+00 5.808085203170776367e-01
-2.710550069808959961e+00 -5.476708412170410156e+00 5.099130272865295410e-01
-2.455043077468872070e+00 -5.446978092193603516e+00 4.418984353542327881e-01
-3.273260831832885742e+00 -5.554261207580566406e+00 4.248200953006744385e-01
-2.999979257583618164e+00 -5.540975093841552734e+00 3.555887639522552490e-01
-2.716229200363159180e+00 -5.483367443084716797e+00 2.875061333179473877e-01
-2.486716747283935547e+00 -5.509550571441650391e+00 2.269329279661178589e-01
-3.284455299377441406e+00 -5.571033477783203125e+00 1.919406056404113770e-01
-2.741939783096313477e+00 -5.527992248535156250e+00 6.569837033748626709e-02
-3.063070058822631836e+00 -6.780200958251953125e+00 9.089672937989234924e-03
-2.610698461532592773e+00 -5.725096225738525391e+00 1.163928866386413574e+00
-2.809313774108886719e+00 -5.606785297393798828e+00 9.842907190322875977e-01
-2.522476196289062500e+00 -5.521416187286376953e+00 8.953060507774353027e-01
-3.426602125167846680e+00 -5.742835998535156250e+00 9.315272569656372070e-01
-3.036452293395996094e+00 -5.536225318908691406e+00 8.178375363349914551e-01
-2.760154724121093750e+00 -5.496692657470703125e+00 7.388804554939270020e-01
-2.503728151321411133e+00 -5.472795963287353516e+00 6.654917001724243164e-01
-3.324335813522338867e+00 -5.567024707794189453e+00 6.643435955047607422e-01
-3.030972480773925781e+00 -5.521661758422851562e+00 5.854357481002807617e-01
-2.757976055145263672e+00 -5.487576007843017578e+00 5.124908685684204102e-01
-2.504617929458618164e+00 -5.467171669006347656e+00 4.447751045227050781e-01
-3.335433006286621094e+00 -5.581181526184082031e+00 4.284364283084869385e-01
-3.039690256118774414e+00 -5.532964229583740234e+00 3.562649190425872803e-01
-2.752067804336547852e+00 -5.471059799194335938e+00 2.877407968044281006e-01
-2.521309375762939453e+00 -5.496005058288574219e+00 2.270079553127288818e-01
-2.791550874710083008e+00 -5.542320728302001953e+00 6.607098877429962158e-02
-3.100441932678222656e+00 -6.752191066741943359e+00 9.077455848455429077e-03
-2.665210723876953125e+00 -5.750901222229003906e+00 1.172477722167968750e+00
-2.875020503997802734e+00 -5.651076793670654297e+00 9.951445460319519043e-01
-2.570472002029418945e+00 -5.536343097686767578e+00 9.002669453620910645e-01
-3.481257677078247070e+00 -5.753904342651367188e+00 9.367699027061462402e-01
-3.089654207229614258e+00 -5.552153110504150391e+00 8.229755759239196777e-01
-2.791124105453491211e+00 -5.474345684051513672e+00 7.381648421287536621e-01
-2.538937807083129883e+00 -5.460935592651367188e+00 6.659313440322875977e-01
-3.378526687622070312e+00 -5.579709529876708984e+00 6.683186888694763184e-01
-3.072547435760498047e+00 -5.516878604888916016e+00 5.869164466857910156e-01
-2.778912305831909180e+00 -5.445696353912353516e+00 5.101625323295593262e-01
-2.546534776687622070e+00 -5.469782829284667969e+00 4.462503194808959961e-01
-3.372718334197998047e+00 -5.565731048583984375e+00 4.288309216499328613e-01
-3.076499223709106445e+00 -5.519441604614257812e+00 3.566029667854309082e-01
-2.789220333099365234e+00 -5.461186885833740234e+00 2.881162464618682861e-01
-2.562162876129150391e+00 -5.495828151702880859e+00 2.276457250118255615e-01
-3.094381570816040039e+00 -5.546969413757324219e+00 1.286129057407379150e-01
-2.813667774200439453e+00 -5.501940250396728516e+00 6.579418480396270752e-02
-3.158728361129760742e+00 -6.769287586212158203e+00 9.126325137913227081e-03
-2.702960968017578125e+00 -5.739777088165283203e+00 1.173569083213806152e+00
-2.940922498703002930e+00 -5.693893909454345703e+00 1.005843400955200195e+00
-2.617479324340820312e+00 -5.548203468322753906e+00 9.047902226448059082e-01
-3.531516313552856445e+00 -5.756918430328369141e+00 9.407708048820495605e-01
-3.149015188217163086e+00 -5.577997684478759766e+00 8.296548724174499512e-01
-2.850676298141479492e+00 -5.507376194000244141e+00 7.449632883071899414e-01
-2.577492237091064453e+00 -5.456038475036621094e+00 6.672502160072326660e-01
-3.425190925598144531e+00 -5.579221248626708984e+00 6.707648634910583496e-01
-3.186668395996093750e+00 -5.640094757080078125e+00 6.020937561988830566e-01
-2.841611862182617188e+00 -5.485173225402832031e+00 5.154845118522644043e-01
-2.596254110336303711e+00 -5.488311290740966797e+00 4.490532279014587402e-01
-3.435535192489624023e+00 -5.591691970825195312e+00 4.324472546577453613e-01
-3.104410886764526367e+00 -5.490031242370605469e+00 3.559268414974212646e-01
-2.837850332260131836e+00 -5.473233699798583984e+00 2.896650135517120361e-01
-2.606103420257568359e+00 -5.501677989959716797e+00 2.285461127758026123e-01
-3.123927354812622070e+00 -5.520047664642333984e+00 1.284307092428207397e-01
-2.854745864868164062e+00 -5.498771667480468750e+00 6.596451997756958008e-02
-2.744494676589965820e+00 -5.736389636993408203e+00 1.176297545433044434e+00
-2.981308937072753906e+00 -5.686240673065185547e+00 1.007704019546508789e+00
-2.669432163238525391e+00 -5.569507598876953125e+00 9.109184741973876953e-01
-3.626403093338012695e+00 -5.831021308898925781e+00 9.564986228942871094e-01
-3.193531513214111328e+00 -5.576643466949462891e+00 8.323523998260498047e-01
-2.902887344360351562e+00 -5.524938106536865234e+00 7.497340440750122070e-01
-2.618232488632202148e+00 -5.455353736877441406e+00 6.691186428070068359e-01
-3.478283405303955078e+00 -5.588503837585449219e+00 6.744341254234313965e-01
-3.219729900360107422e+00 -5.617843627929687500e+00 6.018160581588745117e-01
-2.909537315368652344e+00 -5.532903194427490234e+00 5.216380357742309570e-01
-2.637224674224853516e+00 -5.487558841705322266e+00 4.503071606159210205e-01
-3.504071950912475586e+00 -5.625559806823730469e+00 4.367211163043975830e-01
-3.188708066940307617e+00 -5.559217453002929688e+00 3.616739511489868164e-01
-2.890919446945190430e+00 -5.492843627929687500e+00 2.916361391544342041e-01
-2.656711816787719727e+00 -5.520701408386230469e+00 2.300092279911041260e-01
-3.144299507141113281e+00 -5.477364540100097656e+00 1.278841048479080200e-01
-2.891228914260864258e+00 -5.486459732055664062e+00 6.602840125560760498e-02
-2.784368753433227539e+00 -5.729170322418212891e+00 1.178298354148864746e+00
-3.030065774917602539e+00 -5.694004058837890625e+00 1.012355685234069824e+00
-2.719145536422729492e+00 -5.585044384002685547e+00 9.161712527275085449e-01
-3.241635799407958984e+00 -5.580954551696777344e+00 8.359489440917968750e-01
-2.936733007431030273e+00 -5.507022380828857422e+00 7.497340440750122070e-01
-2.670820951461791992e+00 -5.478497028350830078e+00 6.739546060562133789e-01
-3.564529895782470703e+00 -5.649506092071533203e+00 6.844227313995361328e-01
-3.244632005691528320e+00 -5.581626415252685547e+00 6.000577211380004883e-01
-2.948593139648437500e+00 -5.524617195129394531e+00 5.225527882575988770e-01
-2.686157941818237305e+00 -5.502640247344970703e+00 4.528887569904327393e-01
-3.557170152664184570e+00 -5.633483409881591797e+00 4.390224218368530273e-01
-3.227277517318725586e+00 -5.547314167022705078e+00 3.621810674667358398e-01
-2.949983119964599609e+00 -5.522580146789550781e+00 2.941704690456390381e-01
-2.693168878555297852e+00 -5.509682655334472656e+00 2.302343100309371948e-01
-3.194952964782714844e+00 -5.487344264984130859e+00 1.285724192857742310e-01
-2.927668571472167969e+00 -5.473906993865966797e+00 6.609227508306503296e-02
-3.097807168960571289e+00 -5.736152172088623047e+00 1.023209571838378906e+00
-2.754240512847900391e+00 -5.570028305053710938e+00 9.164630174636840820e-01
-3.309040069580078125e+00 -5.617354869842529297e+00 8.444265723228454590e-01
-2.986062526702880859e+00 -5.517714977264404297e+00 7.536699771881103516e-01
-2.714970827102661133e+00 -5.483383655548095703e+00 6.765923500061035156e-01
-3.622710704803466797e+00 -5.664402484893798828e+00 6.889074444770812988e-01
-3.273256778717041016e+00 -5.552177429199218750e+00 5.990397930145263672e-01
-2.998098134994506836e+00 -5.535337924957275391e+00 5.252969264984130859e-01
-2.720314025878906250e+00 -5.486948490142822266e+00 4.529625177383422852e-01
-3.617489576339721680e+00 -5.651891708374023438e+00 4.421784877777099609e-01
-3.254658699035644531e+00 -5.516229152679443359e+00 3.614485859870910645e-01
-2.987145662307739258e+00 -5.510522365570068359e+00 2.944990098476409912e-01
-2.722481727600097656e+00 -5.484103679656982422e+00 2.298591583967208862e-01
-2.964062690734863281e+00 -5.461112976074218750e+00 6.615615636110305786e-02
-2.919428825378417969e+00 -5.875678539276123047e+00 8.015772327780723572e-03
-3.148137569427490234e+00 -5.744759559631347656e+00 1.028171420097351074e+00
-2.803903579711914062e+00 -5.583967685699462891e+00 9.215699434280395508e-01
-3.373451948165893555e+00 -5.647176742553710938e+00 8.520051240921020508e-01
-3.036110877990722656e+00 -5.528878211975097656e+00 7.577251791954040527e-01
-2.757494688034057617e+00 -5.484381675720214844e+00 6.787905097007751465e-01
-3.692571163177490234e+00 -5.696326255798339844e+00 6.955325007438659668e-01
-3.320035934448242188e+00 -5.553354263305664062e+00 6.013533473014831543e-01
-3.039205551147460938e+00 -5.529937267303466797e+00 5.265442728996276855e-01
-2.748996973037719727e+00 -5.460354804992675781e+00 4.521511495113372803e-01
-3.683598518371582031e+00 -5.678141117095947266e+00 4.459920823574066162e-01
-3.328941345214843750e+00 -5.563839435577392578e+00 3.658997714519500732e-01
-3.044009685516357422e+00 -5.534101486206054688e+00 2.967517673969268799e-01
-2.774523019790649414e+00 -5.503880977630615234e+00 2.313973009586334229e-01
-3.004751205444335938e+00 -5.455961227416992188e+00 6.631585210561752319e-02
-2.798668384552001953e+00 -5.546960353851318359e+00 7.590610068291425705e-03
-3.199649572372436523e+00 -5.754691123962402344e+00 1.033443212509155273e+00
-2.855638265609741211e+00 -5.601031303405761719e+00 9.272604584693908691e-01
-3.439894199371337891e+00 -5.678961753845214844e+00 8.599689602851867676e-01
-3.080609560012817383e+00 -5.529226303100585938e+00 7.603491544723510742e-01
-2.806007862091064453e+00 -5.496572494506835938e+00 6.824174523353576660e-01
-3.748756647109985352e+00 -5.705986976623535156e+00 6.995075941085815430e-01
-3.376243352890014648e+00 -5.569491863250732422e+00 6.053327918052673340e-01
-3.079873800277709961e+00 -5.523370265960693359e+00 5.277084112167358398e-01
-2.790165901184082031e+00 -5.458480834960937500e+00 4.534050822257995605e-01
-3.750712871551513672e+00 -5.704624176025390625e+00 4.498714208602905273e-01
-3.397196769714355469e+00 -5.599646568298339844e+00 3.696185052394866943e-01
-3.093972682952880859e+00 -5.544104099273681641e+00 2.983005046844482422e-01
-2.853771209716796875e+00 -5.575707912445068359e+00 2.351488769054412842e-01
-3.074753046035766602e+00 -5.502891063690185547e+00 6.711432337760925293e-02
-2.828091859817504883e+00 -5.520783424377441406e+00 7.578392513096332550e-03
-2.912689208984375000e+00 -5.627332687377929688e+00 9.345559477806091309e-01
-3.511523723602294922e+00 -5.717748165130615234e+00 8.690888881683349609e-01
-3.120829343795776367e+00 -5.521456718444824219e+00 7.618997097015380859e-01
-2.850657939910888672e+00 -5.500431060791015625e+00 6.850552558898925781e-01
-3.429644823074340820e+00 -5.580057621002197266e+00 6.087569594383239746e-01
-3.136276960372924805e+00 -5.544267654418945312e+00 5.315335988998413086e-01
-2.794207572937011719e+00 -5.384605407714843750e+00 4.486843943595886230e-01
-3.777899026870727539e+00 -5.669877529144287109e+00 4.489508867263793945e-01
-3.450845956802368164e+00 -5.610161304473876953e+00 3.717032074928283691e-01
-3.157951831817626953e+00 -5.578040122985839844e+00 3.011633753776550293e-01
-2.883782863616943359e+00 -5.550112247467041016e+00 2.348112314939498901e-01
