-8.547537922859191895e-01 -6.080926418304443359e+00 7.953588962554931641e-01
-6.104534268379211426e-01 -5.885885238647460938e+00 7.108519077301025391e-01
-3.877325952053070068e-01 -5.774721145629882812e+00 6.399930715560913086e-01
-4.217679202556610107e-01 -5.851296901702880859e+00 1.085169434547424316e+00
-6.667063832283020020e-01 -6.114460945129394531e+00 9.653739929199218750e-01
-4.265751540660858154e-01 -5.860925674438476562e+00 8.667075634002685547e-01
-6.503539085388183594e-01 -5.916570663452148438e+00 7.150263786315917969e-01
-4.244663715362548828e-01 -5.790076255798339844e+00 6.419714093208312988e-01
-4.582765996456146240e-01 -5.856441974639892578e+00 1.086624622344970703e+00
-7.072653770446777344e-01 -6.136753082275390625e+00 9.695604443550109863e-01
-4.628405869007110596e-01 -5.862143039703369141e+00 8.672912716865539551e-01
-6.888212561607360840e-01 -5.931207180023193359e+00 7.172925472259521484e-01
-4.615606367588043213e-01 -5.807178974151611328e+00 6.441695690155029297e-01
-8.462547510862350464e-02 -7.242684364318847656e-01 3.426044061779975891e-02
-4.992486834526062012e-01 -5.913289070129394531e+00 1.097720026969909668e+00
-7.480037808418273926e-01 -6.157796382904052734e+00 9.735919237136840820e-01
-4.987173974514007568e-01 -5.858207225799560547e+00 8.671453595161437988e-01
-7.324365973472595215e-01 -5.985999584197998047e+00 7.244487404823303223e-01
-4.968448281288146973e-01 -5.800276756286621094e+00 6.437299251556396484e-01
-9.174828976392745972e-02 -7.423091530799865723e-01 7.963438518345355988e-03
-5.360549688339233398e-01 -5.915990352630615234e+00 1.098811388015747070e+00
-7.946584224700927734e-01 -6.222666740417480469e+00 9.846008419990539551e-01
-5.355529189109802246e-01 -5.864888668060302734e+00 8.686044216156005859e-01
-7.726978659629821777e-01 -6.008965492248535156e+00 7.277883291244506836e-01
-5.338797569274902344e-01 -5.812955379486083984e+00 6.454884409904479980e-01
-5.763239264488220215e-01 -5.953697204589843750e+00 1.106450915336608887e+00
-8.319069743156433105e-01 -6.210819721221923828e+00 9.835154414176940918e-01
-5.726811885833740234e-01 -5.873307704925537109e+00 8.703553676605224609e-01
-8.128703832626342773e-01 -6.028710365295410156e+00 7.307700514793395996e-01
-5.712829232215881348e-01 -5.827375411987304688e+00 6.474668383598327637e-01
-7.272204011678695679e-02 -7.338862419128417969e-01 2.768664248287677765e-02
-6.164711713790893555e-01 -5.985261917114257812e+00 1.112999081611633301e+00
-6.099328994750976562e-01 -5.881491661071777344e+00 8.721063137054443359e-01
-8.630235195159912109e-01 -6.117005825042724609e+00 7.421007752418518066e-01
-6.107378005981445312e-01 -5.859349250793457031e+00 6.514234542846679688e-01
-6.647130846977233887e-01 -6.086937427520751953e+00 1.132643342018127441e+00
-6.484954953193664551e-01 -5.900256156921386719e+00 8.754622936248779297e-01
-6.408959031105041504e-01 -5.803131103515625000e+00 6.455983519554138184e-01
-6.897075772285461426e-01 -5.939404487609863281e+00 8.818822503089904785e-01
-6.850135922431945801e-01 -5.872146129608154297e+00 6.537315845489501953e-01
-7.332264780998229980e-01 -5.992997169494628906e+00 8.904910087585449219e-01
-7.870173454284667969e-01 -6.120850563049316406e+00 9.101889133453369141e-01
-7.393313050270080566e-01 -5.726277351379394531e+00 6.384543776512145996e-01
-1.179218143224716187e-01 -7.041538953781127930e-01 7.601463701575994492e-03
-8.332834243774414062e-01 -6.180614471435546875e+00 9.198189973831176758e-01
-8.237813711166381836e-01 -6.086068153381347656e+00 6.791202425956726074e-01
-8.742315769195556641e-01 -6.196936130523681641e+00 9.230290055274963379e-01
-8.694708943367004395e-01 -6.139946460723876953e+00 6.857147216796875000e-01
-9.123627543449401855e-01 -6.169892311096191406e+00 6.896713972091674805e-01
-1.068680509924888611e-01 -6.908739209175109863e-01 5.170602723956108093e-02
-3.216236829757690430e+00 -6.892530441284179688e+00 9.292480535805225372e-03
-3.288456678390502930e+00 -6.935917377471923828e+00 9.378001093864440918e-03
-3.324009656906127930e+00 -6.901194095611572266e+00 9.358453564345836639e-03
-3.315314054489135742e+00 -6.776470184326171875e+00 9.216732345521450043e-03
-3.428543090820312500e+00 -6.692937850952148438e+00 9.187411516904830933e-03
-3.331132650375366211e+00 -6.405613422393798828e+00 8.820892311632633209e-03
-3.582306146621704102e+00 -6.786550998687744141e+00 9.375557303428649902e-03
-3.686686515808105469e+00 -6.881678581237792969e+00 9.538047946989536285e-03
-1.852946281433105469e+00 -2.671944618225097656e+00 9.650430083274841309e-02
-3.740783214569091797e+00 -6.880892276763916016e+00 9.568590670824050903e-03
-1.844596505165100098e+00 -2.625356197357177734e+00 9.522864222526550293e-02
-3.464146614074707031e+00 -6.279904365539550781e+00 8.762249723076820374e-03
-1.853135347366333008e+00 -2.603402614593505859e+00 9.484299272298812866e-02
-3.679893732070922852e+00 -6.575296878814697266e+00 9.205737151205539703e-03
-1.898890972137451172e+00 -2.633331298828125000e+00 9.635596722364425659e-02
-3.834218740463256836e+00 -6.753476142883300781e+00 9.487956762313842773e-03
-3.850133657455444336e+00 -6.685626983642578125e+00 9.425648488104343414e-03
-1.851228475570678711e+00 -2.700774431228637695e+00 6.630053371191024780e-02
-3.880996465682983398e+00 -6.644607067108154297e+00 9.401214309036731720e-03
-1.906935453414916992e+00 -2.747812032699584961e+00 1.887533515691757202e-01
-1.844952940940856934e+00 -2.656517505645751953e+00 6.549075245857238770e-02
-3.947176218032836914e+00 -6.663688182830810547e+00 9.462300688028335571e-03
-1.883561849594116211e+00 -2.678888082504272461e+00 1.848092526197433472e-01
-1.865821003913879395e+00 -2.651688575744628906e+00 6.565271317958831787e-02
-3.986444711685180664e+00 -6.636771678924560547e+00 9.458635933697223663e-03
-1.886640787124633789e+00 -2.648576974868774414e+00 1.835133284330368042e-01
-1.883216977119445801e+00 -2.641818284988403320e+00 6.569319963455200195e-02
-4.016688823699951172e+00 -6.595105171203613281e+00 9.434200823307037354e-03
-1.895845770835876465e+00 -2.627235174179077148e+00 1.828371882438659668e-01
-1.898806095123291016e+00 -2.629402875900268555e+00 6.567295640707015991e-02
-4.008744239807128906e+00 -6.492056369781494141e+00 9.321802295744419098e-03
-1.929071068763732910e+00 -2.637068986892700195e+00 6.615882366895675659e-02
-4.131807804107666016e+00 -6.600412845611572266e+00 9.513612836599349976e-03
-1.842606544494628906e+00 -2.684238433837890625e+00 3.466437757015228271e-02
-4.193125247955322266e+00 -6.607865810394287109e+00 9.561260230839252472e-03
-1.865389466285705566e+00 -2.685005903244018555e+00 1.536088138818740845e-01
-1.855616450309753418e+00 -2.667956590652465820e+00 3.460050001740455627e-02
-4.191396236419677734e+00 -6.516411304473876953e+00 9.465965442359447479e-03
-1.885853886604309082e+00 -2.679227352142333984e+00 1.539373397827148438e-01
-1.864463925361633301e+00 -2.645894289016723633e+00 3.446209803223609924e-02
-4.202356815338134766e+00 -6.446172237396240234e+00 9.401214309036731720e-03
-1.895298242568969727e+00 -2.657845973968505859e+00 1.533741503953933716e-01
-1.884149670600891113e+00 -2.639287471771240234e+00 3.452597931027412415e-02
-4.138748168945312500e+00 -6.264243602752685547e+00 9.172750636935234070e-03
-1.904551506042480469e+00 -2.636450052261352539e+00 1.528109610080718994e-01
-1.917301654815673828e+00 -2.651174306869506836e+00 3.483471646904945374e-02
-4.293941497802734375e+00 -6.413229465484619141e+00 9.429314173758029938e-03
-1.925850749015808105e+00 -2.628873586654663086e+00 3.469631448388099670e-02
-1.831986069679260254e+00 -2.700181722640991211e+00 3.986505791544914246e-03
-1.856450676918029785e+00 -2.700426816940307617e+00 4.003609996289014816e-03
-1.881005644798278809e+00 -2.702510356903076172e+00 1.236144751310348511e-01
-1.867841243743896484e+00 -2.681599855422973633e+00 3.992614336311817169e-03
-1.884307026863098145e+00 -2.672134637832641602e+00 1.227516159415245056e-01
-1.879647493362426758e+00 -2.663552284240722656e+00 3.982840571552515030e-03
-1.894277811050415039e+00 -2.651578187942504883e+00 1.223389431834220886e-01
-1.891884326934814453e+00 -2.646274566650390625e+00 3.974288702011108398e-03
-1.886491417884826660e+00 -2.606714248657226562e+00 1.208008006215095520e-01
-1.913951516151428223e+00 -2.642715215682983398e+00 3.986505791544914246e-03
-1.930130958557128906e+00 -2.630921840667724609e+00 3.986505791544914246e-03
-4.617766380310058594e+00 -6.214074134826660156e+00 9.458635933697223663e-03
-4.648591995239257812e+00 -6.176035404205322266e+00 9.443975053727626801e-03
-4.683368206024169922e+00 -6.143419265747070312e+00 9.437866508960723877e-03
-4.705086231231689453e+00 -6.093987464904785156e+00 9.406100958585739136e-03
-4.938885688781738281e+00 -6.316299915313720703e+00 9.795833379030227661e-03
-4.986860275268554688e+00 -6.297636032104492188e+00 9.814158082008361816e-03
-5.019152641296386719e+00 -6.259117603302001953e+00 9.801941923797130585e-03
-5.039182186126708984e+00 -6.205689907073974609e+00 9.766511619091033936e-03
-5.044773578643798828e+00 -6.135260105133056641e+00 9.704203344881534576e-03
-5.097040653228759766e+00 -6.121866226196289062e+00 9.732303209602832794e-03
-5.195095539093017578e+00 -6.162344455718994141e+00 9.847145527601242065e-03
-5.199698448181152344e+00 -6.091562271118164062e+00 9.784838184714317322e-03
-5.361870288848876953e+00 -6.204051971435546875e+00 1.001818850636482239e-02
-4.950727939605712891e+00 -5.657785415649414062e+00 9.184967726469039917e-03
-5.072882652282714844e+00 -5.726105690002441406e+00 9.346236474812030792e-03
-5.327595710754394531e+00 -5.939787864685058594e+00 9.748185984790325165e-03
-5.367302417755126953e+00 -5.910687923431396484e+00 9.754293598234653473e-03
-5.387902736663818359e+00 -5.860711574554443359e+00 9.726194664835929871e-03
-5.464639186859130859e+00 -5.871461868286132812e+00 9.799497202038764954e-03
-5.582169532775878906e+00 -5.924431324005126953e+00 9.944884106516838074e-03
-5.617035865783691406e+00 -5.888621330261230469e+00 9.942440316081047058e-03
-5.538444995880126953e+00 -5.735352516174316406e+00 9.740855544805526733e-03
-5.575629234313964844e+00 -5.703406810760498047e+00 9.744520299136638641e-03
-5.623181343078613281e+00 -5.681881904602050781e+00 9.766511619091033936e-03
-5.689080715179443359e+00 -5.678354740142822266e+00 9.820267558097839355e-03
-5.891157627105712891e+00 -5.808330059051513672e+00 1.010737475007772446e-02
-4.603409767150878906e+00 -3.600825309753417969e+00 1.734585314989089966e-01
-5.829973697662353516e+00 -5.677883625030517578e+00 9.942440316081047058e-03
-4.619879722595214844e+00 -3.568234443664550781e+00 1.732508689165115356e-01
-5.925237655639648438e+00 -5.700240612030029297e+00 1.004506554454565048e-02
-4.628175258636474609e+00 -3.529516220092773438e+00 1.727465540170669556e-01
-6.089133739471435547e+00 -5.786393642425537109e+00 1.026253402233123779e-02
-6.004220962524414062e+00 -5.635997295379638672e+00 1.006094831973314285e-02
-6.029156208038330078e+00 -5.590210914611816406e+00 1.004506554454565048e-02
-5.996235847473144531e+00 -5.491650581359863281e+00 9.933888912200927734e-03
-4.603815555572509766e+00 -3.596045732498168945e+00 1.182882487773895264e-01
-6.186293125152587891e+00 -5.596305847167968750e+00 1.019167341291904449e-02
-4.621835231781005859e+00 -3.564676523208618164e+00 1.181870251893997192e-01
-6.266002178192138672e+00 -5.598886966705322266e+00 1.026619970798492432e-02
-4.635666370391845703e+00 -3.530192852020263672e+00 1.179845780134201050e-01
-6.269497871398925781e+00 -5.533203601837158203e+00 1.021610852330923080e-02
-6.282978057861328125e+00 -5.476888656616210938e+00 1.018312107771635056e-02
-6.310402870178222656e+00 -5.433014869689941406e+00 1.017334777861833572e-02
-6.275818824768066406e+00 -5.336538314819335938e+00 1.006461307406425476e-02
-4.621160507202148438e+00 -3.604483604431152344e+00 6.239800900220870972e-02
-6.140740394592285156e+00 -5.157089233398437500e+00 9.797054342925548553e-03
-4.632891654968261719e+00 -3.568128824234008789e+00 6.225960701704025269e-02
-6.366234779357910156e+00 -5.280190467834472656e+00 1.010493095964193344e-02
-4.667433261871337891e+00 -3.549319267272949219e+00 6.242994964122772217e-02
-6.601198196411132812e+00 -5.407047748565673828e+00 1.042502373456954956e-02
-6.737656116485595703e+00 -5.450086116790771484e+00 1.058751437813043594e-02
-6.648302555084228516e+00 -5.310655117034912109e+00 1.039570290595293045e-02
-4.601709842681884766e+00 -3.629812240600585938e+00 7.160560693591833115e-03
-4.653277873992919922e+00 -3.627004623413085938e+00 2.214931398630142212e-01
-4.647563457489013672e+00 -3.619943141937255859e+00 7.197212893515825272e-03
-4.664358615875244141e+00 -3.589851856231689453e+00 2.209679186344146729e-01
-4.648284912109375000e+00 -3.574898004531860352e+00 7.164225913584232330e-03
-4.635376930236816406e+00 -3.522469043731689453e+00 2.185669094324111938e-01
-4.657390117645263672e+00 -3.536633014678955078e+00 7.144677918404340744e-03
-4.682203292846679688e+00 -3.510388851165771484e+00 7.149565033614635468e-03
-6.864988327026367188e+00 -5.081388950347900391e+00 1.043479796499013901e-02
-6.904112339019775391e+00 -5.045070648193359375e+00 1.044701505452394485e-02
-6.458875656127929688e+00 -4.659198284149169922e+00 9.729859419167041779e-03
-7.188699245452880859e+00 -5.118898868560791016e+00 1.078176964074373245e-02
-6.515564918518066406e+00 -4.579587459564208984e+00 9.729859419167041779e-03
-7.227968692779541016e+00 -5.014337062835693359e+00 1.074756123125553131e-02
-7.301505565643310547e+00 -4.999269962310791016e+00 1.081109046936035156e-02
-7.042870998382568359e+00 -4.758976459503173828e+00 1.038470678031444550e-02
-7.022851467132568359e+00 -4.682940483093261719e+00 1.031262427568435669e-02
-6.990470409393310547e+00 -4.599635124206542969e+00 1.022343803197145462e-02
-7.016884326934814453e+00 -4.555566787719726562e+00 1.022099517285823822e-02
-1.405983924865722656e+01 -6.988925457000732422e+00 4.659973978996276855e-01
-6.798822402954101562e+00 -4.354928016662597656e+00 9.864250198006629944e-03
-1.409707069396972656e+01 -6.899887561798095703e+00 4.658193886280059814e-01
-7.046053886413574219e+00 -4.452555179595947266e+00 1.018312107771635056e-02
-1.413644027709960938e+01 -6.811957836151123047e+00 4.657303690910339355e-01
-7.421175956726074219e+00 -4.626129150390625000e+00 1.068403106182813644e-02
-1.417797183990478516e+01 -6.725090026855468750e+00 4.657303690910339355e-01
-7.229644298553466797e+00 -4.445369720458984375e+00 1.036882493644952774e-02
-1.485146617889404297e+01 -6.936400890350341797e+00 1.080098986625671387e+00
-1.422168636322021484e+01 -6.639237403869628906e+00 4.658193886280059814e-01
-7.413257598876953125e+00 -4.495820045471191406e+00 1.059240102767944336e-02
-1.488558864593505859e+01 -6.841393470764160156e+00 1.079507231712341309e+00
-1.422854900360107422e+01 -6.536411285400390625e+00 4.647217392921447754e-01
-6.886298656463623047e+00 -4.118661403656005859e+00 9.803162887692451477e-03
-1.491637516021728516e+01 -6.744994163513183594e+00 1.078718185424804688e+00
-7.849662303924560547e+00 -3.547867059707641602e+00 2.556636929512023926e-01
-7.472177028656005859e+00 -4.407049655914306641e+00 1.059850957244634628e-02
-1.475417041778564453e+01 -6.562906265258789062e+00 1.064055681228637695e+00
-1.423298549652099609e+01 -6.960446834564208984e+00 8.941273689270019531e-01
-7.855757713317871094e+00 -3.492732524871826172e+00 2.551593780517578125e-01
-1.423178672790527344e+01 -6.953705787658691406e+00 3.207326233386993408e-01
-7.665915489196777344e+00 -4.458143711090087891e+00 1.083430275321006775e-02
-1.491849040985107422e+01 -6.526644706726074219e+00 1.072997808456420898e+00
-1.419716358184814453e+01 -6.835303783416748047e+00 8.892254233360290527e-01
-1.433088302612304688e+01 -6.266594886779785156e+00 4.642173945903778076e-01
-1.409489250183105469e+01 -6.780005455017089844e+00 3.167039752006530762e-01
-7.380820751190185547e+00 -4.231955528259277344e+00 1.039448101073503494e-02
-1.497750473022460938e+01 -6.443264484405517578e+00 1.074378609657287598e+00
-1.417297458648681641e+01 -6.716849803924560547e+00 8.851123452186584473e-01
-1.441130542755126953e+01 -6.196707248687744141e+00 4.655820727348327637e-01
-1.419315624237060547e+01 -6.720347881317138672e+00 3.179793655872344971e-01
-7.602522850036621094e+00 -4.297305583953857422e+00 1.066937018185853958e-02
-1.419672966003417969e+01 -6.621740818023681641e+00 8.840417861938476562e-01
-1.444537353515625000e+01 -6.106607437133789062e+00 4.654633998870849609e-01
-1.420421886444091797e+01 -6.619197845458984375e+00 3.173113167285919189e-01
-7.642724037170410156e+00 -4.258363723754882812e+00 1.068891771137714386e-02
-1.424979591369628906e+01 -6.540337085723876953e+00 8.848305940628051758e-01
-1.453795337677001953e+01 -6.040870189666748047e+00 4.672433733940124512e-01
-1.417731475830078125e+01 -6.501079082489013672e+00 3.158132135868072510e-01
-7.657313823699951172e+00 -4.205131053924560547e+00 1.067303493618965149e-02
-1.426327133178710938e+01 -6.440863132476806641e+00 8.831966519355773926e-01
-1.407883930206298828e+01 -6.983437538146972656e+00 7.383829355239868164e-01
-1.470429897308349609e+01 -6.004455566406250000e+00 4.713966250419616699e-01
-7.791064262390136719e+00 -3.514936208724975586e+00 1.730697005987167358e-01
-7.684731483459472656e+00 -4.159019947052001953e+00 1.067547965794801712e-02
-1.429339885711669922e+01 -6.349171161651611328e+00 8.826332092285156250e-01
-1.408193111419677734e+01 -6.877631664276123047e+00 7.363179326057434082e-01
-1.497000312805175781e+01 -6.006050586700439453e+00 4.787242114543914795e-01
-7.847211360931396484e+00 -3.482475757598876953e+00 1.738389879465103149e-01
-7.451572895050048828e+00 -3.973913431167602539e+00 1.031751185655593872e-02
-1.438423728942871094e+01 -6.284132003784179688e+00 8.858448266983032227e-01
-1.416707706451416016e+01 -6.811873912811279297e+00 7.385706305503845215e-01
-1.429274368286132812e+01 -6.238220214843750000e+00 3.157727420330047607e-01
-7.474930763244628906e+00 -3.927651405334472656e+00 1.031628996133804321e-02
-1.446472263336181641e+01 -6.213881015777587891e+00 8.884366154670715332e-01
-1.429167175292968750e+01 -6.764132022857666016e+00 7.428883910179138184e-01
-1.435188293457031250e+01 -6.159472942352294922e+00 3.162383437156677246e-01
-7.844349861145019531e+00 -4.060535430908203125e+00 1.079154293984174728e-02
-1.453844833374023438e+01 -6.140160083770751953e+00 8.906341195106506348e-01
-1.420885562896728516e+01 -6.618528842926025391e+00 7.364587187767028809e-01
-1.445757198333740234e+01 -6.100056648254394531e+00 3.177364468574523926e-01
-7.879807949066162109e+00 -4.017777919769287109e+00 1.080620381981134415e-02
-1.465515136718750000e+01 -6.083758354187011719e+00 8.954796791076660156e-01
-1.419834804534912109e+01 -6.507912635803222656e+00 7.338305115699768066e-01
-1.458246421813964844e+01 -6.047617435455322266e+00 3.196596801280975342e-01
-7.815841197967529297e+00 -3.924924850463867188e+00 1.068525202572345734e-02
-1.488633823394775391e+01 -6.072918415069580078e+00 9.073119759559631348e-01
-1.420158863067626953e+01 -6.404245376586914062e+00 7.319532036781311035e-01
-1.407971572875976562e+01 -6.968760013580322266e+00 5.897855162620544434e-01
-1.471003150939941406e+01 -5.995005130767822266e+00 3.216436207294464111e-01
-7.796457290649414062e+00 -3.510922670364379883e+00 9.103658050298690796e-02
-7.872046947479248047e+00 -3.892851829528808594e+00 1.072923466563224792e-02
-1.422418212890625000e+01 -6.309695243835449219e+00 7.311084866523742676e-01
-1.409166717529296875e+01 -6.867352962493896484e+00 5.885099172592163086e-01
-1.495166206359863281e+01 -5.986766338348388672e+00 3.261176347732543945e-01
-7.815110206604003906e+00 -3.461803436279296875e+00 9.100463986396789551e-02
-8.032445907592773438e+00 -3.911017179489135742e+00 1.091493759304285049e-02
-1.438348388671875000e+01 -6.275022983551025391e+00 7.373034954071044922e-01
-1.412002563476562500e+01 -6.774275302886962891e+00 5.879472494125366211e-01
-7.860956192016601562e+00 -3.424568653106689453e+00 9.129209071397781372e-02
-7.964313507080078125e+00 -3.817568778991699219e+00 1.079032197594642639e-02
-1.444374752044677734e+01 -6.196100711822509766e+00 7.384299039840698242e-01
-1.417487907409667969e+01 -6.693909645080566406e+00 5.885099172592163086e-01
-7.926089286804199219e+00 -3.739613294601440430e+00 1.070724427700042725e-02
-1.442166805267333984e+01 -6.082128047943115234e+00 7.353792786598205566e-01
-1.418306255340576172e+01 -6.591646671295166016e+00 5.871593952178955078e-01
-7.887209415435791016e+00 -3.662271261215209961e+00 1.062416564673185349e-02
-1.454822349548339844e+01 -6.030627250671386719e+00 7.399317026138305664e-01
-1.410328292846679688e+01 -6.449637889862060547e+00 5.822073221206665039e-01
-1.477633762359619141e+01 -6.116122245788574219e+00 1.702664047479629517e-01
-7.852230548858642578e+00 -3.587626457214355469e+00 1.054719742387533188e-02
-1.468486213684082031e+01 -5.981945991516113281e+00 7.450003623962402344e-01
-1.415626144409179688e+01 -6.369130611419677734e+00 5.827700495719909668e-01
-1.488953971862792969e+01 -6.056234359741210938e+00 1.711394041776657104e-01
-7.797480583190917969e+00 -3.504940032958984375e+00 1.044457219541072845e-02
-1.423802375793457031e+01 -6.301156520843505859e+00 5.845332741737365723e-01
-1.488927650451660156e+01 -5.949917316436767578e+00 1.707135289907455444e-01
-7.810607433319091797e+00 -3.453389883041381836e+00 1.043357606977224350e-02
-1.428466606140136719e+01 -6.217264652252197266e+00 5.848709344863891602e-01
-7.856410980224609375e+00 -3.416166543960571289e+00 1.046656258404254913e-02
-1.437399196624755859e+01 -6.151515960693359375e+00 5.869718194007873535e-01
-7.917681217193603516e+00 -3.385193586349487305e+00 1.052031852304935455e-02
-1.444462680816650391e+01 -6.077154159545898438e+00 5.883224010467529297e-01
-8.248976707458496094e+00 -3.467126846313476562e+00 1.093204133212566376e-02
-1.454259109497070312e+01 -6.013612270355224609e+00 5.907984375953674316e-01
-8.282111167907714844e+00 -3.421410560607910156e+00 1.094792503863573074e-02
-1.469679069519042969e+01 -5.972043514251708984e+00 5.955629348754882812e-01
-8.224189758300781250e+00 -3.338556766510009766e+00 1.084407791495323181e-02
-8.441437721252441406e+00 -3.366564750671386719e+00 1.110308431088924408e-02
-8.481489181518554688e+00 -3.322365045547485352e+00 1.112874038517475128e-02
-8.516648292541503906e+00 -3.276005268096923828e+00 1.114828791469335556e-02
-8.520685195922851562e+00 -3.217680931091308594e+00 1.112751942127943039e-02
-8.579649925231933594e+00 -3.179934740066528320e+00 1.117883156985044479e-02
-1.103811931610107422e+01 -2.706115961074829102e+00 3.373052179813385010e-01
-8.595241546630859375e+00 -3.125864028930664062e+00 1.117394492030143738e-02
-8.672654151916503906e+00 -3.093897581100463867e+00 1.124969124794006348e-02
-8.780201911926269531e+00 -3.071665287017822266e+00 1.136453449726104736e-02
-8.848072052001953125e+00 -3.034602880477905273e+00 1.142806373536586761e-02
-8.713915824890136719e+00 -2.928959369659423828e+00 1.123136654496192932e-02
-1.100931930541992188e+01 -2.762732744216918945e+00 2.298350930213928223e-01
-8.648138999938964844e+00 -2.847911357879638672e+00 1.112385373562574387e-02
-1.101246643066406250e+01 -2.691805362701416016e+00 2.295516729354858398e-01
-8.815823554992675781e+00 -2.843292236328125000e+00 1.131688710302114487e-02
-8.797821044921875000e+00 -2.778004884719848633e+00 1.127168349921703339e-02
-8.828076362609863281e+00 -2.728103637695312500e+00 1.128878723829984665e-02
-8.846564292907714844e+00 -2.674463033676147461e+00 1.129123102873563766e-02
-8.866642951965332031e+00 -2.621265172958374023e+00 1.129611767828464508e-02
-1.101866817474365234e+01 -2.757030963897705078e+00 1.209314092993736267e-01
-9.050681114196777344e+00 -2.615393400192260742e+00 1.150992047041654587e-02
-1.102371883392333984e+01 -2.686528682708740234e+00 1.208036467432975769e-01
-8.883707046508789062e+00 -2.508184909820556641e+00 1.127779204398393631e-02
-8.877721786499023438e+00 -2.447780370712280273e+00 1.125091407448053360e-02
-9.063491821289062500e+00 -2.439260959625244141e+00 1.146715972572565079e-02
-8.725255012512207031e+00 -2.290909767150878906e+00 1.102122850716114044e-02
-8.300300598144531250e+00 -2.124979257583618164e+00 1.046778541058301926e-02
-8.647921562194824219e+00 -2.157521724700927734e+00 1.088928151875734329e-02
-9.132285118103027344e+00 -2.218930482864379883e+00 1.148182060569524765e-02
-8.513175964355468750e+00 -2.013262987136840820e+00 1.068769581615924835e-02
-8.539012908935546875e+00 -1.964127540588378906e+00 1.070479955524206161e-02
-8.293263435363769531e+00 -1.854096531867980957e+00 1.038226298987865448e-02
-9.301257133483886719e+00 -2.019607067108154297e+00 1.162842847406864166e-02
-9.380991935729980469e+00 -1.976724743843078613e+00 1.171272806823253632e-02
-8.983405113220214844e+00 -1.835451483726501465e+00 1.120204478502273560e-02
-9.162242889404296875e+00 -1.813497900962829590e+00 1.141095999628305435e-02
-9.006234169006347656e+00 -1.725261092185974121e+00 1.120326574891805649e-02
-9.335232734680175781e+00 -1.728971838951110840e+00 1.159910671412944794e-02
-8.858399391174316406e+00 -1.584502100944519043e+00 1.099435053765773773e-02
-9.302533149719238281e+00 -1.605102300643920898e+00 1.153313368558883667e-02
-9.892247200012207031e+00 -1.644414424896240234e+00 1.225151121616363525e-02
-9.361027717590332031e+00 -1.497142076492309570e+00 1.158200297504663467e-02
-9.288989067077636719e+00 -1.427222847938537598e+00 1.148182060569524765e-02
-9.185779571533203125e+00 -1.353724718093872070e+00 1.134376600384712219e-02
-9.153314590454101562e+00 -1.291607618331909180e+00 1.129367388784885406e-02
-9.586218833923339844e+00 -1.292753577232360840e+00 1.181779615581035614e-02
-9.636618614196777344e+00 -1.239394545555114746e+00 1.187033113092184067e-02
-9.617241859436035156e+00 -1.176962137222290039e+00 1.183734368532896042e-02
-9.344166755676269531e+00 -1.085392236709594727e+00 1.149281673133373260e-02
-9.614063262939453125e+00 -1.056997418403625488e+00 1.181657519191503525e-02
-9.349820137023925781e+00 -9.699209332466125488e-01 1.148426439613103867e-02
-9.905982017517089844e+00 -9.662173390388488770e-01 1.215988025069236755e-02
-9.857948303222656250e+00 -9.005048274993896484e-01 1.209390722215175629e-02
-9.815462112426757812e+00 -8.359275460243225098e-01 1.203526463359594345e-02
-1.008458328247070312e+01 -7.965518236160278320e-01 1.235902309417724609e-02
-1.013815212249755859e+01 -7.382175922393798828e-01 1.241888850927352905e-02
-9.920982360839843750e+00 -6.612336039543151855e-01 1.214766409248113632e-02
-9.967773437500000000e+00 -6.029434204101562500e-01 1.220019720494747162e-02
-1.008212184906005859e+01 -5.477930307388305664e-01 1.233580987900495529e-02
-9.929474830627441406e+00 -4.784125089645385742e-01 1.214522123336791992e-02
-9.929225921630859375e+00 -4.173513948917388916e-01 1.214155554771423340e-02
-1.020142555236816406e+01 -3.661022782325744629e-01 1.247142162173986435e-02
-1.082166481018066406e+01 8.528712391853332520e-01 3.221754431724548340e-01
-1.021547412872314453e+01 -3.038573861122131348e-01 1.248608250170946121e-02
-7.908993244171142578e+00 6.721739768981933594e-01 2.355796545743942261e-01
-9.716286659240722656e+00 -2.293481677770614624e-01 1.187399681657552719e-02
-7.876847743988037109e+00 7.181488871574401855e-01 2.347490042448043823e-01
-1.022143363952636719e+01 -1.785273253917694092e-01 1.248974818736314774e-02
-1.033032989501953125e+01 -1.170298531651496887e-01 1.262169517576694489e-02
-1.020385551452636719e+01 -5.298250913619995117e-02 1.246653497219085693e-02
-1.038198852539062500e+01 9.796121157705783844e-03 1.268400344997644424e-02
-1.081764221191406250e+01 8.600349426269531250e-01 2.197331190109252930e-01
-1.021073722839355469e+01 7.228803634643554688e-02 1.247508730739355087e-02
-7.879509449005126953e+00 6.751226186752319336e-01 1.601334959268569946e-01
-9.295182228088378906e+00 1.228468343615531921e-01 1.135720405727624893e-02
-7.833403587341308594e+00 7.196163535118103027e-01 1.592832356691360474e-01
-1.044103813171386719e+01 2.020732760429382324e-01 1.275852881371974945e-02
-1.086746120452880859e+01 2.770418226718902588e-01 1.328142918646335602e-02
-4.816265106201171875e+00 6.787571310997009277e-01 1.443559527397155762e-01
-1.061468315124511719e+01 3.357820212841033936e-01 1.297477539628744125e-02
-4.854532718658447266e+00 7.145555019378662109e-01 1.456316113471984863e-01
-1.066238689422607422e+01 4.027936458587646484e-01 1.303586084395647049e-02
-4.854996204376220703e+00 7.450869679450988770e-01 1.457799226045608521e-01
-1.376081085205078125e+01 1.605567932128906250e+00 2.805271744728088379e-01
-1.078077697753906250e+01 8.645601272583007812e-01 1.151504665613174438e-01
-1.086152076721191406e+01 4.770732223987579346e-01 1.328265108168125153e-02
-7.885193347930908203e+00 6.810686588287353516e-01 8.426553010940551758e-02
-1.085639095306396484e+01 5.436092615127563477e-01 1.328020822256803513e-02
-7.871904850006103516e+00 7.286089658737182617e-01 8.416970819234848022e-02
-1.105153656005859375e+01 6.213839054107666016e-01 1.352333184331655502e-02
-1.111837863922119141e+01 6.936037540435791016e-01 1.361007429659366608e-02
-4.863456249237060547e+00 6.888168454170227051e-01 9.946091473102569580e-02
-1.066297149658203125e+01 7.309017181396484375e-01 1.305785309523344040e-02
-4.823533535003662109e+00 7.133796215057373047e-01 9.873212128877639771e-02
-1.075601387023925781e+01 8.036162257194519043e-01 1.317758206278085709e-02
-4.842780113220214844e+00 7.466189861297607422e-01 9.921798110008239746e-02
-1.375280666351318359e+01 1.614214658737182617e+00 1.474300622940063477e-01
-7.903182983398437500e+00 6.392590999603271484e-01 9.687098674476146698e-03
-1.373668956756591797e+01 1.697834014892578125e+00 1.473661959171295166e-01
-7.872213363647460938e+00 6.853981614112854004e-01 9.654112160205841064e-03
-7.862881183624267578e+00 7.332240343093872070e-01 9.648003615438938141e-03
-4.897583961486816406e+00 6.664502620697021484e-01 5.262469872832298279e-02
-7.864204883575439453e+00 7.820496559143066406e-01 9.655334055423736572e-03
-4.889442443847656250e+00 6.959251165390014648e-01 5.258211493492126465e-02
-1.070044517517089844e+01 1.130445122718811035e+00 1.314581651240587234e-02
-4.864309310913085938e+00 7.228266000747680664e-01 5.235854163765907288e-02
-1.014472866058349609e+01 1.134720206260681152e+00 1.247142162173986435e-02
-4.831126213073730469e+00 7.482216358184814453e-01 5.204980075359344482e-02
-1.338898849487304688e+01 1.580840826034545898e+00 1.647136732935905457e-02
-1.338201332092285156e+01 1.663334369659423828e+00 1.647503301501274109e-02
-4.883567810058593750e+00 6.374610066413879395e-01 6.017021369189023972e-03
-4.892444610595703125e+00 6.691757440567016602e-01 6.032903678715229034e-03
-4.904838085174560547e+00 6.998087167739868164e-01 1.860032081604003906e-01
-4.884286403656005859e+00 6.986162066459655762e-01 6.028016563504934311e-03
-4.899463653564453125e+00 7.297438383102416992e-01 1.859657019376754761e-01
-4.878919124603271484e+00 7.284248471260070801e-01 6.026795133948326111e-03
-4.868428707122802734e+00 7.574251890182495117e-01 6.019464693963527679e-03
-4.842959880828857422e+00 7.839275002479553223e-01 5.993808619678020477e-03
-1.374116230010986328e+01 2.484652042388916016e+00 1.706024073064327240e-02
-1.418732166290283203e+01 2.835952758789062500e+00 1.767599210143089294e-02
-1.261831760406494141e+01 2.602937698364257812e+00 1.574077270925045013e-02
-1.301309394836425781e+01 2.935088634490966797e+00 1.629788242280483246e-02
-1.428557395935058594e+01 3.499621868133544922e+00 1.796920783817768097e-02
-1.390556907653808594e+01 3.862318515777587891e+00 1.763201132416725159e-02
-2.374055147171020508e+00 1.031314015388488770e+00 1.705592572689056396e-01
-2.370642423629760742e+00 1.030323386192321777e+00 7.671691477298736572e-02
-2.373158931732177734e+00 1.048280715942382812e+00 1.709537655115127563e-01
-2.380732297897338867e+00 1.052122712135314941e+00 7.725090533494949341e-02
-2.355758905410766602e+00 1.057916998863220215e+00 1.701647341251373291e-01
-2.327732086181640625e+00 1.045819044113159180e+00 7.573793083429336548e-02
-2.356485366821289062e+00 1.075666666030883789e+00 1.706907600164413452e-01
-2.331272602081298828e+00 1.064649581909179688e+00 7.606425136327743530e-02
-2.325602769851684570e+00 1.079354763031005859e+00 7.609391957521438599e-02
-2.408727884292602539e+00 1.030314445495605469e+00 1.478473991155624390e-01
-2.389543056488037109e+00 1.039498925209045410e+00 1.470585763454437256e-01
-2.388598442077636719e+00 1.056564569473266602e+00 1.473966389894485474e-01
-2.325716972351074219e+00 1.029720664024353027e+00 5.150184780359268188e-02
-2.375696420669555664e+00 1.068334579467773438e+00 1.470022350549697876e-01
-2.319355010986328125e+00 1.043971657752990723e+00 5.150184780359268188e-02
-2.352751493453979492e+00 1.075420260429382324e+00 1.459880322217941284e-01
-2.300177335739135742e+00 1.052359938621520996e+00 5.121842771768569946e-02
-2.308182239532470703e+00 1.073198080062866211e+00 5.154233425855636597e-02
-2.410291433334350586e+00 1.032445430755615234e+00 1.231968030333518982e-01
-2.411237239837646484e+00 1.050406694412231445e+00 1.235722526907920837e-01
-2.402006864547729492e+00 1.063968420028686523e+00 1.234314590692520142e-01
-2.315299034118652344e+00 1.027011752128601074e+00 2.696709893643856049e-02
-2.383592605590820312e+00 1.073354840278625488e+00 1.228213384747505188e-01
-2.329007863998413086e+00 1.050241947174072266e+00 2.720131538808345795e-02
-2.366970777511596680e+00 1.083387136459350586e+00 1.223050877451896667e-01
-2.305248498916625977e+00 1.056596517562866211e+00 2.699903585016727448e-02
-2.376210212707519531e+00 9.868863821029663086e-01 3.143511945381760597e-03
-2.384848594665527344e+00 1.007675409317016602e+00 3.163059707731008530e-03
-2.372189283370971680e+00 1.019525527954101562e+00 3.154507372528314590e-03
-2.396638631820678711e+00 1.046505331993103027e+00 9.817878156900405884e-02
-2.367721557617187500e+00 1.034862756729125977e+00 3.156950930133461952e-03
-2.418485641479492188e+00 1.073761701583862305e+00 9.934177994728088379e-02
-2.372293233871459961e+00 1.054244637489318848e+00 3.171611810103058815e-03
-2.361223220825195312e+00 1.066722393035888672e+00 3.165503032505512238e-03
-2.337366580963134766e+00 1.073261976242065430e+00 3.142290050163865089e-03
-2.321675300598144531e+00 1.083355069160461426e+00 3.130072727799415588e-03
-8.125117301940917969e+00 6.652922153472900391e+00 3.116735816001892090e-01
-8.085681915283203125e+00 6.703927516937255859e+00 3.117329180240631104e-01
-8.021429061889648438e+00 6.734133720397949219e+00 3.108429312705993652e-01
-8.144875526428222656e+00 6.678455352783203125e+00 2.132751494646072388e-01
-8.087590217590332031e+00 6.714893817901611328e+00 2.128500193357467651e-01
-8.036287307739257812e+00 6.756027698516845703e+00 2.125868350267410278e-01
-8.145355224609375000e+00 6.688215255737304688e+00 1.122120916843414307e-01
-8.090322494506835938e+00 6.726560592651367188e+00 1.120204478502273560e-01
-8.035128593444824219e+00 6.764483451843261719e+00 1.118288189172744751e-01
-2.518278121948242188e+00 2.477676630020141602e+00 1.041096806526184082e+00
-2.500989198684692383e+00 2.491051197052001953e+00 1.040248870849609375e+00
-2.445861816406250000e+00 2.439546823501586914e+00 2.276315093040466309e-01
-2.479379415512084961e+00 2.473841190338134766e+00 1.039505228400230408e-01
-2.472148418426513672e+00 2.492728710174560547e+00 1.034595251083374023e+00
-2.480652332305908203e+00 2.500430345535278320e+00 8.945210576057434082e-01
-2.421016931533813477e+00 2.444582700729370117e+00 2.267109900712966919e-01
-2.466966390609741211e+00 2.491848945617675781e+00 1.040691882371902466e-01
-8.120029449462890625e+00 6.593675613403320312e+00 1.277929730713367462e-02
-2.468218088150024414e+00 2.519499063491821289e+00 1.039400815963745117e+00
-2.453730821609497070e+00 2.503836393356323242e+00 8.903365135192871094e-01
-2.406855821609497070e+00 2.456004142761230469e+00 6.075798273086547852e-01
-2.407839059829711914e+00 2.459582328796386719e+00 3.526586592197418213e-01
-2.392015933990478516e+00 2.445126056671142578e+00 2.253959625959396362e-01
-2.448834896087646484e+00 2.504080533981323242e+00 1.039505228400230408e-01
-8.127307891845703125e+00 6.682753086090087891e+00 1.285504549741744995e-02
-2.476725816726684570e+00 2.559411525726318359e+00 1.049577116966247559e+00
-2.435624837875366211e+00 2.516059398651123047e+00 8.893519043922424316e-01
-2.433569908142089844e+00 2.513058900833129883e+00 7.512363791465759277e-01
-2.405439138412475586e+00 2.484876871109008789e+00 6.110596656799316406e-01
-2.362424612045288086e+00 2.441294431686401367e+00 4.732136428356170654e-01
-2.365040540695190430e+00 2.445705413818359375e+00 3.485816419124603271e-01
-2.376274347305297852e+00 2.459039449691772461e+00 2.253302037715911865e-01
-8.063608169555664062e+00 6.708961963653564453e+00 3.938030898571014404e-01
-2.427868127822875977e+00 2.513307809829711914e+00 1.037131920456886292e-01
-5.841167926788330078e+00 5.625132560729980469e+00 1.642026305198669434e-01
-8.083845138549804688e+00 6.730575561523437500e+00 1.285137981176376343e-02
-2.478207588195800781e+00 2.592588424682617188e+00 1.056926727294921875e+00
-2.413442373275756836e+00 2.523951768875122070e+00 8.868903517723083496e-01
-2.378906488418579102e+00 2.486965417861938477e+00 7.390587329864501953e-01
-2.351354837417602539e+00 2.459021091461181641e+00 6.011421680450439453e-01
-2.338503837585449219e+00 2.446436643600463867e+00 4.714201092720031738e-01
-2.352738142013549805e+00 2.463048458099365234e+00 3.489893674850463867e-01
-2.367342233657836914e+00 2.480069875717163086e+00 2.259219735860824585e-01
-2.410331010818481445e+00 2.525988340377807617e+00 1.036241948604583740e-01
-5.810122013092041016e+00 5.664357185363769531e+00 1.643038541078567505e-01
-8.037807464599609375e+00 6.776183605194091797e+00 1.284405030310153961e-02
-2.458302021026611328e+00 2.603560924530029297e+00 1.055230736732482910e+00
-2.492412328720092773e+00 2.447897672653198242e+00 9.898691773414611816e-01
-2.422534704208374023e+00 2.564783334732055664e+00 8.959980010986328125e-01
-2.340100288391113281e+00 2.476642370223999023e+00 7.317101359367370605e-01
-2.318641424179077148e+00 2.454789400100708008e+00 5.966183543205261230e-01
-2.322088956832885742e+00 2.459299087524414062e+00 4.711441993713378906e-01
-2.334167242050170898e+00 2.473820447921752930e+00 3.484797179698944092e-01
-2.352764844894409180e+00 2.495275020599365234e+00 2.259877324104309082e-01
-2.373533010482788086e+00 2.518181562423706055e+00 1.027045398950576782e-01
-5.709079742431640625e+00 5.634586811065673828e+00 1.624211221933364868e-01
-2.405643224716186523e+00 2.579313516616821289e+00 1.039400815963745117e+00
-2.509412288665771484e+00 2.495027780532836914e+00 1.002682089805603027e+00
-2.406751871109008789e+00 2.579599380493164062e+00 8.959980010986328125e-01
-2.306848049163818359e+00 2.471655607223510742e+00 7.260412573814392090e-01
-2.304878950119018555e+00 2.470410108566284180e+00 5.969663262367248535e-01
-2.310332775115966797e+00 2.477122306823730469e+00 4.718340039253234863e-01
-2.304022550582885742e+00 2.472085952758789062e+00 3.462373912334442139e-01
-2.338769912719726562e+00 2.511124849319458008e+00 2.261192202568054199e-01
-2.470042467117309570e+00 2.466192483901977539e+00 1.969795972108840942e-01
-2.503015995025634766e+00 2.500859975814819336e+00 7.164506614208221436e-02
-2.374173164367675781e+00 2.577094078063964844e+00 1.032616615295410156e+00
-2.481171846389770508e+00 2.497410058975219727e+00 9.975023865699768066e-01
-2.384310245513916016e+00 2.587191104888916016e+00 8.935365080833435059e-01
-2.288988113403320312e+00 2.482888221740722656e+00 7.252014279365539551e-01
-2.289677381515502930e+00 2.484506130218505859e+00 5.969663262367248535e-01
-2.286365985870361328e+00 2.481781959533691406e+00 4.700404703617095947e-01
-2.286789417266845703e+00 2.483981132507324219e+00 3.459316194057464600e-01
-2.386733770370483398e+00 2.410754680633544922e+00 3.152986764907836914e-01
-2.421158552169799805e+00 2.447233915328979492e+00 1.942750811576843262e-01
-2.468645095825195312e+00 2.496974468231201172e+00 7.109846174716949463e-02
-2.354442358016967773e+00 2.587356567382812500e+00 1.030920505523681641e+00
-2.457714557647705078e+00 2.504346847534179688e+00 9.942309856414794922e-01
-2.359908819198608398e+00 2.592454671859741211e+00 8.903365135192871094e-01
-2.426799297332763672e+00 2.474572420120239258e+00 8.429870605468750000e-01
-2.301357984542846680e+00 2.527248144149780273e+00 7.340196967124938965e-01
-2.282344341278076172e+00 2.507246971130371094e+00 5.990542173385620117e-01
-2.268428802490234375e+00 2.492834091186523438e+00 4.694886505603790283e-01
-2.282213449478149414e+00 2.509741783142089844e+00 3.475624024868011475e-01
-2.380250930786132812e+00 2.433896541595458984e+00 3.164092302322387695e-01
-2.398421049118041992e+00 2.454189300537109375e+00 1.936553120613098145e-01
-2.412806987762451172e+00 2.656147718429565430e+00 1.065018177032470703e-01
-2.452579021453857422e+00 2.511359453201293945e+00 7.107821851968765259e-02
-2.340445995330810547e+00 2.603894710540771484e+00 1.031768560409545898e+00
-2.438953638076782227e+00 2.515926122665405273e+00 9.928679466247558594e-01
-2.334236860275268555e+00 2.596075057983398438e+00 8.866442441940307617e-01
-2.415626287460327148e+00 2.493603706359863281e+00 8.444050550460815430e-01
-2.312615156173706055e+00 2.571125268936157227e+00 7.426280379295349121e-01
-2.425883769989013672e+00 2.505942106246948242e+00 7.134026885032653809e-01
-2.269551038742065430e+00 2.524133205413818359e+00 5.997502207756042480e-01
-2.390118837356567383e+00 2.470722198486328125e+00 5.727911591529846191e-01
-2.265007972717285156e+00 2.519965171813964844e+00 4.719719886779785156e-01
-2.355260610580444336e+00 2.436389446258544922e+00 4.389117062091827393e-01
-2.389748334884643555e+00 2.660614013671875000e+00 3.664184510707855225e-01
-2.350052356719970703e+00 2.432700634002685547e+00 3.143732547760009766e-01
-2.423455953598022461e+00 2.700037479400634766e+00 2.390722632408142090e-01
-2.390944957733154297e+00 2.476760864257812500e+00 1.942750811576843262e-01
-2.407144308090209961e+00 2.682806253433227539e+00 1.069764792919158936e-01
-2.435734987258911133e+00 2.524921894073486328e+00 7.103772461414337158e-02
-5.814413547515869141e+00 5.607074260711669922e+00 8.600087463855743408e-02
-2.318056344985961914e+00 2.611033201217651367e+00 1.028941750526428223e+00
-2.486019849777221680e+00 2.596164703369140625e+00 1.018493771553039551e+00
-2.310540437698364258e+00 2.601652383804321289e+00 8.836903572082519531e-01
-2.396921396255493164e+00 2.504868507385253906e+00 8.432233333587646484e-01
-2.307834625244140625e+00 2.597692489624023438e+00 7.461974024772644043e-01
-2.361033916473388672e+00 2.469089746475219727e+00 6.987739205360412598e-01
-2.300447940826416016e+00 2.590288400650024414e+00 6.121036410331726074e-01
-2.336070299148559570e+00 2.444691419601440430e+00 5.634227395057678223e-01
-2.291586637496948242e+00 2.581218004226684570e+00 4.808016121387481689e-01
-2.334102869033813477e+00 2.444340229034423828e+00 4.377556741237640381e-01
-2.380640029907226562e+00 2.683412790298461914e+00 3.675396144390106201e-01
-2.360515117645263672e+00 2.473728179931640625e+00 3.177973926067352295e-01
-2.392280340194702148e+00 2.698430299758911133e+00 2.376257181167602539e-01
-2.383970975875854492e+00 2.500055551528930664e+00 1.949512213468551636e-01
-2.386659860610961914e+00 2.693037271499633789e+00 1.067984849214553833e-01
-2.385021448135375977e+00 2.502905845642089844e+00 7.000526785850524902e-02
-5.767020702362060547e+00 5.630072593688964844e+00 8.580923825502395630e-02
-2.306418657302856445e+00 2.630255699157714844e+00 1.030920505523681641e+00
-2.444258689880371094e+00 2.584110021591186523e+00 1.007861852645874023e+00
-2.299646615982055664e+00 2.621609926223754883e+00 8.856596350669860840e-01
-2.377502202987670898e+00 2.515291929244995117e+00 8.418054580688476562e-01
-2.324095249176025391e+00 2.648548603057861328e+00 7.566953301429748535e-01
-2.324311733245849609e+00 2.460739135742187500e+00 6.923612952232360840e-01
-2.322824001312255859e+00 2.648032188415527344e+00 6.223691701889038086e-01
-2.304775953292846680e+00 2.441763401031494141e+00 5.594780445098876953e-01
-2.356677532196044922e+00 2.687571287155151367e+00 4.979090690612792969e-01
-2.313616991043090820e+00 2.452844381332397461e+00 4.367280602455139160e-01
-2.344461917877197266e+00 2.675523996353149414e+00 3.644818663597106934e-01
-2.336413621902465820e+00 2.478745937347412109e+00 3.165943324565887451e-01
-2.363845586776733398e+00 2.699545621871948242e+00 2.364422082901000977e-01
-2.377485275268554688e+00 2.524084329605102539e+00 1.956836879253387451e-01
-2.359556913375854492e+00 2.695596933364868164e+00 1.063238233327865601e-01
-2.500620603561401367e+00 2.471386909484863281e+00 3.743242099881172180e-02
-2.306563615798950195e+00 2.663210153579711914e+00 1.038270115852355957e+00
-2.396171569824218750e+00 2.564611196517944336e+00 9.945036172866821289e-01
-2.503454923629760742e+00 2.487313032150268555e+00 9.627841711044311523e-01
-2.297480106353759766e+00 2.651786565780639648e+00 8.910749554634094238e-01
-2.394516468048095703e+00 2.564633607864379883e+00 8.533855080604553223e-01
-2.304598569869995117e+00 2.659065246582031250e+00 7.556455731391906738e-01
-2.299143791198730469e+00 2.464209318161010742e+00 6.893553733825683594e-01
-2.308466911315917969e+00 2.664467811584472656e+00 6.228911280632019043e-01
-2.293113708496093750e+00 2.459466695785522461e+00 5.602998733520507812e-01
-2.336251974105834961e+00 2.697489023208618164e+00 4.970812797546386719e-01
-2.296494960784912109e+00 2.464817523956298828e+00 4.363427162170410156e-01
-2.319537878036499023e+00 2.680080413818359375e+00 3.631568551063537598e-01
-2.321160316467285156e+00 2.493035316467285156e+00 3.165943324565887451e-01
-2.347889661788940430e+00 2.714753627777099609e+00 2.365079522132873535e-01
-2.359912872314453125e+00 2.536432027816772461e+00 1.955146640539169312e-01
-2.457970380783081055e+00 2.456656932830810547e+00 1.632768213748931885e-01
-2.346895217895507812e+00 2.714560985565185547e+00 1.065018177032470703e-01
-2.488236904144287109e+00 2.489512920379638672e+00 3.747500479221343994e-02
-2.293920278549194336e+00 2.681686401367187500e+00 1.039966106414794922e+00
-2.364077329635620117e+00 2.561589479446411133e+00 9.876881837844848633e-01
-2.475902318954467773e+00 2.490312337875366211e+00 9.580465555191040039e-01
-2.293138742446899414e+00 2.679825782775878906e+00 8.957518935203552246e-01
-2.354361534118652344e+00 2.552849292755126953e+00 8.446413278579711914e-01
-2.299683809280395508e+00 2.686525344848632812e+00 7.594248652458190918e-01
-2.289292097091674805e+00 2.484033584594726562e+00 6.909585595130920410e-01
-2.297836780548095703e+00 2.685316085815429688e+00 6.244570612907409668e-01
-2.285329818725585938e+00 2.481472015380859375e+00 5.621078014373779297e-01
-2.314506053924560547e+00 2.705752134323120117e+00 4.959775805473327637e-01
-2.277970075607299805e+00 2.475213766098022461e+00 4.357005059719085693e-01
-2.303049564361572266e+00 2.694262504577636719e+00 3.631568551063537598e-01
-2.309863805770874023e+00 2.511627912521362305e+00 3.171495795249938965e-01
-2.438636541366577148e+00 2.465706825256347656e+00 2.893831431865692139e-01
-2.321466922760009766e+00 2.717728376388549805e+00 2.355216890573501587e-01
-2.447063446044921875e+00 2.475955247879028320e+00 1.635584086179733276e-01
-2.330843687057495117e+00 2.729670286178588867e+00 1.065314859151840210e-01
-2.454865694046020508e+00 2.673038482666015625e+00 7.348730415105819702e-02
-2.470807075500488281e+00 2.502598762512207031e+00 3.744306415319442749e-02
-2.301564931869506836e+00 2.724287748336791992e+00 1.050990581512451172e+00
-2.348315000534057617e+00 2.576046943664550781e+00 9.876881837844848633e-01
-2.455843448638916016e+00 2.500639200210571289e+00 9.562041759490966797e-01
