-3.684214781969785690e-03 -7.358193993568420410e-01 6.839029490947723389e-02
-1.671925373375415802e-02 -7.714414596557617188e-01 2.186381369829177856e-01
-1.608336530625820160e-02 -7.189312577247619629e-01 1.470891982316970825e-01
-4.929098114371299744e-02 -7.534202337265014648e-01 1.917534321546554565e-01
-5.099933966994285583e-02 -6.471956968307495117e-01 6.033893302083015442e-02
-5.876340717077255249e-02 -6.915165781974792480e-01 6.450343132019042969e-02
-2.216857112944126129e-02 -7.206897139549255371e-01 5.332875996828079224e-02
-1.272982060909271240e-01 -7.123972773551940918e-01 2.147836238145828247e-02
-5.283704027533531189e-02 -7.105363011360168457e-01 2.674874849617481232e-02
-6.136670708656311035e-02 -6.643494367599487305e-01 4.934569448232650757e-02
-7.862189412117004395e-02 -7.051305770874023438e-01 2.663620002567768097e-02
-1.077332049608230591e-01 -7.249977588653564453e-01 7.803743705153465271e-03
-1.156673133373260498e-01 -7.176978588104248047e-01 7.739866152405738831e-03
-1.263767480850219727e-01 -7.016696929931640625e-01 7.590817753225564957e-03
-1.200680211186408997e-01 -7.154843807220458984e-01 2.723645232617855072e-02
-9.669762253761291504e-01 -2.050427913665771484e+00 6.728304177522659302e-02
-9.848205447196960449e-01 -2.056400060653686523e+00 1.502420604228973389e-01
-9.747883677482604980e-01 -2.034540414810180664e+00 6.695672124624252319e-02
-9.952373504638671875e-01 -2.045832157135009766e+00 1.499133110046386719e-01
-9.824420809745788574e-01 -2.018634319305419922e+00 6.663038581609725952e-02
-1.008213639259338379e+00 -2.040581703186035156e+00 1.499790549278259277e-01
-9.965813755989074707e-01 -2.016152381896972656e+00 6.674905121326446533e-02
-1.005053400993347168e+00 -2.003141403198242188e+00 1.476777493953704834e-01
-1.014314532279968262e+00 -2.020719528198242188e+00 6.710504740476608276e-02
-1.019432067871093750e+00 -2.000208616256713867e+00 6.663038581609725952e-02
-9.475842118263244629e-01 -2.038017988204956055e+00 4.550949484109878540e-02
-9.742287397384643555e-01 -2.063997030258178711e+00 1.288030296564102173e-01
-1.030767321586608887e+00 -1.992140531539916992e+00 6.657105684280395508e-02
-9.639151096343994141e-01 -2.040301322937011719e+00 4.569169506430625916e-02
-9.894651174545288086e-01 -2.063382148742675781e+00 1.291410923004150391e-01
-9.781464934349060059e-01 -2.037953853607177734e+00 4.577267169952392578e-02
-1.008228182792663574e+00 -2.069838285446166992e+00 1.299299150705337524e-01
-9.893183112144470215e-01 -2.029217720031738281e+00 4.571193829178810120e-02
-1.010284304618835449e+00 -2.042135477066040039e+00 1.285776495933532715e-01
-9.982014894485473633e-01 -2.015941143035888672e+00 4.554998129606246948e-02
-1.009349584579467773e+00 -2.009133577346801758e+00 1.268873214721679688e-01
-1.014145374298095703e+00 -2.016924381256103516e+00 4.571193829178810120e-02
-1.012409090995788574e+00 -1.983059287071228027e+00 4.508436098694801331e-02
-9.550361633300781250e-01 -2.050358533859252930e+00 2.408194728195667267e-02
-9.783232808113098145e-01 -2.069921970367431641e+00 1.075683981180191040e-01
-1.029158473014831543e+00 -1.985686540603637695e+00 4.528680443763732910e-02
-9.680266976356506348e-01 -2.045363664627075195e+00 2.409259416162967682e-02
-9.966265559196472168e-01 -2.075586318969726562e+00 1.081785187125205994e-01
-9.762256145477294922e-01 -2.030373811721801758e+00 2.398613095283508301e-02
-1.008467674255371094e+00 -2.067636489868164062e+00 1.080846637487411499e-01
-9.917370676994323730e-01 -2.030635118484497070e+00 2.406065352261066437e-02
-1.022022128105163574e+00 -2.063199758529663086e+00 1.081785187125205994e-01
-9.997348785400390625e-01 -2.015553712844848633e+00 2.395419217646121979e-02
-1.009076476097106934e+00 -2.006025552749633789e+00 1.055033951997756958e-01
-1.017930865287780762e+00 -2.020991086959838867e+00 2.409259416162967682e-02
-9.439030885696411133e-01 -2.055646896362304688e+00 2.763553755357861519e-03
-1.028635740280151367e+00 -2.014029502868652344e+00 1.062543094158172607e-01
-9.656668901443481445e-01 -2.071351289749145508e+00 8.579857647418975830e-02
-1.022572398185729980e+00 -1.999572515487670898e+00 2.391160652041435242e-02
-9.712984561920166016e-01 -2.081533432006835938e+00 2.806314500048756599e-03
-9.847750663757324219e-01 -2.078933477401733398e+00 8.636131137609481812e-02
-1.023303866386413574e+00 -1.971073746681213379e+00 2.364545129239559174e-02
-9.656307101249694824e-01 -2.036680221557617188e+00 2.753779990598559380e-03
-9.988126158714294434e-01 -2.075553178787231445e+00 8.647385984659194946e-02
-9.863542318344116211e-01 -2.047834634780883789e+00 2.776992740109562874e-03
-9.948532581329345703e-01 -2.035269975662231445e+00 8.504826575517654419e-02
-1.007690310478210449e+00 -2.059709310531616211e+00 2.801427617669105530e-03
-1.015320777893066406e+00 -2.045238494873046875e+00 8.572354167699813843e-02
-1.009630203247070312e+00 -2.031994104385375977e+00 2.772105857729911804e-03
-1.028300881385803223e+00 -2.039862394332885742e+00 8.576105535030364990e-02
-1.013520598411560059e+00 -2.008797645568847656e+00 2.748892875388264656e-03
-1.023952126502990723e+00 -2.000601053237915039e+00 8.437297493219375610e-02
-1.023091793060302734e+00 -1.997201204299926758e+00 2.741562668234109879e-03
-1.040863633155822754e+00 -2.001532316207885742e+00 2.756223315373063087e-03
-4.610613822937011719e+00 -6.978440761566162109e+00 1.021855138242244720e-02
-4.745309829711914062e+00 -6.994157791137695312e+00 1.032606419175863266e-02
-4.798774719238281250e+00 -6.889447212219238281e+00 1.025764737278223038e-02
-4.928596973419189453e+00 -6.984062671661376953e+00 1.044335030019283295e-02
-4.873651981353759766e+00 -6.817023754119873047e+00 1.023809891194105148e-02
-4.900724887847900391e+00 -6.766744136810302734e+00 1.020755618810653687e-02
-4.958123207092285156e+00 -6.758315563201904297e+00 1.024054270237684250e-02
-4.975043773651123047e+00 -6.694858074188232422e+00 1.019045244902372360e-02
-5.012420654296875000e+00 -6.659411430358886719e+00 1.018312107771635056e-02
-5.006505489349365234e+00 -6.567295551300048828e+00 1.008904818445444107e-02
-5.028373718261718750e+00 -6.512706756591796875e+00 1.005239691585302353e-02
-5.062696456909179688e+00 -6.474640846252441406e+00 1.004140172153711319e-02
-5.119711399078369141e+00 -6.465405941009521484e+00 1.007560919970273972e-02
-4.291097640991210938e+00 -4.300704002380371094e+00 1.803114265203475952e-01
-5.153655052185058594e+00 -6.426848411560058594e+00 1.006461307406425476e-02
-4.294674873352050781e+00 -4.251790046691894531e+00 1.793621331453323364e-01
-5.225771903991699219e+00 -6.435472488403320312e+00 1.012814324349164963e-02
-4.268514156341552734e+00 -4.174340724945068359e+00 1.771964728832244873e-01
-5.272782325744628906e+00 -6.412555694580078125e+00 1.014280412346124649e-02
-5.223090648651123047e+00 -6.273260593414306641e+00 9.972983971238136292e-03
-5.320783138275146484e+00 -6.311433315277099609e+00 1.008538249880075455e-02
-5.330842971801757812e+00 -6.245201110839843750e+00 1.003162655979394913e-02
-4.280222892761230469e+00 -4.283912658691406250e+00 1.226205527782440186e-01
-5.354677200317382812e+00 -6.195728778839111328e+00 1.000474859029054642e-02
-4.302161693572998047e+00 -4.253351688385009766e+00 1.224990859627723694e-01
-5.368886470794677734e+00 -6.135664939880371094e+00 9.960766881704330444e-03
-4.314588546752929688e+00 -4.213601589202880859e+00 1.221144422888755798e-01
-5.387865066528320312e+00 -6.081647396087646484e+00 9.926557540893554688e-03
-5.380344390869140625e+00 -5.998597621917724609e+00 9.844702668488025665e-03
-5.508476257324218750e+00 -6.066154479980468750e+00 1.001085713505744934e-02
-4.241282463073730469e+00 -4.291451930999755859e+00 6.423982232809066772e-02
-5.450844287872314453e+00 -5.929176330566406250e+00 9.839816018939018250e-03
-4.271777629852294922e+00 -4.269588470458984375e+00 6.430370360612869263e-02
-5.491209506988525391e+00 -5.900010585784912109e+00 9.847145527601242065e-03
-4.291490554809570312e+00 -4.236973762512207031e+00 6.420788168907165527e-02
-5.539651870727539062e+00 -5.879306793212890625e+00 9.869136847555637360e-03
-4.349621772766113281e+00 -4.241979122161865234e+00 6.468696892261505127e-02
-5.571481227874755859e+00 -5.840864181518554688e+00 9.861806407570838928e-03
-5.587069988250732422e+00 -5.785706996917724609e+00 9.826376102864742279e-03
-5.601493835449218750e+00 -5.729864120483398438e+00 9.789724834263324738e-03
-4.207186222076416016e+00 -4.251105308532714844e+00 7.307168561965227127e-03
-4.286009788513183594e+00 -4.280916690826416016e+00 2.274206280708312988e-01
-4.252301216125488281e+00 -4.244284152984619141e+00 7.340155541896820068e-03
-4.302948951721191406e+00 -4.245413780212402344e+00 2.269329279661178589e-01
-4.273991107940673828e+00 -4.213900089263916016e+00 7.332825101912021637e-03
-4.320541858673095703e+00 -4.207829475402832031e+00 7.368254940956830978e-03
-5.770296096801757812e+00 -5.551183223724365234e+00 9.782393462955951691e-03
-5.649121284484863281e+00 -5.368257522583007812e+00 9.520943276584148407e-03
-8.068980216979980469e+00 -6.075584411621093750e+00 2.997774183750152588e-01
-5.837983131408691406e+00 -5.479954719543457031e+00 9.782393462955951691e-03
-8.095678329467773438e+00 -6.018207073211669922e+00 2.993917465209960938e-01
-5.850965976715087891e+00 -5.424993515014648438e+00 9.748185984790325165e-03
-5.885617733001708984e+00 -5.390340805053710938e+00 9.750628843903541565e-03
-5.980132579803466797e+00 -5.409807205200195312e+00 9.852032177150249481e-03
-5.955796718597412109e+00 -5.321707248687744141e+00 9.757959283888339996e-03
-8.515246391296386719e+00 -6.984629631042480469e+00 1.172584369778633118e-01
-5.956847667694091797e+00 -5.257271289825439453e+00 9.706646203994750977e-03
-8.062267303466796875e+00 -6.061852455139160156e+00 2.042461335659027100e-01
-8.477910995483398438e+00 -6.867420673370361328e+00 1.161618605256080627e-01
-5.991255283355712891e+00 -5.222593307495117188e+00 9.710311889648437500e-03
-8.097704887390136719e+00 -6.011077404022216797e+00 2.042056471109390259e-01
-8.478504180908203125e+00 -6.782166957855224609e+00 1.155976131558418274e-01
-6.019398212432861328e+00 -5.182470798492431641e+00 9.704203344881534576e-03
-8.549776077270507812e+00 -6.753569602966308594e+00 1.160021722316741943e-01
-6.064034938812255859e+00 -5.156451702117919922e+00 9.724972769618034363e-03
-8.459381103515625000e+00 -6.598277568817138672e+00 1.142242327332496643e-01
-6.182092189788818359e+00 -5.191817283630371094e+00 9.863027371466159821e-03
-8.577345848083496094e+00 -6.606041908264160156e+00 1.152675747871398926e-01
-6.111462116241455078e+00 -5.068880558013916016e+00 9.700538590550422668e-03
-8.261929512023925781e+00 -6.282730579376220703e+00 1.105086728930473328e-01
-6.140901565551757812e+00 -5.030018329620361328e+00 9.698094800114631653e-03
-8.049236297607421875e+00 -6.043400287628173828e+00 1.071657389402389526e-01
-6.189531803131103516e+00 -5.006708621978759766e+00 9.726194664835929871e-03
-8.075722694396972656e+00 -5.986155986785888672e+00 1.070273295044898987e-01
-6.231074333190917969e+00 -4.977373600006103516e+00 9.743298403918743134e-03
-8.127633094787597656e+00 -5.947711467742919922e+00 1.072296127676963806e-01
-6.216744422912597656e+00 -4.903745651245117188e+00 9.673659689724445343e-03
-8.758115768432617188e+00 -6.326942443847656250e+00 1.150333508849143982e-01
-6.226993560791015625e+00 -4.850146293640136719e+00 9.643116965889930725e-03
-8.792701721191406250e+00 -6.270181655883789062e+00 1.149801239371299744e-01
-6.279623508453369141e+00 -4.829525947570800781e+00 9.678547270596027374e-03
-8.782766342163085938e+00 -6.182154178619384766e+00 1.143519878387451172e-01
-6.254983425140380859e+00 -4.749780654907226562e+00 9.595469571650028229e-03
-8.739234924316406250e+00 -6.071664333343505859e+00 1.132980063557624817e-01
-6.247204780578613281e+00 -4.683717727661132812e+00 9.539269842207431793e-03
-8.068502426147460938e+00 -5.976577281951904297e+00 3.769584894180297852e-01
-8.830754280090332031e+00 -6.055249691009521484e+00 1.140006631612777710e-01
-6.308780670166015625e+00 -4.669690132141113281e+00 9.589361026883125305e-03
-8.827992439270019531e+00 -5.974051475524902344e+00 1.134896427392959595e-01
-6.003856658935546875e+00 -4.387222766876220703e+00 9.084786288440227509e-03
-8.842029571533203125e+00 -5.904777050018310547e+00 1.132021918892860413e-01
-6.316949367523193359e+00 -4.556818008422851562e+00 9.516056627035140991e-03
-8.950735092163085938e+00 -5.898281097412109375e+00 1.141284182667732239e-01
-6.426248550415039062e+00 -4.575976371765136719e+00 9.638229385018348694e-03
-8.903764724731445312e+00 -5.789286136627197266e+00 1.130744293332099915e-01
-6.446842670440673828e+00 -4.531284332275390625e+00 9.627234190702438354e-03
-8.961002349853515625e+00 -5.748582839965820312e+00 1.133512407541275024e-01
-6.379214286804199219e+00 -4.425521373748779297e+00 9.485513903200626373e-03
-8.837257385253906250e+00 -5.592957973480224609e+00 1.113497316837310791e-01
-6.442553997039794922e+00 -4.411153793334960938e+00 9.539269842207431793e-03
-1.212015438079833984e+01 -6.971509456634521484e+00 2.831184566020965576e-01
-8.633062362670898438e+00 -5.389822959899902344e+00 1.083581224083900452e-01
-6.457070350646972656e+00 -4.363142013549804688e+00 9.520943276584148407e-03
-8.883088111877441406e+00 -5.470457553863525391e+00 1.110729277133941650e-01
-6.252426624298095703e+00 -4.169209480285644531e+00 9.181302972137928009e-03
-8.732739448547363281e+00 -5.304240703582763672e+00 1.087839752435684204e-01
-6.495090007781982422e+00 -4.273681163787841797e+00 9.498952887952327728e-03
-9.036189079284667969e+00 -5.412935256958007812e+00 1.121482029557228088e-01
-6.490157127380371094e+00 -4.213599681854248047e+00 9.453748352825641632e-03
-9.098505020141601562e+00 -5.374680519104003906e+00 1.125101819634437561e-01
-6.483890533447265625e+00 -4.153201103210449219e+00 9.407322853803634644e-03
-8.960229873657226562e+00 -5.219100952148437500e+00 1.104022189974784851e-01
-6.519396305084228516e+00 -4.119749069213867188e+00 9.421983733773231506e-03
-9.191523551940917969e+00 -5.278558254241943359e+00 1.128508597612380981e-01
-6.526731014251708984e+00 -4.068560123443603516e+00 9.396327659487724304e-03
-9.129760742187500000e+00 -5.168854713439941406e+00 1.117010638117790222e-01
-6.561794757843017578e+00 -4.034721851348876953e+00 9.410988539457321167e-03
-9.110661506652832031e+00 -5.084475040435791016e+00 1.110835820436477661e-01
-6.582152366638183594e+00 -3.991790771484375000e+00 9.404879063367843628e-03
-9.160086631774902344e+00 -5.038598060607910156e+00 1.113071516156196594e-01
-6.587641239166259766e+00 -3.940035820007324219e+00 9.378001093864440918e-03
-9.245332717895507812e+00 -5.011843681335449219e+00 1.119672134518623352e-01
-6.610830783843994141e+00 -3.899032592773437500e+00 9.376779198646545410e-03
-9.177127838134765625e+00 -4.902253150939941406e+00 1.107748374342918396e-01
-6.619070529937744141e+00 -3.849346876144409180e+00 9.354788810014724731e-03
-1.212037658691406250e+01 -6.955106735229492188e+00 5.246205925941467285e-01
-9.184912681579589844e+00 -4.834207534790039062e+00 1.105086728930473328e-01
-6.665987968444824219e+00 -3.822090625762939453e+00 9.387775324285030365e-03
-9.328028678894042969e+00 -4.836675643920898438e+00 1.118713989853858948e-01
-6.564825534820556641e+00 -3.710749864578247070e+00 9.213067591190338135e-03
-9.412742614746093750e+00 -4.807548522949218750e+00 1.125314757227897644e-01
-6.692297458648681641e+00 -3.728806018829345703e+00 9.359675459563732147e-03
-9.443850517272949219e+00 -4.750601291656494141e+00 1.125527694821357727e-01
-6.621263027191162109e+00 -3.636167764663696289e+00 9.228950366377830505e-03
-9.468341827392578125e+00 -4.690345764160156250e+00 1.124995350837707520e-01
-6.729636669158935547e+00 -3.642117023468017578e+00 9.348680265247821808e-03
-9.421449661254882812e+00 -4.595338821411132812e+00 1.116052493453025818e-01
-6.683032989501953125e+00 -3.564052104949951172e+00 9.253384545445442200e-03
-9.492735862731933594e+00 -4.558219432830810547e+00 1.121162623167037964e-01
-6.720710277557373047e+00 -3.531351327896118164e+00 9.275375865399837494e-03
-9.423792839050292969e+00 -4.454166412353515625e+00 1.109771132469177246e-01
-6.845267772674560547e+00 -3.543372392654418945e+00 9.417096152901649475e-03
-9.483584403991699219e+00 -4.411441802978515625e+00 1.113603785634040833e-01
-6.822337150573730469e+00 -3.478591918945312500e+00 9.356009773910045624e-03
-9.504110336303710938e+00 -4.350255489349365234e+00 1.112858504056930542e-01
-6.874830245971679688e+00 -3.452372074127197266e+00 9.398770518600940704e-03
-9.506917953491210938e+00 -4.281182289123535156e+00 1.110090464353561401e-01
-6.880645751953125000e+00 -3.402588367462158203e+00 9.378001093864440918e-03
-9.543065071105957031e+00 -4.227223396301269531e+00 1.111261621117591858e-01
-6.883412361145019531e+00 -3.351550102233886719e+00 9.353565983474254608e-03
-9.552321434020996094e+00 -4.161399841308593750e+00 1.109345257282257080e-01
-6.866875648498535156e+00 -3.291529178619384766e+00 9.303475730121135712e-03
-9.562969207763671875e+00 -4.096409797668457031e+00 1.107641831040382385e-01
-6.879707336425781250e+00 -3.245919227600097656e+00 9.293701499700546265e-03
-9.575022697448730469e+00 -4.032222270965576172e+00 1.106151342391967773e-01
-6.888610839843750000e+00 -3.198591232299804688e+00 9.279040619730949402e-03
-9.542300224304199219e+00 -3.949684619903564453e+00 1.099550649523735046e-01
-6.882639408111572266e+00 -3.144627332687377930e+00 9.244833141565322876e-03
-9.643234252929687500e+00 -3.922329902648925781e+00 1.108387112617492676e-01
-6.955618381500244141e+00 -3.126526117324829102e+00 9.316914714872837067e-03
-9.741403579711914062e+00 -3.892771005630493164e+00 1.116904094815254211e-01
-6.895102500915527344e+00 -3.048607587814331055e+00 9.210624732077121735e-03
-9.683195114135742188e+00 -3.800774574279785156e+00 1.107535436749458313e-01
-6.890751838684082031e+00 -2.996273517608642578e+00 9.180081076920032501e-03
-9.680209159851074219e+00 -3.731218338012695312e+00 1.104554459452629089e-01
-6.931074619293212891e+00 -2.963371276855468750e+00 9.209402836859226227e-03
-9.711338043212890625e+00 -3.674936532974243164e+00 1.105512604117393494e-01
-6.903954982757568359e+00 -2.901800870895385742e+00 9.149537421762943268e-03
-9.887434005737304688e+00 -3.672377586364746094e+00 1.122972518205642700e-01
-6.848615169525146484e+00 -2.829221248626708984e+00 9.053020738065242767e-03
-9.795163154602050781e+00 -3.569867610931396484e+00 1.109984070062637329e-01
-6.928852081298828125e+00 -2.812722682952880859e+00 9.136098437011241913e-03
-9.840421676635742188e+00 -3.518113851547241211e+00 1.112645566463470459e-01
-6.984063625335693359e+00 -2.785343408584594727e+00 9.186189621686935425e-03
-9.876921653747558594e+00 -3.462961912155151367e+00 1.114349067211151123e-01
-6.855769634246826172e+00 -2.685539007186889648e+00 8.995600044727325439e-03
-9.808148384094238281e+00 -3.371413230895996094e+00 1.104235053062438965e-01
-6.833851814270019531e+00 -2.628702640533447266e+00 8.945508860051631927e-03
-9.820121765136718750e+00 -3.308295011520385742e+00 1.103276908397674561e-01
-6.821787357330322266e+00 -2.576122999191284180e+00 8.908856660127639771e-03
-9.817446708679199219e+00 -3.240455389022827148e+00 1.100721806287765503e-01
-6.941546440124511719e+00 -2.572793006896972656e+00 9.044469334185123444e-03
-9.811455726623535156e+00 -3.171850681304931641e+00 1.097847223281860352e-01
-6.926189422607421875e+00 -2.518873453140258789e+00 9.004151448607444763e-03
-9.827872276306152344e+00 -3.110683679580688477e+00 1.097527816891670227e-01
-6.939630985260009766e+00 -2.475655794143676758e+00 9.001708589494228363e-03
-9.819075584411621094e+00 -3.041741847991943359e+00 1.094440445303916931e-01
-6.444037914276123047e+00 -2.254381656646728516e+00 8.340751752257347107e-03
-9.805017471313476562e+00 -2.971575021743774414e+00 1.090820655226707458e-01
-6.714092254638671875e+00 -2.302716732025146484e+00 8.671841584146022797e-03
-9.909351348876953125e+00 -2.936929702758789062e+00 1.100402399897575378e-01
-6.903453826904296875e+00 -2.320418834686279297e+00 8.897861465811729431e-03
-1.482422828674316406e+01 -3.720064640045166016e+00 3.094767034053802490e-01
-9.832100868225097656e+00 -2.848524332046508789e+00 1.089862510561943054e-01
-6.823529243469238281e+00 -2.247050523757934570e+00 8.776910603046417236e-03
-9.956191062927246094e+00 -2.818373918533325195e+00 1.101679950952529907e-01
-6.858126163482666016e+00 -2.211892843246459961e+00 8.803787641227245331e-03
-9.948238372802734375e+00 -2.750303030014038086e+00 1.098911911249160767e-01
-6.874429225921630859e+00 -2.170673847198486328e+00 8.807453326880931854e-03
-9.968788146972656250e+00 -2.690252065658569336e+00 1.099337711930274963e-01
-6.931568145751953125e+00 -2.142033576965332031e+00 8.863652125000953674e-03
-1.004699516296386719e+01 -2.645328760147094727e+00 1.106151342391967773e-01
-6.957982540130615234e+00 -2.103513479232788086e+00 8.880757726728916168e-03
-1.011436939239501953e+01 -2.596811056137084961e+00 1.111793965101242065e-01
-6.929522514343261719e+00 -2.048589944839477539e+00 8.828222751617431641e-03
-1.018346500396728516e+01 -2.548051118850708008e+00 1.117649376392364502e-01
-6.836285591125488281e+00 -1.975495100021362305e+00 8.693831972777843475e-03
-1.017850589752197266e+01 -2.480546474456787109e+00 1.115413606166839600e-01
-6.815557479858398438e+00 -1.924273014068603516e+00 8.652293123304843903e-03
-1.015656280517578125e+01 -2.409275531768798828e+00 1.111368015408515930e-01
-6.827236652374267578e+00 -1.882417321205139160e+00 8.652293123304843903e-03
-1.235156631469726562e+01 -1.923852086067199707e+00 3.710060715675354004e-01
-1.009418201446533203e+01 -2.329149723052978516e+00 1.102957502007484436e-01
-6.857005596160888672e+00 -1.845428466796875000e+00 8.675506338477134705e-03
-1.009852600097656250e+01 -2.264980792999267578e+00 1.101892814040184021e-01
-6.890445709228515625e+00 -1.809160947799682617e+00 8.703606203198432922e-03
-1.006045150756835938e+01 -2.191694021224975586e+00 1.096250340342521667e-01
-6.898510456085205078e+00 -1.766103744506835938e+00 8.699940517544746399e-03
-1.008447170257568359e+01 -2.132198095321655273e+00 1.097421422600746155e-01
-6.894663333892822266e+00 -1.720111131668090820e+00 8.681614883244037628e-03
-1.001116275787353516e+01 -2.052606582641601562e+00 1.088052615523338318e-01
-6.870105743408203125e+00 -1.669273972511291504e+00 8.637632243335247040e-03
-9.123545646667480469e+00 -1.135639667510986328e+00 2.728701531887054443e-01
-1.232603836059570312e+01 -1.988725304603576660e+00 2.528125345706939697e-01
-1.008437728881835938e+01 -2.003220081329345703e+00 1.094653382897377014e-01
-6.816963672637939453e+00 -1.612129330635070801e+00 8.558220230042934418e-03
-1.235579204559326172e+01 -1.915814042091369629e+00 2.531769275665283203e-01
-1.011022567749023438e+01 -1.943949103355407715e+00 1.096143871545791626e-01
-6.805287361145019531e+00 -1.565339326858520508e+00 8.531342260539531708e-03
-1.009148788452148438e+01 -1.876211166381835938e+00 1.092843487858772278e-01
-6.838185787200927734e+00 -1.528789758682250977e+00 8.560664020478725433e-03
-9.990611076354980469e+00 -1.794107079505920410e+00 1.080706641077995300e-01
-6.847437381744384766e+00 -1.486802577972412109e+00 8.560664020478725433e-03
-1.007532691955566406e+01 -1.745574593544006348e+00 1.088691502809524536e-01
-6.856431484222412109e+00 -1.444759607315063477e+00 8.560664020478725433e-03
-9.091606140136718750e+00 -1.182003736495971680e+00 1.856414824724197388e-01
-1.003456020355224609e+01 -1.675158858299255371e+00 1.083155348896980286e-01
-6.852430343627929688e+00 -1.400059700012207031e+00 8.544781245291233063e-03
-9.116548538208007812e+00 -1.128407120704650879e+00 1.860058903694152832e-01
-1.003773880004882812e+01 -1.612446308135986328e+00 1.082410141825675964e-01
-6.825576782226562500e+00 -1.350997686386108398e+00 8.500798605382442474e-03
-9.105426788330078125e+00 -1.070346713066101074e+00 1.856414824724197388e-01
-9.987161636352539062e+00 -1.541520833969116211e+00 1.075915917754173279e-01
-6.820970058441162109e+00 -1.306645512580871582e+00 8.484915830194950104e-03
-1.000533390045166016e+01 -1.481529951095581055e+00 1.076874062418937683e-01
-6.820009708404541016e+00 -1.263129234313964844e+00 8.473920635879039764e-03
-1.008452892303466797e+01 -1.430078625679016113e+00 1.084432974457740784e-01
-6.816803455352783203e+00 -1.219321727752685547e+00 8.460481651127338409e-03
-9.538220405578613281e+00 -1.292955517768859863e+00 1.024813577532768250e-01
-6.800506591796875000e+00 -1.173390984535217285e+00 8.431160822510719299e-03
-9.121533393859863281e+00 -1.179520487785339355e+00 9.792474657297134399e-02
-6.830266952514648438e+00 -1.135413289070129395e+00 8.459259755909442902e-03
-9.121650695800781250e+00 -1.122674465179443359e+00 9.785021096467971802e-02
-6.833155632019042969e+00 -1.092850565910339355e+00 8.454373106360435486e-03
-1.234565639495849609e+01 -1.901281237602233887e+00 4.689472019672393799e-01
-9.135320663452148438e+00 -1.067496418952941895e+00 9.792474657297134399e-02
-6.822929382324218750e+00 -1.048320770263671875e+00 8.433603681623935699e-03
-9.446818351745605469e+00 -1.045181155204772949e+00 1.011931523680686951e-01
-6.835169315338134766e+00 -1.007311105728149414e+00 8.440934121608734131e-03
-9.842911720275878906e+00 -1.027910232543945312e+00 1.053665056824684143e-01
-6.852113723754882812e+00 -9.668893814086914062e-01 8.454373106360435486e-03
-9.990345954895019531e+00 -9.813774228096008301e-01 1.068782880902290344e-01
-6.818275928497314453e+00 -9.194815158843994141e-01 8.405503816902637482e-03
-9.966307640075683594e+00 -9.173098802566528320e-01 1.065588966012001038e-01
-6.801969051361083984e+00 -8.748216629028320312e-01 8.378625847399234772e-03
-9.126043319702148438e+00 -1.120082497596740723e+00 3.451826274394989014e-01
-9.792417526245117188e+00 -8.407438397407531738e-01 1.046425625681877136e-01
-6.792320251464843750e+00 -8.312470316886901855e-01 8.360300213098526001e-03
-9.978807449340820312e+00 -7.950977087020874023e-01 1.065801903605461121e-01
-6.800272464752197266e+00 -7.899006009101867676e-01 8.363964967429637909e-03
-1.004433059692382812e+01 -7.383255362510681152e-01 1.072296127676963806e-01
-6.810955524444580078e+00 -7.488157749176025391e-01 8.371295407414436340e-03
-9.735398292541503906e+00 -6.555848717689514160e-01 1.038866713643074036e-01
-6.793539524078369141e+00 -7.047404050827026367e-01 8.344417437911033630e-03
-9.520659446716308594e+00 -5.824648141860961914e-01 1.015551313757896423e-01
-6.832570075988769531e+00 -6.664404869079589844e-01 8.387178182601928711e-03
-9.620902061462402344e+00 -5.293650031089782715e-01 1.025878265500068665e-01
-6.750887393951416016e+00 -6.166807413101196289e-01 8.282109163701534271e-03
-9.667913436889648438e+00 -4.724698662757873535e-01 1.030562594532966614e-01
-6.674832820892333984e+00 -5.684579014778137207e-01 8.184370584785938263e-03
-9.715587615966796875e+00 -4.150603711605072021e-01 1.035353392362594604e-01
-6.742993354797363281e+00 -5.326094031333923340e-01 8.263783529400825500e-03
-9.662990570068359375e+00 -3.534286320209503174e-01 1.029497906565666199e-01
-6.734166145324707031e+00 -4.903536438941955566e-01 8.249122649431228638e-03
-9.746935844421386719e+00 -2.966251671314239502e-01 1.038227975368499756e-01
-6.722081661224365234e+00 -4.480268359184265137e-01 8.230797015130519867e-03
-9.711584091186523438e+00 -2.359150201082229614e-01 1.034288778901100159e-01
-6.716718196868896484e+00 -4.062894284725189209e-01 8.221022784709930420e-03
-9.705850601196289062e+00 -1.761943697929382324e-01 1.033543497323989868e-01
-6.732065677642822266e+00 -3.657740652561187744e-01 8.236904628574848175e-03
-9.736745834350585938e+00 -1.169975101947784424e-01 1.036737486720085144e-01
-6.162846565246582031e+00 -2.969323992729187012e-01 7.538075093179941177e-03
-9.752279281616210938e+00 -5.733994394540786743e-02 1.038334369659423828e-01
-5.958734512329101562e+00 -2.504612207412719727e-01 7.286399137228727341e-03
-9.720449447631835938e+00 2.491791034117341042e-03 1.034927591681480408e-01
-6.724666118621826172e+00 -2.413305491209030151e-01 8.221022784709930420e-03
-9.699253082275390625e+00 6.200107187032699585e-02 1.032691895961761475e-01
-6.730018615722656250e+00 -2.001831531524658203e-01 8.225909434258937836e-03
-9.737684249877929688e+00 1.220019534230232239e-01 1.036843881011009216e-01
-6.780107021331787109e+00 -1.600410789251327515e-01 8.285774849355220795e-03
-9.674766540527343750e+00 1.805919110774993896e-01 1.030243188142776489e-01
-6.779961109161376953e+00 -1.184186413884162903e-01 8.284552022814750671e-03
-9.748449325561523438e+00 2.418114989995956421e-01 1.038227975368499756e-01
-6.757561683654785156e+00 -7.655481249094009399e-02 8.256453089416027069e-03
-5.302295684814453125e+00 5.491081476211547852e-01 1.582100838422775269e-01
-9.697807312011718750e+00 3.001067340373992920e-01 1.033011227846145630e-01
-6.787903308868408203e+00 -3.524551913142204285e-02 8.293104358017444611e-03
-5.266038417816162109e+00 5.780329704284667969e-01 1.572310924530029297e-01
-9.697783470153808594e+00 3.596798777580261230e-01 1.033224239945411682e-01
-6.777992248535156250e+00 6.395502947270870209e-03 8.280887268483638763e-03
-5.183952808380126953e+00 6.012364625930786133e-01 1.548874676227569580e-01
-9.697391510009765625e+00 4.192639589309692383e-01 1.033437103033065796e-01
-6.681827545166015625e+00 4.730473458766937256e-02 8.163601160049438477e-03
-5.198025703430175781e+00 6.352157592773437500e-01 1.554214656352996826e-01
-9.676658630371093750e+00 4.778703451156616211e-01 1.031520739197731018e-01
-6.674412250518798828e+00 8.821026235818862915e-02 8.155048824846744537e-03
-9.660565376281738281e+00 5.365154147148132324e-01 1.030136793851852417e-01
-6.657748699188232422e+00 1.288524270057678223e-01 8.135501295328140259e-03
-9.661083221435546875e+00 5.960276722908020020e-01 1.030562594532966614e-01
-6.648835182189941406e+00 1.694973111152648926e-01 8.125727996230125427e-03
-5.252449989318847656e+00 5.475946664810180664e-01 1.069311127066612244e-01
-9.722092628479003906e+00 6.596960425376892090e-01 1.037482768297195435e-01
-6.649669170379638672e+00 2.103538364171981812e-01 8.128170855343341827e-03
-5.237066268920898438e+00 5.784955620765686035e-01 1.066881865262985229e-01
-9.733817100524902344e+00 7.205182909965515137e-01 1.039186120033264160e-01
-6.659245491027832031e+00 2.515667378902435303e-01 8.141610771417617798e-03
-5.217529296875000000e+00 6.087648272514343262e-01 1.063642725348472595e-01
-9.589668273925781250e+00 7.690396308898925781e-01 1.024281233549118042e-01
-6.664569854736328125e+00 2.927295267581939697e-01 8.150162175297737122e-03
-5.202779769897460938e+00 6.394259333610534668e-01 1.061415821313858032e-01
-9.640557289123535156e+00 8.326848745346069336e-01 1.030243188142776489e-01
-6.660650253295898438e+00 3.335170149803161621e-01 8.147718384861946106e-03
-9.619336128234863281e+00 8.903480172157287598e-01 1.028539761900901794e-01
-6.619540214538574219e+00 3.721903562545776367e-01 8.100070990622043610e-03
-9.561946868896484375e+00 9.442445635795593262e-01 1.023003682494163513e-01
-6.612141609191894531e+00 4.124887883663177490e-01 8.093963377177715302e-03
-5.282685756683349609e+00 5.544170141220092773e-01 5.655318871140480042e-02
-6.640413284301757812e+00 4.551723003387451172e-01 8.131836540997028351e-03
-5.318650245666503906e+00 5.883883833885192871e-01 2.514153420925140381e-01
-5.251357555389404297e+00 5.837273597717285156e-01 5.625509098172187805e-02
-6.637495517730712891e+00 4.959085285663604736e-01 8.131836540997028351e-03
-5.306010246276855469e+00 6.199685335159301758e-01 2.509929239749908447e-01
-5.226821422576904297e+00 6.134902238845825195e-01 5.603152140974998474e-02
-6.625357151031494141e+00 5.359005331993103027e-01 8.120840415358543396e-03
-5.189217090606689453e+00 6.413794159889221191e-01 5.566954240202903748e-02
-6.615966796875000000e+00 5.760224461555480957e-01 8.113509975373744965e-03
-9.397588729858398438e+00 1.220116734504699707e+00 1.008950546383857727e-01
-6.624256134033203125e+00 6.177206039428710938e-01 8.128170855343341827e-03
-9.551427841186523438e+00 1.299733042716979980e+00 1.026304066181182861e-01
-5.775508880615234375e+00 5.743409395217895508e-01 7.090922445058822632e-03
-9.555151939392089844e+00 1.360005855560302734e+00 1.027581617236137390e-01
-5.255748748779296875e+00 5.552418828010559082e-01 6.456844508647918701e-03
-5.319266796112060547e+00 5.930970311164855957e-01 2.009344995021820068e-01
-9.540693283081054688e+00 1.417727828025817871e+00 1.026942878961563110e-01
-5.256217479705810547e+00 5.879246592521667480e-01 6.461730692535638809e-03
-5.266897678375244141e+00 6.199997067451477051e-01 1.990962177515029907e-01
-9.532802581787109375e+00 1.476394653320312500e+00 1.027049273252487183e-01
-5.236621856689453125e+00 6.182891130447387695e-01 6.442183628678321838e-03
-9.513691902160644531e+00 1.533267974853515625e+00 1.025984659790992737e-01
-5.235706329345703125e+00 6.507787704467773438e-01 6.445848383009433746e-03
-9.475505828857421875e+00 1.586824655532836914e+00 1.022897288203239441e-01
-5.341681003570556641e+00 6.972593665122985840e-01 6.581460591405630112e-03
-9.473471641540527344e+00 1.646304965019226074e+00 1.023748964071273804e-01
-6.578742980957031250e+00 8.998231887817382812e-01 8.112289011478424072e-03
-9.420875549316406250e+00 1.696780562400817871e+00 1.019171103835105896e-01
-6.560228824615478516e+00 9.383319616317749023e-01 8.096406236290931702e-03
-9.413235664367675781e+00 1.755103707313537598e+00 1.019490435719490051e-01
-6.538523197174072266e+00 9.762045145034790039e-01 8.076858706772327423e-03
-9.415053367614746094e+00 1.815290331840515137e+00 1.020874455571174622e-01
-6.530433654785156250e+00 1.015998244285583496e+00 8.074414916336536407e-03
-9.373336791992187500e+00 1.866970658302307129e+00 1.017574146389961243e-01
-6.519141197204589844e+00 1.055250167846679688e+00 8.068306371569633484e-03
-9.337217330932617188e+00 1.919415473937988281e+00 1.014912500977516174e-01
-6.556920051574707031e+00 1.102693915367126465e+00 8.123284205794334412e-03
-9.321352005004882812e+00 1.975842118263244629e+00 1.014486625790596008e-01
-6.509641170501708984e+00 1.135858178138732910e+00 8.073193021118640900e-03
-9.212338447570800781e+00 2.011878013610839844e+00 1.003946810960769653e-01
-6.532070636749267578e+00 1.181117177009582520e+00 8.109845221042633057e-03
-9.419328689575195312e+00 2.117717504501342773e+00 1.027901023626327515e-01
-6.553205490112304688e+00 1.226510047912597656e+00 8.145275525748729706e-03
-9.420769691467285156e+00 2.178853034973144531e+00 1.029497906565666199e-01
-6.528865814208984375e+00 1.263466715812683105e+00 8.124506101012229919e-03
-9.513261795043945312e+00 2.261827945709228516e+00 1.041102409362792969e-01
-6.469999313354492188e+00 1.293310523033142090e+00 8.060975931584835052e-03
-9.597313880920410156e+00 2.344120740890502930e+00 1.051855161786079407e-01
-6.503076076507568359e+00 1.341470599174499512e+00 8.112289011478424072e-03
-9.574021339416503906e+00 2.400775909423828125e+00 1.050897017121315002e-01
-6.483963012695312500e+00 1.379058957099914551e+00 8.098849095404148102e-03
-9.448712348937988281e+00 2.431071519851684570e+00 1.038760319352149963e-01
-6.460726737976074219e+00 1.415607452392578125e+00 8.080523461103439331e-03
-9.531270027160644531e+00 2.514766931533813477e+00 1.049513071775436401e-01
-6.450943946838378906e+00 1.455003023147583008e+00 8.079302497208118439e-03
-9.522417068481445312e+00 2.575029373168945312e+00 1.050258278846740723e-01
-6.440920352935791016e+00 1.494331955909729004e+00 8.078080601990222931e-03
-9.709768295288085938e+00 2.689734697341918945e+00 1.072721928358078003e-01
-6.517229557037353516e+00 1.554238438606262207e+00 8.185592480003833771e-03
-9.699815750122070312e+00 2.751172065734863281e+00 1.073467209935188293e-01
-6.512426853179931641e+00 1.595387816429138184e+00 8.191701024770736694e-03
-9.606888771057128906e+00 2.788615942001342773e+00 1.065056622028350830e-01
-6.485058307647705078e+00 1.630927085876464844e+00 8.169709704816341400e-03
-9.539751052856445312e+00 2.832709074020385742e+00 1.059520542621612549e-01
-6.528184890747070312e+00 1.684429287910461426e+00 8.236904628574848175e-03
-9.797752380371093750e+00 2.974858522415161133e+00 1.090181916952133179e-01
-6.529327392578125000e+00 1.727523088455200195e+00 8.251565508544445038e-03
-9.773583412170410156e+00 3.033142089843750000e+00 1.089543104171752930e-01
-6.539837837219238281e+00 1.773311376571655273e+00 8.278444409370422363e-03
-9.751930236816406250e+00 3.092148065567016602e+00 1.089223772287368774e-01
-6.549067974090576172e+00 1.819025635719299316e+00 8.304100483655929565e-03
-9.758458137512207031e+00 3.160244464874267578e+00 1.092098280787467957e-01
-6.534897327423095703e+00 1.858355045318603516e+00 8.300434798002243042e-03
-9.838570594787597656e+00 3.253022193908691406e+00 1.103276908397674561e-01
-6.544495582580566406e+00 1.904564976692199707e+00 8.327313698828220367e-03
-9.815582275390625000e+00 3.312369823455810547e+00 1.102957502007484436e-01
-6.539395332336425781e+00 1.946682572364807129e+00 8.335865102708339691e-03
-9.795073509216308594e+00 3.372534751892089844e+00 1.102957502007484436e-01
-6.534980773925781250e+00 1.989100337028503418e+00 8.345639333128929138e-03
-9.745891571044921875e+00 3.422632932662963867e+00 1.099763661623001099e-01
-6.494007110595703125e+00 2.020249128341674805e+00 8.308987133204936981e-03
-9.793430328369140625e+00 3.506977319717407227e+00 1.107535436749458313e-01
-6.488159656524658203e+00 2.062177896499633789e+00 8.317539468407630920e-03
-9.994344711303710938e+00 3.648265600204467773e+00 1.132767125964164734e-01
-6.470629215240478516e+00 2.100406169891357422e+00 8.311430923640727997e-03
-1.000457286834716797e+01 3.721723318099975586e+00 1.136493310332298279e-01
-6.457619190216064453e+00 2.140069484710693359e+00 8.311430923640727997e-03
-9.997445106506347656e+00 3.789064884185791016e+00 1.138303205370903015e-01
-6.479415893554687500e+00 2.191507101058959961e+00 8.356634527444839478e-03
-9.987067222595214844e+00 3.855378389358520508e+00 1.139793694019317627e-01
-6.473409652709960938e+00 2.233832597732543945e+00 8.366408757865428925e-03
-9.982766151428222656e+00 3.924267530441284180e+00 1.142029389739036560e-01
-6.459581375122070312e+00 2.273510456085205078e+00 8.366408757865428925e-03
-9.971496582031250000e+00 3.990648269653320312e+00 1.143519878387451172e-01
-6.482217311859130859e+00 2.326276302337646484e+00 8.414056152105331421e-03
-9.945897102355957031e+00 4.051380157470703125e+00 1.143413484096527100e-01
-6.541073799133300781e+00 2.392803192138671875e+00 8.509350940585136414e-03
-9.982740402221679688e+00 4.137984752655029297e+00 1.150546446442604065e-01
-6.450371265411376953e+00 2.404599905014038086e+00 8.410390466451644897e-03
-9.976510047912597656e+00 4.207319259643554688e+00 1.152782142162322998e-01
-6.516827106475830078e+00 2.475022315979003906e+00 8.516681380569934845e-03
-1.003137588500976562e+01 4.303144931793212891e+00 1.162150949239730835e-01
-6.444626331329345703e+00 2.492954969406127930e+00 8.442156016826629639e-03
-1.010010242462158203e+01 4.406198501586914062e+00 1.173223108053207397e-01
-6.505502700805664062e+00 2.562503814697265625e+00 8.542337454855442047e-03
-9.998837471008300781e+00 4.435246944427490234e+00 1.164599582552909851e-01
-6.498010635375976562e+00 2.605722427368164062e+00 8.553333580493927002e-03
-1.029412364959716797e+01 4.642027854919433594e+00 1.202287524938583374e-01
-6.499491214752197266e+00 2.652724027633666992e+00 8.576546795666217804e-03
-1.026999187469482422e+01 4.707187652587890625e+00 1.202819868922233582e-01
-6.490480422973632812e+00 2.695622682571411133e+00 8.586320094764232635e-03
-1.024363517761230469e+01 4.771380901336669922e+00 1.203139275312423706e-01
-6.491319656372070312e+00 2.742791891098022461e+00 8.609533309936523438e-03
-1.021597290039062500e+01 4.835000514984130859e+00 1.203352138400077820e-01
-6.487230300903320312e+00 2.788098335266113281e+00 8.626637049019336700e-03
-1.066374301910400391e+01 5.127242565155029297e+00 1.259777545928955078e-01
-6.472749710083007812e+00 2.829051971435546875e+00 8.630301803350448608e-03
-1.082076930999755859e+01 5.284729957580566406e+00 1.282134801149368286e-01
-6.466235160827636719e+00 2.873588085174560547e+00 8.644962683320045471e-03
-1.080605506896972656e+01 5.359912395477294922e+00 1.284264177083969116e-01
-6.537790298461914062e+00 2.953557014465332031e+00 8.764692582190036774e-03
-1.078725242614746094e+01 5.433312892913818359e+00 1.285967528820037842e-01
-6.528632640838623047e+00 2.997789382934570312e+00 8.776910603046417236e-03
-1.076083374023437500e+01 5.503042697906494141e+00 1.286819279193878174e-01
-6.531864166259765625e+00 3.047940492630004883e+00 8.806231431663036346e-03
-1.037453937530517578e+01 5.386052131652832031e+00 1.244553402066230774e-01
-6.523882389068603516e+00 3.093102693557739258e+00 8.820892311632633209e-03
-1.088357257843017578e+01 5.735374450683593750e+00 1.309815198183059692e-01
-6.520997524261474609e+00 3.140885353088378906e+00 8.842883631587028503e-03
-1.083671379089355469e+01 5.795916080474853516e+00 1.308431327342987061e-01
-6.514178276062011719e+00 3.186990737915039062e+00 8.859987370669841766e-03
-1.065857410430908203e+01 5.785026073455810547e+00 1.291184127330780029e-01
-6.498083114624023438e+00 3.228680849075317383e+00 8.864874951541423798e-03
-1.072973728179931641e+01 5.909167766571044922e+00 1.304172724485397339e-01
-6.499577045440673828e+00 3.279302358627319336e+00 8.894195780158042908e-03
-1.116290855407714844e+01 6.237300395965576172e+00 1.361449956893920898e-01
-6.482003211975097656e+00 3.320489168167114258e+00 8.897861465811729431e-03
-1.093652534484863281e+01 6.199168682098388672e+00 1.338453739881515503e-01
-6.504092693328857422e+00 3.382345438003540039e+00 8.956504054367542267e-03
-1.088701343536376953e+01 6.259678363800048828e+00 1.337069869041442871e-01
-6.532741069793701172e+00 3.448331594467163086e+00 9.024921804666519165e-03
-1.134076213836669922e+01 6.613488674163818359e+00 1.397753804922103882e-01
-6.516747951507568359e+00 3.491183996200561523e+00 9.032251313328742981e-03
-1.122164726257324219e+01 6.636628627777099609e+00 1.388065665960311890e-01
-6.493446826934814453e+00 3.530149221420288086e+00 9.029808454215526581e-03
-1.115927505493164062e+01 6.692501068115234375e+00 1.385404020547866821e-01
-6.441017627716064453e+00 3.553020477294921875e+00 8.987047709524631500e-03
-1.119147682189941406e+01 6.805528163909912109e+00 1.394559890031814575e-01
-6.316124439239501953e+00 3.534846782684326172e+00 8.842883631587028503e-03
-1.099459552764892578e+01 6.778560161590576172e+00 1.375183612108230591e-01
-6.369973182678222656e+00 3.616488933563232422e+00 8.949173614382743835e-03
-6.371060371398925781e+00 3.668980360031127930e+00 8.982160128653049469e-03
-6.574664115905761719e+00 3.840143918991088867e+00 9.302253834903240204e-03
-6.552698612213134766e+00 3.881432294845581055e+00 9.304697625339031219e-03
-6.507328510284423828e+00 3.908693075180053711e+00 9.274153970181941986e-03
-6.503719806671142578e+00 3.961031436920166016e+00 9.303475730121135712e-03
-6.508222103118896484e+00 4.018726348876953125e+00 9.345014579594135284e-03
-6.508022308349609375e+00 4.073972225189208984e+00 9.380444884300231934e-03
-6.457571983337402344e+00 4.097754001617431641e+00 9.343792684376239777e-03
-6.487815856933593750e+00 4.173003196716308594e+00 9.424426592886447906e-03
-6.482193946838378906e+00 4.225840091705322266e+00 9.453748352825641632e-03
-6.497025012969970703e+00 4.292545318603515625e+00 9.513612836599349976e-03
-6.490507125854492188e+00 4.345682144165039062e+00 9.542934596538543701e-03
-6.471167564392089844e+00 4.390478134155273438e+00 9.553929790854454041e-03
-6.607269763946533203e+00 4.542271137237548828e+00 9.795833379030227661e-03
-6.585838317871093750e+00 4.587298870086669922e+00 9.805606678128242493e-03
-6.566555023193359375e+00 4.633965492248535156e+00 9.819046594202518463e-03
-6.544505596160888672e+00 4.678822040557861328e+00 9.828818961977958679e-03
-6.513244628906250000e+00 4.717131137847900391e+00 9.825155138969421387e-03
-6.479340076446533203e+00 4.753457546234130859e+00 9.817823767662048340e-03
-6.577672004699707031e+00 4.887961387634277344e+00 1.001207996159791946e-02
-6.550752162933349609e+00 4.930634498596191406e+00 1.001696567982435226e-02
-6.574452877044677734e+00 5.011961936950683594e+00 1.010004337877035141e-02
-6.557824134826660156e+00 5.063208103179931641e+00 1.012203563004732132e-02
-6.511665821075439453e+00 5.091647624969482422e+00 1.009882241487503052e-02
-6.481869220733642578e+00 5.132748126983642578e+00 1.010126620531082153e-02
-6.617985248565673828e+00 5.306926250457763672e+00 1.036393828690052032e-02
-6.628769874572753906e+00 5.382734298706054688e+00 1.043235417455434799e-02
-6.618789672851562500e+00 5.442359924316406250e+00 1.046900637447834015e-02
-6.612937450408935547e+00 5.505904197692871094e+00 1.051298901438713074e-02
-6.517864704132080078e+00 5.494812488555908203e+00 1.041525043547153473e-02
-6.575296878814697266e+00 5.612609863281250000e+00 1.056185830384492874e-02
-6.597479343414306641e+00 5.701890945434570312e+00 1.065348740667104721e-02
-6.569141864776611328e+00 5.748191356658935547e+00 1.066448260098695755e-02
-6.569676876068115234e+00 5.820220947265625000e+00 1.072312612086534500e-02
-6.589672565460205078e+00 5.910499572753906250e+00 1.081475615501403809e-02
-6.525150299072265625e+00 5.925275802612304688e+00 1.076832972466945648e-02
-6.639587402343750000e+00 6.103943347930908203e+00 1.101878471672534943e-02
-6.607865333557128906e+00 6.150018692016601562e+00 1.102855894714593887e-02
-6.732308387756347656e+00 6.343374252319335938e+00 1.130100432783365250e-02
-6.542027950286865234e+00 6.240307331085205078e+00 1.104566268622875214e-02
-6.677696704864501953e+00 6.448435783386230469e+00 1.134132128208875656e-02
-6.648015975952148438e+00 6.499075412750244141e+00 1.135842688381671906e-02
-6.579581737518310547e+00 6.511607170104980469e+00 1.130955573171377182e-02
-6.690681934356689453e+00 6.703320026397705078e+00 1.157100684940814972e-02
-6.676104068756103516e+00 6.771306514739990234e+00 1.161743327975273132e-02
-1.346359491348266602e+00 2.374270915985107422e+00 5.526731163263320923e-02
-1.322497248649597168e+00 2.365906000137329102e+00 5.488267168402671814e-02
-1.342165946960449219e+00 2.434058666229248047e+00 1.568624824285507202e-01
-1.301683425903320312e+00 2.362592220306396484e+00 5.461949110031127930e-02
-1.318147778511047363e+00 2.425580501556396484e+00 1.557919383049011230e-01
-1.301825881004333496e+00 2.430982351303100586e+00 1.556228995323181152e-01
-1.271509647369384766e+00 2.409784555435180664e+00 1.537635475397109985e-01
-1.355031132698059082e+00 2.425039768218994141e+00 1.305182129144668579e-01
-1.335307002067565918e+00 2.424558639526367188e+00 1.300488859415054321e-01
-1.319452047348022461e+00 2.430950403213500977e+00 1.299550235271453857e-01
-1.301213383674621582e+00 2.432834863662719727e+00 1.296264976263046265e-01
-1.276481628417968750e+00 2.422215461730957031e+00 1.286409199237823486e-01
-1.245938062667846680e+00 2.204235315322875977e+00 3.093420760706067085e-03
-1.351046323776245117e+00 2.422809123992919922e+00 1.041437909007072449e-01
-1.280088782310485840e+00 2.297446966171264648e+00 3.213150426745414734e-03
-1.314013957977294922e+00 2.390769243240356445e+00 1.024180650711059570e-01
-1.316453576087951660e+00 2.430419445037841797e+00 1.037686318159103394e-01
-1.286069035530090332e+00 2.376303911209106445e+00 3.301115008071064949e-03
-1.304809927940368652e+00 2.444622516632080078e+00 1.040312498807907104e-01
-1.290715694427490234e+00 2.454351425170898438e+00 1.041062772274017334e-01
-9.958547353744506836e-02 6.987950205802917480e-01 1.429257262498140335e-02
-1.038148477673530579e-01 7.357110381126403809e-01 9.077455615624785423e-04
-9.234241209924221039e-03 7.164503335952758789e-01 5.978921800851821899e-02
