-1.095325574278831482e-01 -7.104588747024536133e-01 1.455575041472911835e-02
-1.023318469524383545e-01 -7.172262072563171387e-01 2.719893679022789001e-02
-1.137995794415473938e-01 -7.069433927536010742e-01 5.295995622873306274e-02
-1.149411574006080627e-01 -6.849334239959716797e-01 2.607346512377262115e-02
-1.299975037574768066e+00 -6.503339767456054688e+00 8.102514781057834625e-03
-1.339854359626770020e+00 -6.495240688323974609e+00 8.102514781057834625e-03
-1.380515217781066895e+00 -6.490809440612792969e+00 8.107401430606842041e-03
-1.425452947616577148e+00 -6.505661010742187500e+00 8.136723190546035767e-03
-1.467544317245483398e+00 -6.506546974182128906e+00 8.148941211402416229e-03
-1.506988048553466797e+00 -6.495471477508544922e+00 8.146497420966625214e-03
-1.561893582344055176e+00 -6.549329280853271484e+00 8.225909434258937836e-03
-1.683663487434387207e+00 -6.872770786285400391e+00 8.644962683320045471e-03
-3.223670244216918945e+00 -6.049860477447509766e+00 4.517124295234680176e-01
-3.221336126327514648e+00 -5.957115173339843750e+00 4.462550580501556396e-01
-3.246787548065185547e+00 -5.917117118835449219e+00 4.447427988052368164e-01
-3.231305360794067383e+00 -5.886465549468994141e+00 1.992978453636169434e-01
-3.233525514602661133e+00 -5.808156490325927734e+00 4.380361437797546387e-01
-3.247908830642700195e+00 -5.831597328186035156e+00 1.981111913919448853e-01
-3.186663866043090820e+00 -5.642241954803466797e+00 4.269899129867553711e-01
-3.172011852264404297e+00 -5.614010810852050781e+00 1.913769543170928955e-01
-3.181764602661132812e+00 -5.558204174041748047e+00 6.561896800994873047e-01
-3.189973831176757812e+00 -5.568036556243896484e+00 4.228475391864776611e-01
-3.189499616622924805e+00 -5.564956665039062500e+00 1.903682947158813477e-01
-3.151872634887695312e+00 -5.428459167480468750e+00 6.431433558464050293e-01
-3.228590726852416992e+00 -5.556123256683349609e+00 4.234393239021301270e-01
-3.162298679351806641e+00 -5.439854621887207031e+00 1.867490112781524658e-01
-3.187645673751831055e+00 -5.413303852081298828e+00 6.436529755592346191e-01
-3.124951601028442383e+00 -5.776615142822265625e+00 6.104227304458618164e-01
-3.213986396789550781e+00 -5.453680992126464844e+00 4.171271920204162598e-01
-3.201055049896240234e+00 -5.912363529205322266e+00 3.794223964214324951e-01
-3.179880619049072266e+00 -5.393656253814697266e+00 1.858293712139129639e-01
-3.175918817520141602e+00 -5.318481922149658203e+00 6.346836090087890625e-01
-3.153150558471679688e+00 -5.744239330291748047e+00 6.090345382690429688e-01
-3.184939146041870117e+00 -5.329360485076904297e+00 4.091054797172546387e-01
-3.204101800918579102e+00 -5.832232475280761719e+00 3.755346536636352539e-01
-3.207786321640014648e+00 -5.365463733673095703e+00 1.855326890945434570e-01
-3.265495300292968750e+00 -5.939069747924804688e+00 1.372370421886444092e-01
-3.204885959625244141e+00 -5.292937755584716797e+00 6.339701414108276367e-01
-3.139889478683471680e+00 -5.637794017791748047e+00 5.997801423072814941e-01
-3.196377277374267578e+00 -5.274729251861572266e+00 4.064096808433532715e-01
-3.184412479400634766e+00 -5.713044643402099609e+00 3.691113889217376709e-01
-3.254120349884033203e+00 -5.367904186248779297e+00 1.863040179014205933e-01
-3.282879352569580078e+00 -5.884869575500488281e+00 1.364475041627883911e-01
-3.217524528503417969e+00 -5.240957736968994141e+00 6.300970315933227539e-01
-3.197863101959228516e+00 -5.204855918884277344e+00 4.025303423404693604e-01
-3.179109334945678711e+00 -5.622132778167724609e+00 3.644911646842956543e-01
-3.229944705963134766e+00 -5.255015850067138672e+00 1.830704063177108765e-01
-3.230698347091674805e+00 -5.190712451934814453e+00 6.264277696609497070e-01
-3.190699815750122070e+00 -5.122460842132568359e+00 3.976647555828094482e-01
-3.154928445816040039e+00 -5.500325679779052734e+00 3.578425347805023193e-01
-3.214023351669311523e+00 -5.157899379730224609e+00 1.803707778453826904e-01
-3.299597978591918945e+00 -5.747894287109375000e+00 1.342003643512725830e-01
-3.241784811019897461e+00 -5.137979984283447266e+00 6.224526762962341309e-01
-3.135543584823608398e+00 -5.393965244293212891e+00 5.798830389976501465e-01
-3.196342468261718750e+00 -5.988811492919921875e+00 5.664591789245605469e-01
-3.209817171096801758e+00 -5.083381175994873047e+00 3.961524665355682373e-01
-3.164017200469970703e+00 -5.438577175140380859e+00 3.550816774368286133e-01
-3.227995157241821289e+00 -5.110193729400634766e+00 1.793917864561080933e-01
-3.351405382156372070e+00 -5.756052494049072266e+00 1.348684430122375488e-01
-3.251274585723876953e+00 -5.083631992340087891e+00 6.182737946510314941e-01
-3.181728839874267578e+00 -5.396925926208496094e+00 5.822892189025878906e-01
-3.214044809341430664e+00 -5.934036254882812500e+00 5.631329417228698730e-01
-3.235568761825561523e+00 -5.055186271667480469e+00 3.954949676990509033e-01
-3.176019191741943359e+00 -5.382945060729980469e+00 3.527151942253112793e-01
-3.168040752410888672e+00 -5.844227313995361328e+00 3.123331964015960693e-01
-3.260906934738159180e+00 -5.092815876007080078e+00 1.794807761907577515e-01
-3.263130664825439453e+00 -5.526178836822509766e+00 1.299490332603454590e-01
-3.273747920989990234e+00 -5.050230503082275391e+00 6.166429519653320312e-01
-3.182084321975708008e+00 -5.322605133056640625e+00 5.763663649559020996e-01
-3.250777006149291992e+00 -5.010961532592773438e+00 3.935881555080413818e-01
-3.180282115936279297e+00 -5.315377235412597656e+00 3.495599329471588135e-01
-3.180732488632202148e+00 -5.782667636871337891e+00 3.100804686546325684e-01
-3.271416664123535156e+00 -5.040849685668945312e+00 1.783534586429595947e-01
-3.308277130126953125e+00 -5.524924278259277344e+00 1.303944289684295654e-01
-3.296480655670166016e+00 -5.017577171325683594e+00 6.151141524314880371e-01
-3.247201919555664062e+00 -5.356623172760009766e+00 5.821967124938964844e-01
-3.137142181396484375e+00 -5.626073837280273438e+00 5.375208258628845215e-01
-3.276528835296630859e+00 -4.983417034149169922e+00 3.929964005947113037e-01
-3.201443672180175781e+00 -5.276983737945556641e+00 3.483203351497650146e-01
-3.194736003875732422e+00 -5.724662303924560547e+00 3.080154657363891602e-01
-3.266032695770263672e+00 -4.965564727783203125e+00 1.763954907655715942e-01
-3.255980730056762695e+00 -5.362656116485595703e+00 1.270338445901870728e-01
-3.322243928909301758e+00 -4.989803314208984375e+00 6.141968369483947754e-01
-3.214835643768310547e+00 -5.230561733245849609e+00 5.706286430358886719e-01
-3.107818841934204102e+00 -5.493959903717041016e+00 5.267105698585510254e-01
-3.298192262649536133e+00 -4.949932575225830078e+00 3.919443786144256592e-01
-3.210746288299560547e+00 -5.219822883605957031e+00 3.458412289619445801e-01
-3.195845365524291992e+00 -5.644973278045654297e+00 3.047771453857421875e-01
-3.289786815643310547e+00 -4.935451030731201172e+00 1.760395020246505737e-01
-3.316601991653442383e+00 -5.387701034545898438e+00 1.281067878007888794e-01
-3.342783212661743164e+00 -4.954481124877929688e+00 6.123621463775634766e-01
-3.221593618392944336e+00 -5.170173645019531250e+00 5.661865472793579102e-01
-3.127087593078613281e+00 -5.449721336364746094e+00 5.242990255355834961e-01
-3.306167125701904297e+00 -4.896523475646972656e+00 3.893143236637115479e-01
-3.219997167587280273e+00 -5.163594722747802734e+00 3.434183895587921143e-01
-3.205052375793457031e+00 -5.581080436706542969e+00 3.023836016654968262e-01
-3.319448471069335938e+00 -4.914343357086181641e+00 1.760098338127136230e-01
-3.334247589111328125e+00 -5.342652797698974609e+00 1.275197118520736694e-01
-3.360768556594848633e+00 -4.915809631347656250e+00 6.101198196411132812e-01
-3.221351385116577148e+00 -5.099799156188964844e+00 5.606338381767272949e-01
-3.218818187713623047e+00 -6.020958423614501953e+00 5.049635767936706543e-01
-3.331078290939331055e+00 -4.868732929229736328e+00 3.887225389480590820e-01
-3.242016792297363281e+00 -5.128549098968505859e+00 3.424041867256164551e-01
-3.215104818344116211e+00 -5.519877910614013672e+00 3.001308739185333252e-01
-3.350104570388793945e+00 -4.894708633422851562e+00 1.760395020246505737e-01
-3.306030988693237305e+00 -5.225773811340332031e+00 1.252118498086929321e-01
-3.562891721725463867e+00 -6.109621047973632812e+00 7.530133426189422607e-02
-3.410128355026245117e+00 -4.922899723052978516e+00 6.135852932929992676e-01
-3.244529008865356445e+00 -5.067358970642089844e+00 5.592456459999084473e-01
-3.183091163635253906e+00 -5.392914772033691406e+00 5.225527882575988770e-01
-3.238105773925781250e+00 -5.968661308288574219e+00 5.022344589233398438e-01
-3.356910228729248047e+00 -4.842461585998535156e+00 3.882623016834259033e-01
-3.247568368911743164e+00 -5.068209648132324219e+00 3.396996855735778809e-01
-3.227575778961181641e+00 -5.463923931121826172e+00 2.981597185134887695e-01
-3.154306650161743164e+00 -5.806941986083984375e+00 2.480918169021606445e-01
-3.374948263168334961e+00 -4.866667747497558594e+00 1.757725030183792114e-01
-3.220379352569580078e+00 -5.021917819976806641e+00 1.207985579967498779e-01
-3.607947826385498047e+00 -6.100554466247558594e+00 7.546103000640869141e-02
-3.441984653472900391e+00 -4.904325485229492188e+00 6.138910055160522461e-01
-3.273392677307128906e+00 -5.044014930725097656e+00 5.588755011558532715e-01
-3.280607938766479492e+00 -5.481021404266357422e+00 5.330304503440856934e-01
-3.261682748794555664e+00 -5.925091743469238281e+00 5.002429485321044922e-01
-3.381398200988769531e+00 -4.814424037933349609e+00 3.876705467700958252e-01
-3.273711204528808594e+00 -5.040651798248291016e+00 3.391925990581512451e-01
-3.121934890747070312e+00 -5.211791992187500000e+00 2.854411005973815918e-01
-3.149359226226806641e+00 -5.713963985443115234e+00 2.449404895305633545e-01
-3.401872634887695312e+00 -4.841778278350830078e+00 1.756241619586944580e-01
-3.270202398300170898e+00 -5.031403541564941406e+00 1.215071156620979309e-01
-3.674627065658569336e+00 -6.127182006835937500e+00 7.606787234544754028e-02
-3.480659246444702148e+00 -4.895274639129638672e+00 6.154198646545410156e-01
-3.297714471817016602e+00 -5.013852119445800781e+00 5.577649474143981934e-01
-3.310557842254638672e+00 -5.454825401306152344e+00 5.324483513832092285e-01
-3.148687839508056641e+00 -5.637667655944824219e+00 4.775984883308410645e-01
-3.398148059844970703e+00 -4.775698661804199219e+00 3.862239718437194824e-01
-3.305127143859863281e+00 -5.021303653717041016e+00 3.392489254474639893e-01
-3.229563951492309570e+00 -5.317185878753662109e+00 2.922931909561157227e-01
-3.155096769332885742e+00 -5.642200946807861328e+00 2.426895499229431152e-01
-3.434415578842163086e+00 -4.824885368347167969e+00 1.757725030183792114e-01
-3.296063184738159180e+00 -5.003728866577148438e+00 1.213249191641807556e-01
-3.759951591491699219e+00 -6.183122634887695312e+00 7.704733312129974365e-02
-3.484466552734375000e+00 -4.837502479553222656e+00 6.108332872390747070e-01
-3.352163553237915039e+00 -5.029149532318115234e+00 5.617443323135375977e-01
-3.327775716781616211e+00 -5.408098697662353516e+00 5.298705101013183594e-01
-3.140941619873046875e+00 -5.543620586395263672e+00 4.712550938129425049e-01
-3.433805704116821289e+00 -4.763662338256835938e+00 3.869472742080688477e-01
-3.315929651260375977e+00 -4.971027851104736328e+00 3.372205197811126709e-01
-3.302460432052612305e+00 -5.362762451171875000e+00 2.959069609642028809e-01
-3.165990114212036133e+00 -5.581014633178710938e+00 2.408888041973114014e-01
-3.455186367034912109e+00 -4.791560173034667969e+00 1.753275096416473389e-01
-3.292842149734497070e+00 -4.932686328887939453e+00 1.200900003314018250e-01
-3.782601118087768555e+00 -6.135251045227050781e+00 7.673858851194381714e-02
-3.498251438140869141e+00 -4.794333457946777344e+00 6.080813407897949219e-01
-3.334471464157104492e+00 -4.936700820922851562e+00 5.536929965019226074e-01
-3.280197143554687500e+00 -5.258215427398681641e+00 5.171476006507873535e-01
-3.146572351455688477e+00 -5.474958896636962891e+00 4.670507311820983887e-01
-3.462970256805419922e+00 -4.742503166198730469e+00 3.869472742080688477e-01
-3.333508968353271484e+00 -4.931563854217529297e+00 3.359246253967285156e-01
-3.300390005111694336e+00 -5.286474704742431641e+00 2.928094565868377686e-01
-3.176251888275146484e+00 -5.519908428192138672e+00 2.390880286693572998e-01
-3.483932256698608398e+00 -4.769462585449218750e+00 1.752978414297103882e-01
-3.316884756088256836e+00 -4.903279781341552734e+00 1.198673173785209656e-01
-3.663297653198242188e+00 -5.860936641693115234e+00 7.358727604150772095e-02
-3.525829315185546875e+00 -4.770378589630126953e+00 6.077755689620971680e-01
-3.369198799133300781e+00 -4.922721385955810547e+00 5.544333457946777344e-01
-3.219189643859863281e+00 -5.090594768524169922e+00 5.025953054428100586e-01
-3.187640190124511719e+00 -5.468472480773925781e+00 4.681571424007415771e-01
-3.491411209106445312e+00 -4.720363140106201172e+00 3.868815004825592041e-01
-3.311800241470336914e+00 -4.835234642028808594e+00 3.307409286499023438e-01
-3.257445335388183594e+00 -5.147111415863037109e+00 2.861920297145843506e-01
-3.178328990936279297e+00 -5.445942878723144531e+00 2.367245405912399292e-01
-3.515509605407714844e+00 -4.751209735870361328e+00 1.754164993762969971e-01
-3.348038673400878906e+00 -4.884484767913818359e+00 1.199078038334846497e-01
-3.654235601425170898e+00 -5.767396926879882812e+00 7.269299030303955078e-02
-3.551456212997436523e+00 -4.743876457214355469e+00 6.071640253067016602e-01
-3.445868253707885742e+00 -4.969049930572509766e+00 5.620220303535461426e-01
-3.245524406433105469e+00 -5.063195705413818359e+00 5.018469095230102539e-01
-3.170383691787719727e+00 -5.362961769104003906e+00 4.607810974121093750e-01
-3.533471345901489258e+00 -4.716420173645019531e+00 3.883280456066131592e-01
-3.343113899230957031e+00 -4.817283153533935547e+00 3.309099674224853516e-01
-3.277639627456665039e+00 -5.109370708465576172e+00 2.852064371109008789e-01
-3.184199571609497070e+00 -5.379900455474853516e+00 2.346986979246139526e-01
-3.549991607666015625e+00 -4.736748218536376953e+00 1.756835132837295532e-01
-3.375664949417114258e+00 -4.860564708709716797e+00 1.198268234729766846e-01
-3.577160596847534180e+00 -5.569861888885498047e+00 7.047855854034423828e-02
-3.283682823181152344e+00 -5.484122753143310547e+00 7.068170309066772461e-01
-3.582901716232299805e+00 -4.725166797637939453e+00 6.075717210769653320e-01
-3.470568418502807617e+00 -4.939665794372558594e+00 5.610965490341186523e-01
-3.267300844192504883e+00 -5.028979778289794922e+00 5.004332661628723145e-01
-3.564153909683227539e+00 -4.697035312652587891e+00 3.885253071784973145e-01
-3.379500389099121094e+00 -4.806480407714843750e+00 3.315860927104949951e-01
-3.295860528945922852e+00 -5.069064617156982422e+00 2.840800881385803223e-01
-3.135898590087890625e+00 -5.224884033203125000e+00 2.287712097167968750e-01
-3.581406116485595703e+00 -4.718060970306396484e+00 1.758021712303161621e-01
-3.406000614166259766e+00 -4.840578079223632812e+00 1.198470667004585266e-01
-3.515259742736816406e+00 -5.400313377380371094e+00 6.860480457544326782e-02
-4.747887611389160156e+00 -6.186869144439697266e+00 1.086321949958801270e+00
-3.489386558532714844e+00 -5.303380012512207031e+00 7.626153230667114258e-01
-3.314691781997680664e+00 -5.459622859954833984e+00 7.062674760818481445e-01
-3.613039016723632812e+00 -4.704671382904052734e+00 6.077755689620971680e-01
-3.492151498794555664e+00 -4.906109809875488281e+00 5.597084164619445801e-01
-3.280559301376342773e+00 -4.982203483581542969e+00 4.977722465991973877e-01
-3.203840732574462891e+00 -5.270816802978515625e+00 4.562079906463623047e-01
-3.596555471420288086e+00 -4.679824829101562500e+00 3.889198303222656250e-01
-3.403136253356933594e+00 -4.777522087097167969e+00 3.310226798057556152e-01
-3.308214187622070312e+00 -5.020386695861816406e+00 2.824843823909759521e-01
-3.287383079528808594e+00 -5.401882648468017578e+00 2.373998165130615234e-01
-3.620645284652709961e+00 -4.709468841552734375e+00 1.763065010309219360e-01
-3.439119815826416016e+00 -4.824472904205322266e+00 1.199685335159301758e-01
-3.537316322326660156e+00 -5.361948966979980469e+00 6.839188188314437866e-02
-4.136325836181640625e+00 -6.791540145874023438e+00 9.715198539197444916e-03
-3.511396408081054688e+00 -5.266174793243408203e+00 7.603491544723510742e-01
-3.290295124053955078e+00 -5.345227718353271484e+00 6.940677165985107422e-01
-3.477928638458251953e+00 -4.823209285736083984e+00 5.526750087738037109e-01
-3.331533670425415039e+00 -4.992650985717773438e+00 5.008490085601806641e-01
-3.171241998672485352e+00 -5.145783424377441406e+00 4.470616877079010010e-01
-3.636234283447265625e+00 -4.671842098236083984e+00 3.901033103466033936e-01
-3.436476230621337891e+00 -4.762218475341796875e+00 3.314170837402343750e-01
-3.326752185821533203e+00 -4.981718063354492188e+00 2.814518809318542480e-01
-3.262222290039062500e+00 -5.287211418151855469e+00 2.332355827093124390e-01
-3.673422813415527344e+00 -4.717923164367675781e+00 1.774634867906570435e-01
-3.454024553298950195e+00 -4.783016681671142578e+00 1.194624304771423340e-01
-3.536249399185180664e+00 -5.289435386657714844e+00 6.774245947599411011e-02
-3.843770742416381836e+00 -6.224886417388916016e+00 8.938178420066833496e-03
-4.847343444824218750e+00 -6.158492088317871094e+00 1.091702580451965332e+00
-3.813299655914306641e+00 -5.224309921264648438e+00 8.377472162246704102e-01
-3.514182090759277344e+00 -5.200928211212158203e+00 7.540278434753417969e-01
-3.296194076538085938e+00 -5.281933784484863281e+00 6.884624361991882324e-01
-3.701893329620361328e+00 -4.699835300445556641e+00 6.129736900329589844e-01
-3.543284177780151367e+00 -4.850825786590576172e+00 5.583202242851257324e-01
-3.336985826492309570e+00 -4.934966564178466797e+00 4.971069991588592529e-01
-3.231290817260742188e+00 -5.171899795532226562e+00 4.510447382926940918e-01
-3.674715042114257812e+00 -4.661981582641601562e+00 3.911553621292114258e-01
-3.470345497131347656e+00 -4.747490882873535156e+00 3.318678140640258789e-01
-3.352218627929687500e+00 -4.953766345977783203e+00 2.810294926166534424e-01
-3.268635749816894531e+00 -5.225581645965576172e+00 2.313973009586334229e-01
-3.706015825271606445e+00 -4.700004100799560547e+00 1.776414811611175537e-01
-3.482126712799072266e+00 -4.760119438171386719e+00 1.194219291210174561e-01
-3.500215291976928711e+00 -5.166639328002929688e+00 6.644360721111297607e-02
-3.880301713943481445e+00 -6.198640823364257812e+00 8.934512734413146973e-03
-4.883187770843505859e+00 -6.126309871673583984e+00 1.091288566589355469e+00
-3.842335700988769531e+00 -5.196826457977294922e+00 8.371049761772155762e-01
-3.529201030731201172e+00 -5.154690265655517578e+00 7.504497170448303223e-01
-3.310474634170532227e+00 -5.233050346374511719e+00 6.847255825996398926e-01
-3.733142375946044922e+00 -4.680142879486083984e+00 6.133813858032226562e-01
-3.497174739837646484e+00 -4.726538181304931641e+00 5.464745163917541504e-01
-3.351995229721069336e+00 -4.892202377319335938e+00 4.948617815971374512e-01
-3.274703264236450195e+00 -5.170510768890380859e+00 4.526674449443817139e-01
-3.679596185684204102e+00 -4.609711647033691406e+00 3.886567950248718262e-01
-3.500598430633544922e+00 -4.727712631225585938e+00 3.319804966449737549e-01
-3.371818304061889648e+00 -4.917451381683349609e+00 2.801377773284912109e-01
-3.249801158905029297e+00 -5.125253200531005859e+00 2.278333008289337158e-01
-3.729795217514038086e+00 -4.670927524566650391e+00 1.774041503667831421e-01
-3.516030550003051758e+00 -4.745090007781982422e+00 1.195838898420333862e-01
-3.592969894409179688e+00 -5.234100341796875000e+00 6.759341061115264893e-02
-3.926299810409545898e+00 -6.187380790710449219e+00 8.952839300036430359e-03
-3.870583772659301758e+00 -5.168389320373535156e+00 8.363342881202697754e-01
-3.553972244262695312e+00 -5.123148918151855469e+00 7.490184307098388672e-01
-3.330181598663330078e+00 -5.193394660949707031e+00 6.821976900100708008e-01
-3.766164541244506836e+00 -4.662565708160400391e+00 6.140948534011840820e-01
-3.544024944305419922e+00 -4.728894233703613281e+00 5.492509007453918457e-01
-3.383655309677124023e+00 -4.873998641967773438e+00 4.951112866401672363e-01
-3.219627141952514648e+00 -5.015204906463623047e+00 4.407920539379119873e-01
-3.741684436798095703e+00 -4.628952026367187500e+00 3.922073841094970703e-01
-3.541522026062011719e+00 -4.722118854522705078e+00 3.331073820590972900e-01
-3.366021871566772461e+00 -4.844987869262695312e+00 2.771810591220855713e-01
-3.271462678909301758e+00 -5.090084552764892578e+00 2.271580249071121216e-01
-3.772840499877929688e+00 -4.665830135345458984e+00 1.780864745378494263e-01
-3.548080444335937500e+00 -4.727425098419189453e+00 1.196851134300231934e-01
-3.490271806716918945e+00 -5.018220901489257812e+00 6.508088111877441406e-02
-3.993943929672241211e+00 -6.209430217742919922e+00 9.020034223794937134e-03
-3.523681640625000000e+00 -5.013517379760742188e+00 7.361372709274291992e-01
-3.317028284072875977e+00 -5.103691577911376953e+00 6.730753183364868164e-01
-3.814857244491577148e+00 -4.664009571075439453e+00 6.173564195632934570e-01
-3.571167945861816406e+00 -4.704679965972900391e+00 5.489732623100280762e-01
-3.392858505249023438e+00 -4.823801040649414062e+00 4.921176433563232422e-01
-3.257410049438476562e+00 -5.006222248077392578e+00 4.417509436607360840e-01
-3.806041955947875977e+00 -4.649919509887695312e+00 3.959552049636840820e-01
-3.577072858810424805e+00 -4.709045410156250000e+00 3.337271809577941895e-01
-3.390512228012084961e+00 -4.816891670227050781e+00 2.767586708068847656e-01
-3.297724246978759766e+00 -5.062379837036132812e+00 2.268203794956207275e-01
-3.860290527343750000e+00 -4.714517116546630859e+00 1.808454245328903198e-01
-3.573390245437622070e+00 -4.700789928436279297e+00 1.195636466145515442e-01
-3.527909040451049805e+00 -5.006519317626953125e+00 6.520863622426986694e-02
-4.046714305877685547e+00 -6.207425117492675781e+00 9.053020738065242767e-03
-3.824966669082641602e+00 -4.978943347930908203e+00 8.132134079933166504e-01
-3.515793323516845703e+00 -4.937613964080810547e+00 7.281461358070373535e-01
-3.311102867126464844e+00 -5.026799201965332031e+00 6.656016111373901367e-01
-3.859266757965087891e+00 -4.659667968750000000e+00 6.199045777320861816e-01
-3.607250452041625977e+00 -4.692152023315429688e+00 5.500837564468383789e-01
-3.418922901153564453e+00 -4.798022747039794922e+00 4.916186928749084473e-01
-3.286968469619750977e+00 -4.984476089477539062e+00 4.416034221649169922e-01
-3.833865165710449219e+00 -4.625710487365722656e+00 3.958894610404968262e-01
-3.611987590789794922e+00 -4.694921016693115234e+00 3.342906236648559570e-01
-3.416524648666381836e+00 -4.791117191314697266e+00 2.764770686626434326e-01
-3.297342061996459961e+00 -4.994514942169189453e+00 2.246819734573364258e-01
-3.885317802429199219e+00 -4.686124801635742188e+00 1.806674301624298096e-01
-3.615584850311279297e+00 -4.696204185485839844e+00 1.200090274214744568e-01
-3.580639600753784180e+00 -5.015704154968261719e+00 6.561319530010223389e-02
-4.113942146301269531e+00 -6.226698398590087891e+00 9.117772802710533142e-03
-3.793938159942626953e+00 -4.876326084136962891e+00 8.002400398254394531e-01
-3.544281005859375000e+00 -4.913532733917236328e+00 7.277883291244506836e-01
-3.346298933029174805e+00 -5.013001441955566406e+00 6.664808392524719238e-01
-3.901848077774047852e+00 -4.652669429779052734e+00 6.221469044685363770e-01
-3.661664724349975586e+00 -4.702927112579345703e+00 5.539706349372863770e-01
-3.457047700881958008e+00 -4.789074420928955078e+00 4.928660392761230469e-01
-3.311395168304443359e+00 -4.955092430114746094e+00 4.407920539379119873e-01
-3.953903198242187500e+00 -4.711400032043457031e+00 4.052919447422027588e-01
-3.638272762298583984e+00 -4.669519901275634766e+00 3.340652585029602051e-01
-3.447612762451171875e+00 -4.772492408752441406e+00 2.766178548336029053e-01
-3.325702905654907227e+00 -4.970866203308105469e+00 2.245319038629531860e-01
-3.959629297256469727e+00 -4.716550827026367188e+00 1.827737390995025635e-01
-3.657242298126220703e+00 -4.690488338470458984e+00 1.204341575503349304e-01
-3.577947616577148438e+00 -4.947454452514648438e+00 6.500636041164398193e-02
-4.194354057312011719e+00 -6.264490127563476562e+00 9.210624732077121735e-03
-3.823787450790405273e+00 -4.852954864501953125e+00 8.002400398254394531e-01
-3.563233613967895508e+00 -4.876461505889892578e+00 7.255221605300903320e-01
-3.376995086669921875e+00 -4.992374420166015625e+00 6.664808392524719238e-01
-3.949639797210693359e+00 -4.651389598846435547e+00 6.252046227455139160e-01
-3.689219474792480469e+00 -4.678807735443115234e+00 5.537855625152587891e-01
-3.470485925674438477e+00 -4.746053218841552734e+00 4.906208217144012451e-01
-3.338381528854370117e+00 -4.929726600646972656e+00 4.403494894504547119e-01
-3.956245899200439453e+00 -4.655874252319335938e+00 4.025960862636566162e-01
-3.673040390014648438e+00 -4.654945850372314453e+00 3.346286714076995850e-01
-3.477421283721923828e+00 -4.752055168151855469e+00 2.766648232936859131e-01
-3.351094245910644531e+00 -4.942922592163085938e+00 2.241942733526229858e-01
-4.003385066986083984e+00 -4.709683418273925781e+00 1.834560632705688477e-01
-3.669224739074707031e+00 -4.646773815155029297e+00 1.198875606060028076e-01
-3.544416427612304688e+00 -4.838289260864257812e+00 6.385654956102371216e-02
-4.646495819091796875e+00 -6.848514556884765625e+00 1.011103857308626175e-02
-5.991451740264892578e+00 -6.973779678344726562e+00 2.709452390670776367e+00
-3.864625930786132812e+00 -4.843354225158691406e+00 8.025520443916320801e-01
-3.588953256607055664e+00 -4.848919868469238281e+00 7.246872782707214355e-01
-3.392953872680664062e+00 -4.950243949890136719e+00 6.636232137680053711e-01
-4.001452922821044922e+00 -4.654222965240478516e+00 6.288738846778869629e-01
-3.702326059341430664e+00 -4.636630535125732422e+00 5.514719486236572266e-01
-3.504880428314208984e+00 -4.731876373291015625e+00 4.913692474365234375e-01
-3.360103368759155273e+00 -4.896815299987792969e+00 4.392430782318115234e-01
-4.027040481567382812e+00 -4.680678367614746094e+00 4.068699479103088379e-01
-3.726463794708251953e+00 -4.663520336151123047e+00 3.368824422359466553e-01
-3.507108688354492188e+00 -4.731431007385253906e+00 2.767117321491241455e-01
-3.363254070281982422e+00 -4.895910263061523438e+00 2.229937613010406494e-01
-3.980696439743041992e+00 -4.625179290771484375e+00 1.811124384403228760e-01
-3.729511499404907227e+00 -4.663995265960693359e+00 1.209200173616409302e-01
-3.587146282196044922e+00 -4.834116458892822266e+00 6.409077346324920654e-02
-4.667469501495361328e+00 -6.789385318756103516e+00 1.006583496928215027e-02
-3.896764755249023438e+00 -4.822636127471923828e+00 8.030658960342407227e-01
-3.600771427154541016e+00 -4.802975177764892578e+00 7.211092114448547363e-01
-3.412492036819458008e+00 -4.913820266723632812e+00 6.615349650382995605e-01
-4.044958114624023438e+00 -4.646841049194335938e+00 6.312181949615478516e-01
-3.760757207870483398e+00 -4.650990962982177734e+00 5.559141039848327637e-01
-3.535642623901367188e+00 -4.712673187255859375e+00 4.916186928749084473e-01
-3.384393453598022461e+00 -4.867917537689208984e+00 4.385054707527160645e-01
-4.176935672760009766e+00 -4.795075893402099609e+00 4.190339744091033936e-01
-3.724862813949584961e+00 -4.603312492370605469e+00 3.341779410839080811e-01
-3.548069000244140625e+00 -4.725799083709716797e+00 2.776503860950469971e-01
-3.384668588638305664e+00 -4.862878799438476562e+00 2.224310338497161865e-01
-4.029357910156250000e+00 -4.624028205871582031e+00 1.820320785045623779e-01
-3.790776252746582031e+00 -4.681427478790283203e+00 1.219727322459220886e-01
-3.631759643554687500e+00 -4.831998348236083984e+00 6.435693055391311646e-02
-4.755336761474609375e+00 -6.827084541320800781e+00 1.016479544341564178e-02
-3.936958789825439453e+00 -4.811683177947998047e+00 8.052495718002319336e-01
-3.649988174438476562e+00 -4.806884765625000000e+00 7.250451445579528809e-01
-3.441434621810913086e+00 -4.891163349151611328e+00 6.613152027130126953e-01
-4.081944942474365234e+00 -4.631636142730712891e+00 6.325432062149047852e-01
-3.801209688186645508e+00 -4.642465591430664062e+00 5.576724410057067871e-01
-3.563889741897583008e+00 -4.690096855163574219e+00 4.915355443954467773e-01
-3.396970033645629883e+00 -4.822600364685058594e+00 4.362926781177520752e-01
-4.162717819213867188e+00 -4.719964027404785156e+00 4.146943688392639160e-01
-3.845424413681030273e+00 -4.693122863769531250e+00 3.424041867256164551e-01
-3.583649873733520508e+00 -4.712685585021972656e+00 2.781666219234466553e-01
-3.404652595520019531e+00 -4.828135490417480469e+00 2.217932641506195068e-01
-4.134363651275634766e+00 -4.686165332794189453e+00 1.854733675718307495e-01
-3.835277795791625977e+00 -4.677407741546630859e+00 1.224788427352905273e-01
-3.689201116561889648e+00 -4.846222400665283203e+00 6.484665721654891968e-02
-4.877281665802001953e+00 -6.911346435546875000e+00 1.033461652696132660e-02
-6.065816402435302734e+00 -6.802892208099365234e+00 2.685990571975708008e+00
-3.980960607528686523e+00 -4.805000305175781250e+00 8.082038760185241699e-01
-3.686676740646362305e+00 -4.793842792510986328e+00 7.264763116836547852e-01
-3.479458332061767578e+00 -4.881286144256591797e+00 6.628538966178894043e-01
-4.152012825012207031e+00 -4.653265476226806641e+00 6.389644742012023926e-01
-3.828988075256347656e+00 -4.618287563323974609e+00 5.575798749923706055e-01
-3.599286079406738281e+00 -4.676827907562255859e+00 4.924502670764923096e-01
-3.421283245086669922e+00 -4.794359683990478516e+00 4.356288015842437744e-01
-4.184955120086669922e+00 -4.686890125274658203e+00 4.140368700027465820e-01
-3.924511909484863281e+00 -4.730141162872314453e+00 3.468554019927978516e-01
-3.623470067977905273e+00 -4.704853057861328125e+00 2.790113985538482666e-01
-3.429566383361816406e+00 -4.800649166107177734e+00 2.214931398630142212e-01
-4.175025463104248047e+00 -4.674127578735351562e+00 1.860073655843734741e-01
-3.884342908859252930e+00 -4.678401947021484375e+00 1.231266632676124573e-01
-4.882375717163085938e+00 -6.829226493835449219e+00 1.025642547756433487e-02
-6.058594703674316406e+00 -6.711431980133056641e+00 2.664506912231445312e+00
-4.353043556213378906e+00 -4.822100639343261719e+00 9.049004316329956055e-01
-4.025665760040283203e+00 -4.798717498779296875e+00 8.112866878509521484e-01
-3.727003574371337891e+00 -4.785231113433837891e+00 7.286232113838195801e-01
-3.495960712432861328e+00 -4.841311454772949219e+00 6.603260040283203125e-01
-4.189155578613281250e+00 -4.637297630310058594e+00 6.402894258499145508e-01
-3.923194885253906250e+00 -4.673254966735839844e+00 5.671119689941406250e-01
-3.642004966735839844e+00 -4.672732830047607422e+00 4.943628609180450439e-01
-3.454141855239868164e+00 -4.778126239776611328e+00 4.360713660717010498e-01
-4.184860706329345703e+00 -4.629294395446777344e+00 4.112095534801483154e-01
-3.950892925262451172e+00 -4.702914237976074219e+00 3.466300368309020996e-01
-3.649813175201416016e+00 -4.679381370544433594e+00 2.788237035274505615e-01
-3.466574430465698242e+00 -4.790039539337158203e+00 2.219808399677276611e-01
-4.204297065734863281e+00 -4.649163246154785156e+00 1.860370337963104248e-01
-3.949004888534545898e+00 -4.697336673736572266e+00 1.242603585124015808e-01
-4.979323863983154297e+00 -6.875270843505859375e+00 1.037126779556274414e-02
-6.052422046661376953e+00 -6.622442722320556641e+00 2.643871545791625977e+00
-4.397249221801757812e+00 -4.811384201049804688e+00 9.079355597496032715e-01
-4.072369098663330078e+00 -4.794333934783935547e+00 8.147547841072082520e-01
-3.763673543930053711e+00 -4.771627426147460938e+00 7.300544381141662598e-01
-3.512103796005249023e+00 -4.801318168640136719e+00 6.577981114387512207e-01
-4.255127429962158203e+00 -4.652615070343017578e+00 6.459972262382507324e-01
-3.960823774337768555e+00 -4.659716129302978516e+00 5.684075355529785156e-01
-3.684808731079101562e+00 -4.668289184570312500e+00 4.962754547595977783e-01
-3.492233037948608398e+00 -4.768911361694335938e+00 4.371777772903442383e-01
-4.241481781005859375e+00 -4.634445190429687500e+00 4.139711260795593262e-01
-4.006844520568847656e+00 -4.710524082183837891e+00 3.489964902400970459e-01
-3.678456544876098633e+00 -4.656898021697998047e+00 2.788237035274505615e-01
-3.491764545440673828e+00 -4.763037681579589844e+00 2.217182368040084839e-01
-4.234769821166992188e+00 -4.625490188598632812e+00 1.861260235309600830e-01
-3.950534343719482422e+00 -4.641041755676269531e+00 1.234100908041000366e-01
-3.719478368759155273e+00 -4.703766345977783203e+00 6.384591013193130493e-02
-5.036203861236572266e+00 -6.864746093750000000e+00 1.040181051939725876e-02
-6.046690464019775391e+00 -6.535192012786865234e+00 2.623801708221435547e+00
-5.997166633605957031e+00 -6.992922782897949219e+00 2.610299348831176758e+00
-4.432069301605224609e+00 -4.790128707885742188e+00 9.090392589569091797e-01
-4.124989032745361328e+00 -4.796324253082275391e+00 8.193789124488830566e-01
-3.807752609252929688e+00 -4.767062187194824219e+00 7.329169511795043945e-01
-3.535580873489379883e+00 -4.771691799163818359e+00 6.566990613937377930e-01
-4.311305046081542969e+00 -4.656346321105957031e+00 6.501761078834533691e-01
-4.021816730499267578e+00 -4.673059940338134766e+00 5.730347633361816406e-01
-3.730183124542236328e+00 -4.666608810424804688e+00 4.985206723213195801e-01
-3.516081571578979492e+00 -4.740184783935546875e+00 4.365139305591583252e-01
-4.296287059783935547e+00 -4.636878967285156250e+00 4.165354371070861816e-01
-3.996579408645629883e+00 -4.640459060668945312e+00 3.456158339977264404e-01
-3.704465627670288086e+00 -4.631119728088378906e+00 2.786359488964080811e-01
-3.522711277008056641e+00 -4.743929386138916016e+00 2.218307703733444214e-01
-4.303840160369873047e+00 -4.643404960632324219e+00 1.879059970378875732e-01
-3.992643833160400391e+00 -4.632617950439453125e+00 1.238352209329605103e-01
-3.753270387649536133e+00 -4.687099456787109375e+00 6.393107771873474121e-02
-4.969079017639160156e+00 -6.686831474304199219e+00 1.017823442816734314e-02
-6.241432666778564453e+00 -6.663181781768798828e+00 2.690513134002685547e+00
-6.051947116851806641e+00 -6.969796180725097656e+00 2.615479230880737305e+00
-6.456470966339111328e+00 -6.895161628723144531e+00 2.399010181427001953e+00
-5.007709980010986328e+00 -5.347963809967041016e+00 1.294499993324279785e+00
-4.499295234680175781e+00 -4.803323268890380859e+00 9.167652130126953125e-01
-4.158248901367187500e+00 -4.775411128997802734e+00 8.201496601104736328e-01
-3.845048189163208008e+00 -4.753643989562988281e+00 7.344675064086914062e-01
-3.570162296295166016e+00 -4.757062911987304688e+00 6.576882004737854004e-01
-4.358163356781005859e+00 -4.649401187896728516e+00 6.529280543327331543e-01
-4.073963165283203125e+00 -4.675319671630859375e+00 5.763663649559020996e-01
-3.758119821548461914e+00 -4.642858505249023438e+00 4.984375238418579102e-01
-3.542704820632934570e+00 -4.715332508087158203e+00 4.362189173698425293e-01
-4.385414600372314453e+00 -4.675201416015625000e+00 4.223873019218444824e-01
-4.068284988403320312e+00 -4.665514469146728516e+00 3.493345379829406738e-01
-3.759847640991210938e+00 -4.641679286956787109e+00 2.806540429592132568e-01
-3.557760000228881836e+00 -4.730211734771728516e+00 2.222059369087219238e-01
-4.446473598480224609e+00 -4.738637447357177734e+00 1.928602606058120728e-01
-4.168897151947021484e+00 -4.777528762817382812e+00 1.283902227878570557e-01
-3.792665958404541016e+00 -4.677185535430908203e+00 6.411206722259521484e-02
-5.014826297760009766e+00 -6.662608146667480469e+00 1.018800865858793259e-02
-6.282199859619140625e+00 -6.624759674072265625e+00 2.690513134002685547e+00
-6.044414043426513672e+00 -6.875445842742919922e+00 2.593942403793334961e+00
-6.506659030914306641e+00 -6.863856792449951172e+00 2.401963949203491211e+00
-5.031623363494873047e+00 -5.307845592498779297e+00 1.292238116264343262e+00
-4.555262088775634766e+00 -4.803654193878173828e+00 9.221457839012145996e-01
-4.205179214477539062e+00 -4.769891738891601562e+00 8.236177563667297363e-01
-3.897421121597290039e+00 -4.758381366729736328e+00 7.388804554939270020e-01
-3.616125345230102539e+00 -4.757223129272460938e+00 6.607656478881835938e-01
-4.429749965667724609e+00 -4.668033599853515625e+00 6.593493223190307617e-01
-4.256057739257812500e+00 -4.824207305908203125e+00 5.979292392730712891e-01
-3.788432121276855469e+00 -4.622024059295654297e+00 4.986869692802429199e-01
-3.577005863189697266e+00 -4.700648307800292969e+00 4.368827641010284424e-01
-4.414705276489257812e+00 -4.648928642272949219e+00 4.224530458450317383e-01
-4.092870712280273438e+00 -4.635973453521728516e+00 3.489964902400970459e-01
-3.857307672500610352e+00 -4.702705383300781250e+00 2.857696413993835449e-01
-3.588533639907836914e+00 -4.710677146911621094e+00 2.223184704780578613e-01
-4.469958305358886719e+00 -4.705467700958251953e+00 1.926229447126388550e-01
-4.212034225463867188e+00 -4.767593383789062500e+00 1.288153529167175293e-01
-3.834618806838989258e+00 -4.670054912567138672e+00 6.433563679456710815e-02
-5.140489101409912109e+00 -6.743048667907714844e+00 1.035905070602893829e-02
-6.041709899902343750e+00 -6.787921428680419922e+00 2.574859380722045898e+00
-6.565429687500000000e+00 -6.841285705566406250e+00 2.408117771148681641e+00
-5.047050476074218750e+00 -5.259109973907470703e+00 1.287888288497924805e+00
-4.900747776031494141e+00 -5.919515132904052734e+00 1.206174731254577637e+00
-4.597683429718017578e+00 -4.789188385009765625e+00 9.247671365737915039e-01
-4.260122299194335938e+00 -4.772854328155517578e+00 8.286272883415222168e-01
-3.939221143722534180e+00 -4.749661922454833984e+00 7.412658333778381348e-01
-3.657373666763305664e+00 -4.750697135925292969e+00 6.629638075828552246e-01
-4.491389751434326172e+00 -4.675199508666992188e+00 6.642416715621948242e-01
-4.264352798461914062e+00 -4.774238586425781250e+00 5.949677824974060059e-01
-3.886092901229858398e+00 -4.682276248931884766e+00 5.077509880065917969e-01
-3.621000766754150391e+00 -4.698359489440917969e+00 4.387267827987670898e-01
-4.468043327331542969e+00 -4.647649288177490234e+00 4.248200953006744385e-01
-4.183117866516113281e+00 -4.680001258850097656e+00 3.542364835739135742e-01
-3.885452032089233398e+00 -4.678180217742919922e+00 2.857227027416229248e-01
-3.631410121917724609e+00 -4.706767082214355469e+00 2.231813520193099976e-01
-4.515374660491943359e+00 -4.695242881774902344e+00 1.933349221944808960e-01
-4.160556316375732422e+00 -4.651490688323974609e+00 1.263657659292221069e-01
-3.884297847747802734e+00 -4.671811580657958984e+00 6.468696892261505127e-02
-5.035096168518066406e+00 -6.521413326263427734e+00 1.006583496928215027e-02
-6.103856086730957031e+00 -6.773593902587890625e+00 2.583582878112792969e+00
-5.062069892883300781e+00 -5.210384845733642578e+00 1.283538579940795898e+00
-4.625602245330810547e+00 -4.759466648101806641e+00 9.244911670684814453e-01
-4.319248676300048828e+00 -4.779735565185546875e+00 8.344075083732604980e-01
-3.984891414642333984e+00 -4.745170593261718750e+00 7.443668842315673828e-01
-3.688287973403930664e+00 -4.730518341064453125e+00 6.632935404777526855e-01
-4.547040939331054688e+00 -4.675365447998046875e+00 6.682167649269104004e-01
-4.280878067016601562e+00 -4.733951091766357422e+00 5.932094454765319824e-01
-3.913467168807983398e+00 -4.656817436218261719e+00 5.075846314430236816e-01
-3.664487600326538086e+00 -4.694920539855957031e+00 4.404970109462738037e-01
-4.535449028015136719e+00 -4.660191059112548828e+00 4.285021722316741943e-01
-4.223814010620117188e+00 -4.667571544647216797e+00 3.552506864070892334e-01
-3.908940553665161133e+00 -4.648135662078857422e+00 2.853472530841827393e-01
-3.664528846740722656e+00 -4.689908504486083984e+00 2.234439551830291748e-01
-4.572687149047851562e+00 -4.696812629699707031e+00 1.945512294769287109e-01
-4.213179111480712891e+00 -4.652554035186767578e+00 1.270945817232131958e-01
-3.941226243972778320e+00 -4.681548595428466797e+00 6.515540182590484619e-02
-5.066392421722412109e+00 -6.479367256164550781e+00 1.004873123019933701e-02
-6.193936347961425781e+00 -6.789321422576904297e+00 2.604029178619384766e+00
-5.043537139892578125e+00 -5.127974987030029297e+00 1.270837068557739258e+00
-4.360544681549072266e+00 -4.766314029693603516e+00 8.367196321487426758e-01
-4.021007061004638672e+00 -4.728950500488281250e+00 7.456789016723632812e-01
-3.722787857055664062e+00 -4.714818954467773438e+00 6.642826795578002930e-01
-4.593789100646972656e+00 -4.665808200836181641e+00 6.708667874336242676e-01
-4.267485141754150391e+00 -4.661326408386230469e+00 5.873791575431823730e-01
-3.963924646377563477e+00 -4.658522129058837891e+00 5.104119777679443359e-01
-3.698791980743408203e+00 -4.679388999938964844e+00 4.411608576774597168e-01
-4.587068557739257812e+00 -4.655730247497558594e+00 4.306719601154327393e-01
-4.244280815124511719e+00 -4.632732391357421875e+00 3.545745611190795898e-01
-3.947748661041259766e+00 -4.636231899261474609e+00 2.860981523990631104e-01
-3.698817253112792969e+00 -4.674387454986572266e+00 2.237815856933593750e-01
-4.624574661254882812e+00 -4.692159652709960938e+00 1.955302208662033081e-01
-4.265970230102539062e+00 -4.653144836425781250e+00 1.278233677148818970e-01
-3.984148025512695312e+00 -4.674018859863281250e+00 6.538961827754974365e-02
-5.001139163970947266e+00 -6.315667629241943359e+00 9.842258878052234650e-03
-6.654085636138916016e+00 -6.680632114410400391e+00 2.778708219528198242e+00
-6.223728179931640625e+00 -6.738466739654541016e+00 2.599122047424316406e+00
-5.066568851470947266e+00 -5.088557720184326172e+00 1.268749237060546875e+00
-4.401838302612304688e+00 -4.752564907073974609e+00 8.390317559242248535e-01
-4.065494537353515625e+00 -4.722247600555419922e+00 7.485414147377014160e-01
-3.764061927795410156e+00 -4.707413196563720703e+00 6.664808392524719238e-01
-4.659551620483398438e+00 -4.674876213073730469e+00 6.762688159942626953e-01
-4.309543609619140625e+00 -4.649659633636474609e+00 5.892300605773925781e-01
-3.963814496994018555e+00 -4.600893020629882812e+00 5.067530870437622070e-01
-3.724941730499267578e+00 -4.653491020202636719e+00 4.408658146858215332e-01
-4.652191638946533203e+00 -4.664234638214111328e+00 4.340910613536834717e-01
-4.273305416107177734e+00 -4.607335090637207031e+00 3.546309173107147217e-01
-4.043303966522216797e+00 -4.689846515655517578e+00 2.909321784973144531e-01
-3.704933404922485352e+00 -4.623530864715576172e+00 2.224310338497161865e-01
-4.682930469512939453e+00 -4.693414211273193359e+00 1.967762112617492676e-01
-4.351572990417480469e+00 -4.688436985015869141e+00 1.295239031314849854e-01
-4.014059066772460938e+00 -4.650998592376708984e+00 6.541091203689575195e-02
-3.807999610900878906e+00 -4.748753070831298828e+00 7.436672225594520569e-03
-5.087210178375244141e+00 -5.046971321105957031e+00 1.266139388084411621e+00
-4.966671466827392578e+00 -5.300542831420898438e+00 1.210339784622192383e+00
-4.684295177459716797e+00 -4.645620822906494141e+00 9.189726114273071289e-01
-4.473651885986328125e+00 -4.771042346954345703e+00 8.471240401268005371e-01
-4.123097896575927734e+00 -4.730144500732421875e+00 7.537892460823059082e-01
-3.807261228561401367e+00 -4.701995372772216797e+00 6.690087318420410156e-01
-4.704400062561035156e+00 -4.662303447723388672e+00 6.786130666732788086e-01
-4.365926742553710938e+00 -4.652899742126464844e+00 5.930243730545043945e-01
-4.018827915191650391e+00 -4.607275009155273438e+00 5.101625323295593262e-01
-3.764100551605224609e+00 -4.643718242645263672e+00 4.421197474002838135e-01
-4.724680900573730469e+00 -4.679134845733642578e+00 4.381676614284515381e-01
-4.391024112701416016e+00 -4.676374912261962891e+00 3.620119988918304443e-01
-4.090396404266357422e+00 -4.686019420623779297e+00 2.922462522983551025e-01
-3.729455232620239258e+00 -4.596055030822753906e+00 2.222059369087219238e-01
-4.747867584228515625e+00 -4.700457096099853516e+00 1.982891857624053955e-01
-4.450091361999511719e+00 -4.735966205596923828e+00 1.315888464450836182e-01
-4.100422382354736328e+00 -4.692543506622314453e+00 6.634779274463653564e-02
-3.828870773315429688e+00 -4.715206623077392578e+00 7.420789450407028198e-03
-6.063476085662841797e+00 -6.902137756347656250e+00 2.506449937820434570e+00
-5.092059135437011719e+00 -4.990159034729003906e+00 1.259701609611511230e+00
-5.228554725646972656e+00 -5.511854171752929688e+00 1.265893101692199707e+00
-4.736059665679931641e+00 -4.639663696289062500e+00 9.235253930091857910e-01
-4.533566951751708984e+00 -4.775869369506835938e+00 8.529042601585388184e-01
-4.154015064239501953e+00 -4.706990242004394531e+00 7.541471123695373535e-01
-3.853686094284057617e+00 -4.700067043304443359e+00 6.720861792564392090e-01
-4.772016048431396484e+00 -4.671625137329101562e+00 6.842188835144042969e-01
-4.438282966613769531e+00 -4.672225475311279297e+00 5.989471673965454102e-01
-4.085942268371582031e+00 -4.626599311828613281e+00 5.150687098503112793e-01
-3.771010637283325195e+00 -4.594325542449951172e+00 4.396119117736816406e-01
-4.773273944854736328e+00 -4.669594764709472656e+00 4.400086998939514160e-01
-4.433393001556396484e+00 -4.663816452026367188e+00 3.631388843059539795e-01
-4.144870281219482422e+00 -4.690024375915527344e+00 2.940766215324401855e-01
-3.818488597869873047e+00 -4.647205352783203125e+00 2.258074432611465454e-01
-4.829502582550048828e+00 -4.722952365875244141e+00 2.004844844341278076e-01
-4.481133937835693359e+00 -4.710744857788085938e+00 1.316495686769485474e-01
-4.100647449493408203e+00 -4.635091304779052734e+00 6.588999927043914795e-02
-3.863446712493896484e+00 -4.698575973510742188e+00 7.431784644722938538e-03
-6.119817733764648438e+00 -6.880661964416503906e+00 2.512240171432495117e+00
-6.627253532409667969e+00 -6.910685062408447266e+00 2.328789949417114258e+00
-5.106308937072753906e+00 -4.943068027496337891e+00 1.255699872970581055e+00
-5.075697898864746094e+00 -6.120089054107666016e+00 1.172681689262390137e+00
-4.735969066619873047e+00 -4.582966327667236328e+00 9.180068969726562500e-01
-4.575841903686523438e+00 -4.761548519134521484e+00 8.553448319435119629e-01
-4.188772201538085938e+00 -4.688076019287109375e+00 7.552205324172973633e-01
-3.909118652343750000e+00 -4.708451747894287109e+00 6.767022609710693359e-01
-4.819899082183837891e+00 -4.660927772521972656e+00 6.869708299636840820e-01
-4.487573146820068359e+00 -4.666435718536376953e+00 6.017235517501831055e-01
-4.134844779968261719e+00 -4.624470710754394531e+00 5.176465511322021484e-01
-3.881359100341796875e+00 -4.670038700103759766e+00 4.491269588470458984e-01
-4.844172000885009766e+00 -4.681128978729248047e+00 4.438880085945129395e-01
-4.496541500091552734e+00 -4.672495841979980469e+00 3.659561276435852051e-01
-4.287467002868652344e+00 -4.791798591613769531e+00 3.021019995212554932e-01
-3.870579481124877930e+00 -4.652111053466796875e+00 2.271955311298370361e-01
-4.871331691741943359e+00 -4.705730915069580078e+00 2.010184824466705322e-01
-4.526598930358886719e+00 -4.700444221496582031e+00 1.321354508399963379e-01
-4.131011962890625000e+00 -4.612077713012695312e+00 6.592193990945816040e-02
-3.908200263977050781e+00 -4.693994522094726562e+00 7.462328299880027771e-03
-6.620122909545898438e+00 -6.818997859954833984e+00 2.311537981033325195e+00
-5.153624534606933594e+00 -4.927976608276367188e+00 1.259875535964965820e+00
-4.781183719635009766e+00 -4.570245742797851562e+00 9.213179945945739746e-01
-4.621568679809570312e+00 -4.750441551208496094e+00 8.584275245666503906e-01
-4.255424022674560547e+00 -4.704255580902099609e+00 7.620189189910888672e-01
-3.933458328247070312e+00 -4.679051399230957031e+00 6.759328842163085938e-01
-4.891568183898925781e+00 -4.672493457794189453e+00 6.930863261222839355e-01
-4.534874916076660156e+00 -4.658075809478759766e+00 6.042222380638122559e-01
-4.274827957153320312e+00 -4.722391605377197266e+00 5.315335988998413086e-01
-3.917646646499633789e+00 -4.655291557312011719e+00 4.500120878219604492e-01
-4.893735408782958984e+00 -4.671298027038574219e+00 4.457947909832000732e-01
-4.558568954467773438e+00 -4.679144382476806641e+00 3.686606287956237793e-01
