-1.003703117370605469e+01 -5.864799976348876953e+00 3.450184166431427002e-01
-9.560861587524414062e+00 -6.060122013092041016e+00 2.292075157165527344e-01
-8.928893089294433594e+00 -6.122542858123779297e+00 1.152675747871398926e-01
-5.791153430938720703e+00 -4.286548137664794922e+00 8.802566677331924438e-03
-9.421816825866699219e+00 -6.383097171783447266e+00 5.346975922584533691e-01
-9.242370605468750000e+00 -6.758666038513183594e+00 4.298557341098785400e-01
-1.012912464141845703e+01 -5.835537433624267578e+00 3.469467461109161377e-01
-9.630927085876464844e+00 -6.022016048431396484e+00 2.299970537424087524e-01
-8.987823486328125000e+00 -6.082211971282958984e+00 1.155443787574768066e-01
-5.795546531677246094e+00 -4.235003471374511719e+00 8.769580163061618805e-03
-9.491530418395996094e+00 -6.345707416534423828e+00 5.364340543746948242e-01
-9.218849182128906250e+00 -6.655036449432373047e+00 4.268544912338256836e-01
-1.021949672698974609e+01 -5.804376125335693359e+00 3.488157093524932861e-01
-9.700032234191894531e+00 -5.982752323150634766e+00 2.307663261890411377e-01
-9.064057350158691406e+00 -6.053049564361572266e+00 1.160447522997856140e-01
-5.809257507324218750e+00 -4.190587520599365234e+00 8.751253597438335419e-03
-9.556969642639160156e+00 -6.304951667785644531e+00 5.379359126091003418e-01
-9.225330352783203125e+00 -6.573988914489746094e+00 4.252788126468658447e-01
-1.030812168121337891e+01 -5.771348476409912109e+00 3.506253361701965332e-01
-9.784392356872558594e+00 -5.952220439910888672e+00 2.319000363349914551e-01
-9.060949325561523438e+00 -5.970909118652343750e+00 1.155337318778038025e-01
-5.372992038726806641e+00 -3.825978040695190430e+00 8.058532141149044037e-03
-9.586267471313476562e+00 -6.240197658538818359e+00 5.374196171760559082e-01
-9.203374862670898438e+00 -6.473566055297851562e+00 4.224276244640350342e-01
-1.040810108184814453e+01 -5.743728637695312500e+00 3.528206646442413330e-01
-9.865311622619628906e+00 -5.918819904327392578e+00 2.329527437686920166e-01
-9.055500030517578125e+00 -5.887945652008056641e+00 1.150014102458953857e-01
-6.022234439849853516e+00 -4.232840538024902344e+00 8.993156254291534424e-03
-9.668921470642089844e+00 -6.209869861602783203e+00 5.399070382118225098e-01
-9.215833663940429688e+00 -6.398166656494140625e+00 4.211896061897277832e-01
-1.046861267089843750e+01 -5.693607330322265625e+00 3.536809980869293213e-01
-9.996955871582031250e+00 -5.914685726165771484e+00 2.351998835802078247e-01
-9.017393112182617188e+00 -5.784758090972900391e+00 1.140645444393157959e-01
-6.043163299560546875e+00 -4.192389488220214844e+00 8.985825814306735992e-03
-9.722030639648437500e+00 -6.160048484802246094e+00 5.407518148422241211e-01
-9.189796447753906250e+00 -6.296876430511474609e+00 4.182258546352386475e-01
-1.057030677795410156e+01 -5.665151119232177734e+00 3.559356033802032471e-01
-1.005378437042236328e+01 -5.865324974060058594e+00 2.356857359409332275e-01
-9.168475151062011719e+00 -5.802580356597900391e+00 1.155230924487113953e-01
-5.992037296295166016e+00 -4.102689743041992188e+00 8.872205391526222229e-03
-9.838419914245605469e+00 -6.149518013000488281e+00 5.451164841651916504e-01
-9.188525199890136719e+00 -6.213500976562500000e+00 4.164251089096069336e-01
-1.066674137115478516e+01 -5.632859706878662109e+00 3.580122590065002441e-01
-1.012078380584716797e+01 -5.821471691131591797e+00 2.364145368337631226e-01
-9.013059616088867188e+00 -5.627064228057861328e+00 1.131276637315750122e-01
-5.858011722564697266e+00 -3.958348751068115234e+00 8.637632243335247040e-03
-1.003922080993652344e+01 -6.189688682556152344e+00 5.541274547576904297e-01
-9.209854125976562500e+00 -6.145911216735839844e+00 4.156748056411743164e-01
-1.077204132080078125e+01 -5.604209899902343750e+00 3.603855669498443604e-01
-1.025371932983398438e+01 -5.814497947692871094e+00 2.386819273233413696e-01
-9.321580886840820312e+00 -5.740493297576904297e+00 1.165557801723480225e-01
-5.774862766265869141e+00 -3.850763082504272461e+00 8.480030111968517303e-03
-1.008213233947753906e+01 -6.131086826324462891e+00 5.544090867042541504e-01
-9.277436256408691406e+00 -6.109068870544433594e+00 4.170253276824951172e-01
-1.084892368316650391e+01 -5.559890747070312500e+00 3.618095517158508301e-01
-1.032585716247558594e+01 -5.771961212158203125e+00 2.395321875810623169e-01
-9.403633117675781250e+00 -5.711740016937255859e+00 1.171413213014602661e-01
-5.876072406768798828e+00 -3.866375923156738281e+00 8.593650534749031067e-03
-1.013840866088867188e+01 -6.080411911010742188e+00 5.554415583610534668e-01
-9.344912528991699219e+00 -6.071629047393798828e+00 4.183759093284606934e-01
-1.098099040985107422e+01 -5.542763233184814453e+00 3.650728166103363037e-01
-1.041274452209472656e+01 -5.736959934234619141e+00 2.407266050577163696e-01
-9.443650245666503906e+00 -5.657016277313232422e+00 1.172052025794982910e-01
-5.888781547546386719e+00 -3.823169231414794922e+00 8.577767759561538696e-03
-1.161559200286865234e+01 -6.312330722808837891e+00 7.460545897483825684e-01
-1.019444084167480469e+01 -6.029275894165039062e+00 5.564740300178527832e-01
-9.408913612365722656e+00 -6.031433105468750000e+00 4.195764362812042236e-01
-1.101568794250488281e+01 -5.475725650787353516e+00 3.651024699211120605e-01
-1.050485992431640625e+01 -5.703970432281494141e+00 2.420424818992614746e-01
-9.565999031066894531e+00 -5.650839328765869141e+00 1.182911247014999390e-01
-5.870026111602783203e+00 -3.759995460510253906e+00 8.516681380569934845e-03
-1.134517097473144531e+01 -6.075501918792724609e+00 7.262777686119079590e-01
-1.034083080291748047e+01 -6.030518531799316406e+00 5.624344348907470703e-01
-9.541181564331054688e+00 -6.033942699432373047e+00 4.238157272338867188e-01
-1.117387199401855469e+01 -5.469112396240234375e+00 3.692260980606079102e-01
-1.057051467895507812e+01 -5.655915260314941406e+00 2.427510321140289307e-01
-9.603084564208984375e+00 -5.593546867370605469e+00 1.183230653405189514e-01
-6.093336105346679688e+00 -3.850512266159057617e+00 8.806231431663036346e-03
-1.141225910186767578e+01 -6.021616458892822266e+00 7.281935214996337891e-01
-1.042786407470703125e+01 -5.995833873748779297e+00 5.651565194129943848e-01
-9.627200126647949219e+00 -6.005963325500488281e+00 4.259916245937347412e-01
-1.128826141357421875e+01 -5.439499378204345703e+00 3.718960285186767578e-01
-1.065631675720214844e+01 -5.617992401123046875e+00 2.439252287149429321e-01
-9.766427040100097656e+00 -5.608716964721679688e+00 1.199093610048294067e-01
-6.095632553100585938e+00 -3.799826860427856445e+00 8.775688707828521729e-03
-1.050269317626953125e+01 -5.953410625457763672e+00 5.672215223312377930e-01
-9.699615478515625000e+00 -5.968774795532226562e+00 4.275672733783721924e-01
-1.136025905609130859e+01 -5.388553619384765625e+00 3.731716871261596680e-01
-1.077398967742919922e+01 -5.595818519592285156e+00 2.458281964063644409e-01
-9.806748390197753906e+00 -5.552134513854980469e+00 1.199838891625404358e-01
-6.096684932708740234e+00 -3.748734951019287109e+00 8.743923157453536987e-03
-1.055995368957519531e+01 -5.900548934936523438e+00 5.683478713035583496e-01
-9.790729522705078125e+00 -5.942329406738281250e+00 4.299682974815368652e-01
-1.149636173248291016e+01 -5.366949558258056641e+00 3.765536546707153320e-01
-1.088021755218505859e+01 -5.566490650177001953e+00 2.474680095911026001e-01
-9.495729446411132812e+00 -5.299374103546142578e+00 1.157786026597023010e-01
-5.833131313323974609e+00 -3.537541866302490234e+00 8.334644138813018799e-03
-1.068433189392089844e+01 -5.884314060211181641e+00 5.730880498886108398e-01
-9.865591049194335938e+00 -5.905238151550292969e+00 4.316565096378326416e-01
-1.157630825042724609e+01 -5.318006038665771484e+00 3.780963122844696045e-01
-1.099720287322998047e+01 -5.541467189788818359e+00 2.493507266044616699e-01
-8.927907943725585938e+00 -4.910885810852050781e+00 1.084858775138854980e-01
-5.987750053405761719e+00 -3.581243991851806641e+00 8.524011820554733276e-03
-1.081329536437988281e+01 -5.869154930114746094e+00 5.780628323554992676e-01
-9.960157394409179688e+00 -5.879134178161621094e+00 4.342075586318969727e-01
-1.167521190643310547e+01 -5.276927471160888672e+00 3.802619278430938721e-01
-1.105965709686279297e+01 -5.488106727600097656e+00 2.499985694885253906e-01
-9.642679214477539062e+00 -5.227242946624755859e+00 1.167793571949005127e-01
-6.072489738464355469e+00 -3.581521749496459961e+00 8.613198064267635345e-03
-1.087905311584472656e+01 -5.818713665008544922e+00 5.796585083007812500e-01
-1.004009056091308594e+01 -5.843545436859130859e+00 4.361208975315093994e-01
-1.181788730621337891e+01 -5.254326820373535156e+00 3.838515579700469971e-01
-1.117486858367919922e+01 -5.460083484649658203e+00 2.518408000469207764e-01
-9.992088317871093750e+00 -5.337589740753173828e+00 1.206120178103446960e-01
-6.088300228118896484e+00 -3.540675163269042969e+00 8.604645729064941406e-03
-1.093399143218994141e+01 -5.762096405029296875e+00 5.806910395622253418e-01
-1.013642787933349609e+01 -5.816646099090576172e+00 4.387469887733459473e-01
-1.191950702667236328e+01 -5.212150573730468750e+00 3.861061632633209229e-01
-1.133249568939208984e+01 -5.451221466064453125e+00 2.546345293521881104e-01
-1.004765796661376953e+01 -5.288288116455078125e+00 1.208888217806816101e-01
-6.024026393890380859e+00 -3.454007863998413086e+00 8.483694866299629211e-03
-1.107109355926513672e+01 -5.747829437255859375e+00 5.860882401466369629e-01
-1.022324371337890625e+01 -5.783370494842529297e+00 4.409604370594024658e-01
-1.205961894989013672e+01 -5.185507297515869141e+00 3.896068036556243896e-01
-1.138922405242919922e+01 -5.392708301544189453e+00 2.551608979701995850e-01
-1.008080577850341797e+01 -5.226997852325439453e+00 1.208994761109352112e-01
-5.993743896484375000e+00 -3.387947559356689453e+00 8.411612361669540405e-03
-1.117819023132324219e+01 -5.716630458831787109e+00 5.898897051811218262e-01
-1.030304813385009766e+01 -5.745353698730468750e+00 4.428737163543701172e-01
-1.221458053588867188e+01 -5.163566589355468750e+00 3.935820758342742920e-01
-1.150365924835205078e+01 -5.360730648040771484e+00 2.569828927516937256e-01
-1.011803054809570312e+01 -5.167773246765136719e+00 1.209633499383926392e-01
-6.307059764862060547e+00 -3.514160156250000000e+00 8.820892311632633209e-03
-1.124874114990234375e+01 -5.665908813476562500e+00 5.917670130729675293e-01
-1.039765739440917969e+01 -5.714757442474365234e+00 4.454247951507568359e-01
-1.237895202636718750e+01 -5.143753051757812500e+00 3.978540003299713135e-01
-1.159995174407958984e+01 -5.319216728210449219e+00 2.583999931812286377e-01
-1.017992115020751953e+01 -5.120871543884277344e+00 1.213253289461135864e-01
-6.294319152832031250e+00 -3.456621646881103516e+00 8.773244917392730713e-03
-1.133430194854736328e+01 -5.622082233428955078e+00 5.944421291351318359e-01
-1.046855258941650391e+01 -5.670364856719970703e+00 4.469629526138305664e-01
-1.249819183349609375e+01 -5.103598594665527344e+00 4.006723165512084961e-01
-1.174173259735107422e+01 -5.297278881072998047e+00 2.608293294906616211e-01
-1.039035606384277344e+01 -5.147085666656494141e+00 1.234545856714248657e-01
-6.072679042816162109e+00 -3.286567687988281250e+00 8.436047472059726715e-03
-1.142154121398925781e+01 -5.578294277191162109e+00 5.972111225128173828e-01
-1.059307003021240234e+01 -5.654019355773925781e+00 4.507895708084106445e-01
-1.254596900939941406e+01 -5.033514499664306641e+00 4.012062847614288330e-01
-1.182153511047363281e+01 -5.246221542358398438e+00 2.618820369243621826e-01
-1.041814804077148438e+01 -5.081481456756591797e+00 1.234120056033134460e-01
-6.267438888549804688e+00 -3.342416286468505859e+00 8.677949197590351105e-03
-1.157438564300537109e+01 -5.565245151519775391e+00 6.034061908721923828e-01
-1.067266941070556641e+01 -5.612636089324951172e+00 4.527028501033782959e-01
-1.267147350311279297e+01 -4.993821144104003906e+00 4.042322635650634766e-01
-1.190848159790039062e+01 -5.197583675384521484e+00 2.630966901779174805e-01
-1.045814418792724609e+01 -5.021789073944091797e+00 1.235184594988822937e-01
-6.133798599243164062e+00 -3.222962617874145508e+00 8.465369231998920441e-03
-1.173652458190917969e+01 -5.554801464080810547e+00 6.100705265998840332e-01
-1.074860954284667969e+01 -5.568649768829345703e+00 4.544660747051239014e-01
-1.280441665649414062e+01 -4.955662250518798828e+00 4.074955582618713379e-01
-1.189880466461181641e+01 -5.106672763824462891e+00 2.621856927871704102e-01
-1.049147319793701172e+01 -4.958806514739990234e+00 1.235504001379013062e-01
-6.395014762878417969e+00 -3.310304164886474609e+00 8.797679096460342407e-03
-1.194333457946777344e+01 -5.563242435455322266e+00 6.190345883369445801e-01
-1.092766094207763672e+01 -5.576632976531982422e+00 4.605811536312103271e-01
-1.290839767456054688e+01 -4.905051708221435547e+00 4.098391830921173096e-01
-1.193175792694091797e+01 -5.034344673156738281e+00 2.622261941432952881e-01
-1.027418613433837891e+01 -4.779202938079833984e+00 1.206439658999443054e-01
-6.296719551086425781e+00 -3.210588693618774414e+00 8.635189384222030640e-03
-1.205806159973144531e+01 -5.526897430419921875e+00 6.232115030288696289e-01
-1.098310184478759766e+01 -5.520247459411621094e+00 4.614815413951873779e-01
-1.305531883239746094e+01 -4.869419097900390625e+00 4.135474562644958496e-01
-1.198181724548339844e+01 -4.969080924987792969e+00 2.626513242721557617e-01
-9.501382827758789062e+00 -4.349007129669189453e+00 1.112539172172546387e-01
-6.360983371734619141e+00 -3.194330692291259766e+00 8.696275763213634491e-03
-1.215457820892333984e+01 -5.481140613555908203e+00 6.264498233795166016e-01
-1.109378814697265625e+01 -5.490874290466308594e+00 4.647079110145568848e-01
-1.316473770141601562e+01 -4.818424224853515625e+00 4.160690903663635254e-01
-1.232316970825195312e+01 -5.022250652313232422e+00 2.694534659385681152e-01
-9.678329467773437500e+00 -4.358372688293457031e+00 1.130105629563331604e-01
-6.479962348937988281e+00 -3.204443931579589844e+00 8.831888437271118164e-03
-1.232403278350830078e+01 -5.466809272766113281e+00 6.334427595138549805e-01
-1.119284725189208984e+01 -5.454658508300781250e+00 4.674465656280517578e-01
-1.327401924133300781e+01 -4.766268730163574219e+00 4.185907244682312012e-01
-1.239644908905029297e+01 -4.963638305664062500e+00 2.703846991062164307e-01
-1.004042339324951172e+01 -4.447534561157226562e+00 1.169177517294883728e-01
-6.450951099395751953e+00 -3.140983819961547852e+00 8.765914477407932281e-03
-1.239945983886718750e+01 -5.409461021423339844e+00 6.356015801429748535e-01
-1.127475738525390625e+01 -5.409219264984130859e+00 4.694724082946777344e-01
-1.332187080383300781e+01 -4.691371440887451172e+00 4.191840589046478271e-01
-1.256251335144042969e+01 -4.940908908843994141e+00 2.733404040336608887e-01
-9.297471046447753906e+00 -4.050375938415527344e+00 1.079748496413230896e-01
-6.321312904357910156e+00 -3.030022144317626953e+00 8.564328774809837341e-03
-1.247372817993164062e+01 -5.350998401641845703e+00 6.377135515213012695e-01
-1.137821674346923828e+01 -5.373220920562744141e+00 4.723986387252807617e-01
-1.345055770874023438e+01 -4.644121170043945312e+00 4.223286807537078857e-01
-1.258140182495117188e+01 -4.859410762786865234e+00 2.730974555015563965e-01
-8.925069808959960938e+00 -3.823158025741577148e+00 1.033756434917449951e-01
-6.350638389587402344e+00 -2.996298789978027344e+00 8.578989654779434204e-03
-1.253485870361328125e+01 -5.286393642425537109e+00 6.391684412956237793e-01
-1.151065540313720703e+01 -5.349632263183593750e+00 4.765253663063049316e-01
-1.365395927429199219e+01 -4.620780467987060547e+00 4.278169274330139160e-01
-1.260256767272949219e+01 -4.778931140899658203e+00 2.729152739048004150e-01
-1.026527214050292969e+01 -4.322899341583251953e+00 1.185892298817634583e-01
-6.357112884521484375e+00 -2.951800823211669922e+00 8.563106879591941833e-03
-1.265195274353027344e+01 -5.244572639465332031e+00 6.434862017631530762e-01
-1.159597206115722656e+01 -5.303007602691650391e+00 4.787012636661529541e-01
-1.379211139678955078e+01 -4.573408603668212891e+00 4.312582015991210938e-01
-1.284716224670410156e+01 -4.781725883483886719e+00 2.775714695453643799e-01
-9.801922798156738281e+00 -4.057146072387695312e+00 1.129466742277145386e-01
-6.403301715850830078e+00 -2.925621509552001953e+00 8.600980974733829498e-03
-1.275605201721191406e+01 -5.196236133575439453e+00 6.471468806266784668e-01
-1.174858474731445312e+01 -5.285878181457519531e+00 4.836533665657043457e-01
-1.391403007507324219e+01 -4.519264698028564453e+00 4.341951608657836914e-01
-1.287156486511230469e+01 -4.701091766357421875e+00 2.774702608585357666e-01
-1.044907569885253906e+01 -4.250101089477539062e+00 1.201009973883628845e-01
-6.458528041839599609e+00 -2.903085708618164062e+00 8.651072159409523010e-03
-1.278584098815917969e+01 -5.117126464843750000e+00 6.470530629158020020e-01
-1.187491989135742188e+01 -5.255345344543457031e+00 4.875175058841705322e-01
-1.406628227233886719e+01 -4.473489761352539062e+00 4.380814731121063232e-01
-1.300275993347167969e+01 -4.658782958984375000e+00 2.796768844127655029e-01
-9.775760650634765625e+00 -3.906500339508056641e+00 1.120843291282653809e-01
-6.433233737945556641e+00 -2.844396591186523438e+00 8.593650534749031067e-03
-1.289322853088378906e+01 -5.068545341491699219e+00 6.509014368057250977e-01
-1.193809509277343750e+01 -5.195942401885986328e+00 4.887930154800415039e-01
-1.421276473999023438e+01 -4.424232482910156250e+00 4.417897462844848633e-01
-1.325465297698974609e+01 -4.657464027404785156e+00 2.844748497009277344e-01
-1.021375560760498047e+01 -4.009026050567626953e+00 1.168219372630119324e-01
-6.458818912506103516e+00 -2.808458089828491211e+00 8.604645729064941406e-03
-1.311884689331054688e+01 -5.064526081085205078e+00 6.607102751731872559e-01
-1.207724094390869141e+01 -5.168594360351562500e+00 4.931823909282684326e-01
-1.434195613861083984e+01 -4.368102073669433594e+00 4.449640214443206787e-01
-1.341815471649169922e+01 -4.622615337371826172e+00 2.873697876930236816e-01
-9.898538589477539062e+00 -3.815372705459594727e+00 1.129466742277145386e-01
-6.489722251892089844e+00 -2.774671792984008789e+00 8.622972294688224792e-03
-1.320385074615478516e+01 -5.004467964172363281e+00 6.634323596954345703e-01
-1.221004772186279297e+01 -5.137020111083984375e+00 4.973091185092926025e-01
-1.448152828216552734e+01 -4.313691139221191406e+00 4.484646320343017578e-01
-1.347184276580810547e+01 -4.548831939697265625e+00 2.879163920879364014e-01
-1.035944652557373047e+01 -3.920191764831542969e+00 1.179291531443595886e-01
-6.559172153472900391e+00 -2.756885290145874023e+00 8.692610077559947968e-03
-1.341499805450439453e+01 -4.990575313568115234e+00 6.724902391433715820e-01
-1.233183670043945312e+01 -5.099427223205566406e+00 5.009856820106506348e-01
-1.466895294189453125e+01 -4.271704196929931641e+00 4.534485638141632080e-01
-1.365706634521484375e+01 -4.518213272094726562e+00 2.912769615650177002e-01
-9.959611892700195312e+00 -3.699186086654663086e+00 1.131170243024826050e-01
-6.648055076599121094e+00 -2.746368408203125000e+00 8.787905797362327576e-03
-1.349697589874267578e+01 -4.927008152008056641e+00 6.750715374946594238e-01
-1.243788242340087891e+01 -5.054135799407958984e+00 5.040244460105895996e-01
-1.484774971008300781e+01 -4.225115299224853516e+00 4.581654965877532959e-01
-1.370355510711669922e+01 -4.440494060516357422e+00 2.916818559169769287e-01
-1.019350814819335938e+01 -3.715045213699340820e+00 1.155124381184577942e-01
-6.619379997253417969e+00 -2.687094449996948242e+00 8.728041313588619232e-03
-1.359936428070068359e+01 -4.870030879974365234e+00 6.786852478981018066e-01
-1.250299835205078125e+01 -4.991431713104248047e+00 5.054125189781188965e-01
-1.494273376464843750e+01 -4.153203964233398438e+00 4.603014588356018066e-01
-1.377819252014160156e+01 -4.371444702148437500e+00 2.926940917968750000e-01
-1.040442657470703125e+01 -3.719754934310913086e+00 1.176416948437690735e-01
-6.764853954315185547e+00 -2.697919368743896484e+00 8.897861465811729431e-03
-1.378638267517089844e+01 -4.841770648956298828e+00 6.865229010581970215e-01
-1.270550060272216797e+01 -4.982109546661376953e+00 5.123529434204101562e-01
-1.391456031799316406e+01 -4.320918560028076172e+00 2.950221896171569824e-01
-1.012132072448730469e+01 -3.548650741577148438e+00 1.141922995448112488e-01
-6.700273990631103516e+00 -2.624628305435180664e+00 8.791571483016014099e-03
-1.406895160675048828e+01 -4.844243049621582031e+00 6.991007924079895020e-01
-1.280670547485351562e+01 -4.931346893310546875e+00 5.152041316032409668e-01
-1.381549358367919922e+01 -4.197385311126708984e+00 2.923701703548431396e-01
-1.031879234313964844e+01 -3.546939849853515625e+00 1.161725148558616638e-01
-6.714385509490966797e+00 -2.582748651504516602e+00 8.789126761257648468e-03
-1.422523593902587891e+01 -4.800626277923583984e+00 7.053896784782409668e-01
-1.287504673004150391e+01 -4.867161273956298828e+00 5.167422890663146973e-01
-1.395791149139404297e+01 -4.147277355194091797e+00 2.948399782180786133e-01
-1.036215686798095703e+01 -3.490900754928588867e+00 1.164173781871795654e-01
-6.750688076019287109e+00 -2.549273729324340820e+00 8.816005662083625793e-03
-1.439288997650146484e+01 -4.759035587310791016e+00 7.122417688369750977e-01
-1.302646255493164062e+01 -4.833259582519531250e+00 5.216193199157714844e-01
-1.397157478332519531e+01 -4.058208465576171875e+00 2.945970594882965088e-01
-1.040901947021484375e+01 -3.435716390609741211e+00 1.167048290371894836e-01
-6.755888462066650391e+00 -2.503981351852416992e+00 8.802566677331924438e-03
-1.471926498413085938e+01 -4.766963005065917969e+00 7.269314527511596680e-01
-1.317982196807861328e+01 -4.798365592956542969e+00 5.265713930130004883e-01
-1.423954868316650391e+01 -4.041468143463134766e+00 2.997188866138458252e-01
-1.052980804443359375e+01 -3.404079914093017578e+00 1.178226843476295471e-01
-6.781463146209716797e+00 -2.466240406036376953e+00 8.816005662083625793e-03
-1.472729015350341797e+01 -4.669915199279785156e+00 7.258989810943603516e-01
-1.328524398803710938e+01 -4.744628906250000000e+00 5.296102166175842285e-01
-1.419663619995117188e+01 -3.935324668884277344e+00 2.983017861843109131e-01
-1.050473690032958984e+01 -3.324922323226928711e+00 1.173116639256477356e-01
-6.684386253356933594e+00 -2.384599447250366211e+00 8.670618757605552673e-03
-1.489972305297851562e+01 -4.624170303344726562e+00 7.329857349395751953e-01
-1.336597919464111328e+01 -4.681190490722656250e+00 5.316735506057739258e-01
-1.428228092193603516e+01 -3.864855766296386719e+00 2.995974123477935791e-01
-1.016293334960937500e+01 -3.148261785507202148e+00 1.132767125964164734e-01
-6.618660449981689453e+00 -2.315471649169921875e+00 8.566772565245628357e-03
-1.354850769042968750e+01 -4.651986598968505859e+00 5.377886295318603516e-01
-1.428832721710205078e+01 -3.772554397583007812e+00 2.992330491542816162e-01
-1.017057609558105469e+01 -3.082363605499267578e+00 1.131489574909210205e-01
-6.651661872863769531e+00 -2.281305074691772461e+00 8.591207675635814667e-03
-1.364498805999755859e+01 -4.591714382171630859e+00 5.404897928237915039e-01
-1.463071727752685547e+01 -3.767078876495361328e+00 3.059136867523193359e-01
-1.063606262207031250e+01 -3.152312278747558594e+00 1.181101426482200623e-01
-6.782124042510986328e+00 -2.279637098312377930e+00 8.741479367017745972e-03
-1.378584194183349609e+01 -4.545138835906982422e+00 5.449541807174682617e-01
-1.464094924926757812e+01 -3.674071788787841797e+00 3.056505024433135986e-01
-1.086650276184082031e+01 -3.148207664489746094e+00 1.204523220658302307e-01
-6.785536289215087891e+00 -2.234539270401000977e+00 8.728041313588619232e-03
-1.395135784149169922e+01 -4.504989624023437500e+00 5.503939390182495117e-01
-1.483026409149169922e+01 -3.624999284744262695e+00 3.091325461864471436e-01
-9.781082153320312500e+00 -2.768804550170898438e+00 1.082303673028945923e-01
-6.738208770751953125e+00 -2.173217058181762695e+00 8.649850264191627502e-03
-1.405591583251953125e+01 -4.443700313568115234e+00 5.534327030181884766e-01
-1.493782043457031250e+01 -3.554300069808959961e+00 3.109140694141387939e-01
-1.067686367034912109e+01 -2.951739549636840820e+00 1.179397925734519958e-01
-6.733298301696777344e+00 -2.126110076904296875e+00 8.626637049019336700e-03
-1.423375129699707031e+01 -4.404040336608886719e+00 5.593602061271667480e-01
-1.102783966064453125e+01 -2.976055622100830078e+00 1.216127723455429077e-01
-6.721376419067382812e+00 -2.077078819274902344e+00 8.594872429966926575e-03
-1.439727592468261719e+01 -4.358020782470703125e+00 5.647249221801757812e-01
-1.101301574707031250e+01 -2.899677753448486328e+00 1.212508007884025574e-01
-6.791427135467529297e+00 -2.053161144256591797e+00 8.668175898492336273e-03
-1.453777122497558594e+01 -4.303351879119873047e+00 5.691893696784973145e-01
-1.114198112487792969e+01 -2.860645055770874023e+00 1.224751248955726624e-01
-6.676354408264160156e+00 -1.973745226860046387e+00 8.505686186254024506e-03
-1.466757392883300781e+01 -4.244065761566162109e+00 5.732410550117492676e-01
-1.101090812683105469e+01 -2.755089282989501953e+00 1.208462417125701904e-01
-6.728688240051269531e+00 -1.944402337074279785e+00 8.556998334825038910e-03
-1.483277225494384766e+01 -4.193407058715820312e+00 5.786808729171752930e-01
-1.493503475189208984e+01 -3.072853803634643555e+00 3.087479174137115479e-01
-1.077404117584228516e+01 -2.625681161880493164e+00 1.180675476789474487e-01
-7.149502754211425781e+00 -2.018557548522949219e+00 9.076233953237533569e-03
-1.058660411834716797e+01 -2.511287212371826172e+00 1.158424764871597290e-01
-6.932315349578857422e+00 -1.911389827728271484e+00 8.785462006926536560e-03
-1.084247589111328125e+01 -2.501812458038330078e+00 1.184721142053604126e-01
-6.589523315429687500e+00 -1.773440957069396973e+00 8.337086997926235199e-03
-1.067223930358886719e+01 -2.393657922744750977e+00 1.164493188261985779e-01
-6.908822536468505859e+00 -1.813985943794250488e+00 8.726818487048149109e-03
-1.107069778442382812e+01 -2.411778450012207031e+00 1.206333115696907043e-01
-7.131011962890625000e+00 -1.825627088546752930e+00 8.993156254291534424e-03
-1.118605422973632812e+01 -2.365110158920288086e+00 1.217298880219459534e-01
-7.133347034454345703e+00 -1.779659032821655273e+00 8.982160128653049469e-03
-1.109652137756347656e+01 -2.275139808654785156e+00 1.206013709306716919e-01
-7.158709049224853516e+00 -1.739397764205932617e+00 9.000486694276332855e-03
-1.105338764190673828e+01 -2.195709943771362305e+00 1.199838891625404358e-01
-7.257803916931152344e+00 -1.716382622718811035e+00 9.111664257943630219e-03
-1.112655067443847656e+01 -2.139363527297973633e+00 1.206333115696907043e-01
-7.242860317230224609e+00 -1.665989041328430176e+00 9.079898707568645477e-03
-1.122499752044677734e+01 -2.086953639984130859e+00 1.215595379471778870e-01
-7.352488994598388672e+00 -1.643770694732666016e+00 9.204515255987644196e-03
-1.125924491882324219e+01 -2.021927356719970703e+00 1.217937618494033813e-01
-7.348755359649658203e+00 -1.595655202865600586e+00 9.187411516904830933e-03
-1.128326225280761719e+01 -1.954852342605590820e+00 1.219215169548988342e-01
-7.362321853637695312e+00 -1.551358699798583984e+00 9.192298166453838348e-03
-1.077329444885253906e+01 -1.798482298851013184e+00 1.162896156311035156e-01
-7.731273651123046875e+00 -1.579621315002441406e+00 9.640673175454139709e-03
-1.117015552520751953e+01 -1.794355869293212891e+00 1.204523220658302307e-01
-7.423967361450195312e+00 -1.469438195228576660e+00 9.246054105460643768e-03
-1.097243690490722656e+01 -1.693598389625549316e+00 1.182059571146965027e-01
-7.020344734191894531e+00 -1.344838261604309082e+00 8.732927963137626648e-03
-1.101229667663574219e+01 -1.630634903907775879e+00 1.185253411531448364e-01
-7.740356922149658203e+00 -1.433586001396179199e+00 9.617459960281848907e-03
-1.121218204498291016e+01 -1.589990258216857910e+00 1.205694377422332764e-01
-7.694867134094238281e+00 -1.376381039619445801e+00 9.550265036523342133e-03
-1.117812824249267578e+01 -1.515253543853759766e+00 1.201009973883628845e-01
-7.694298744201660156e+00 -1.327610015869140625e+00 9.539269842207431793e-03
-1.094226837158203125e+01 -1.414962887763977051e+00 1.174713596701622009e-01
-7.631274700164794922e+00 -1.268566966056823730e+00 9.451305493712425232e-03
-1.123160934448242188e+01 -1.382364034652709961e+00 1.204842627048492432e-01
-7.570780277252197266e+00 -1.210821509361267090e+00 9.367005899548530579e-03
-1.161033821105957031e+01 -1.356711626052856445e+00 1.244553402066230774e-01
-7.572136878967285156e+00 -1.163434147834777832e+00 9.359675459563732147e-03
-1.095155143737792969e+01 -1.211662292480468750e+00 1.173116639256477356e-01
-7.668171405792236328e+00 -1.130072116851806641e+00 9.469631128013134003e-03
-1.108806896209716797e+01 -1.157943964004516602e+00 1.186956837773323059e-01
-7.621490955352783203e+00 -1.075454831123352051e+00 9.403658099472522736e-03
-1.072576427459716797e+01 -1.053619503974914551e+00 1.147459074854850769e-01
-7.723084926605224609e+00 -1.041499853134155273e+00 9.520943276584148407e-03
-1.177157402038574219e+01 -1.083468556404113770e+00 1.258606463670730591e-01
-7.719411849975585938e+00 -9.928167462348937988e-01 9.508726187050342560e-03
-1.132369709014892578e+01 -9.722142815589904785e-01 1.210059300065040588e-01
-7.639995574951171875e+00 -9.349858760833740234e-01 9.403658099472522736e-03
-1.100649166107177734e+01 -8.769822716712951660e-01 1.175565347075462341e-01
-7.461824417114257812e+00 -8.667446374893188477e-01 9.177637286484241486e-03
-1.066462135314941406e+01 -7.839210629463195801e-01 1.138516142964363098e-01
-7.477935791015625000e+00 -8.221455216407775879e-01 9.191076271235942841e-03
-1.138057899475097656e+01 -7.663719058036804199e-01 1.214424297213554382e-01
-7.882693767547607422e+00 -8.177258372306823730e-01 9.682212024927139282e-03
-1.129823493957519531e+01 -6.912152171134948730e-01 1.205162033438682556e-01
-7.780073165893554688e+00 -7.588587403297424316e-01 9.550265036523342133e-03
-1.129327774047851562e+01 -6.213831305503845215e-01 1.204203888773918152e-01
-7.776616096496582031e+00 -7.103791236877441406e-01 9.540491737425327301e-03
-5.409132957458496094e+00 1.267353296279907227e-01 1.605833768844604492e-01
-1.111111068725585938e+01 -5.429987311363220215e-01 1.184401810169219971e-01
-7.781825065612792969e+00 -6.627341508865356445e-01 9.541712701320648193e-03
-5.392267704010009766e+00 1.594500541687011719e-01 1.601087301969528198e-01
-1.130205059051513672e+01 -4.828357994556427002e-01 1.204416826367378235e-01
-7.999080181121826172e+00 -6.318240165710449219e-01 9.803162887692451477e-03
-1.163556098937988281e+01 -4.255763590335845947e-01 1.239656135439872742e-01
-7.778400421142578125e+00 -5.663903951644897461e-01 9.528273716568946838e-03
-1.186983203887939453e+01 -3.612305521965026855e-01 1.264355480670928955e-01
-7.850576877593994141e+00 -5.232411026954650879e-01 9.612573310732841492e-03
-1.144797420501708984e+01 -2.780956029891967773e-01 1.219215169548988342e-01
-7.887577533721923828e+00 -4.771138727664947510e-01 9.654112160205841064e-03
-5.451001644134521484e+00 9.800262004137039185e-02 1.103929132223129272e-01
-1.171340656280517578e+01 -2.126383632421493530e-01 1.247321441769599915e-01
-7.305220127105712891e+00 -3.969153463840484619e-01 8.938178420066833496e-03
-5.433306217193603516e+00 1.310377120971679688e-01 1.100487634539604187e-01
-1.171049213409423828e+01 -1.407141983509063721e-01 1.246895566582679749e-01
-7.876856803894042969e+00 -3.795152008533477783e-01 9.634564630687236786e-03
-5.426403999328613281e+00 1.641919463872909546e-01 1.099272966384887695e-01
-1.160614204406738281e+01 -6.824000179767608643e-02 1.235716938972473145e-01
-7.793113231658935547e+00 -3.275649845600128174e-01 9.529495611786842346e-03
-1.193032455444335938e+01 3.058281727135181427e-03 1.270211040973663330e-01
-7.806968688964843750e+00 -2.801715433597564697e-01 9.544156491756439209e-03
-1.180809020996093750e+01 7.548151165246963501e-02 1.257222592830657959e-01
-7.846524238586425781e+00 -2.333934009075164795e-01 9.590581990778446198e-03
-1.111249828338623047e+01 1.392267942428588867e-01 1.183230653405189514e-01
-7.885797977447509766e+00 -1.861403733491897583e-01 9.637008421123027802e-03
-5.444743156433105469e+00 1.016331091523170471e-01 5.797979235649108887e-02
-7.798804759979248047e+00 -1.362137496471405029e-01 9.529495611786842346e-03
-5.398033618927001953e+00 1.338988840579986572e-01 5.749006196856498718e-02
-7.520512104034423828e+00 -8.519809693098068237e-02 9.188633412122726440e-03
-5.414101600646972656e+00 1.675438880920410156e-01 5.767105147242546082e-02
-8.027886390686035156e+00 -4.168400913476943970e-02 9.808050468564033508e-03
-1.176624298095703125e+01 4.363967478275299072e-01 1.253602802753448486e-01
-7.829990863800048828e+00 7.388135883957147598e-03 9.566147811710834503e-03
-1.112697505950927734e+01 4.810715913772583008e-01 1.185785755515098572e-01
-8.002793312072753906e+00 5.665665864944458008e-02 9.777506813406944275e-03
-1.163616085052490234e+01 5.746380090713500977e-01 1.240401342511177063e-01
-5.471518039703369141e+00 7.231259346008300781e-02 6.685307715088129044e-03
-5.473155498504638672e+00 1.040149107575416565e-01 2.055114060640335083e-01
-1.139878845214843750e+01 6.330505013465881348e-01 1.215488985180854797e-01
-5.405983448028564453e+00 1.046260744333267212e-01 6.605895236134529114e-03
-5.485401153564453125e+00 1.379221379756927490e-01 2.059991210699081421e-01
-1.136474800109863281e+01 7.011329531669616699e-01 1.212294995784759521e-01
-5.396243095397949219e+00 1.375652402639389038e-01 6.594899576157331467e-03
-1.140412902832031250e+01 7.738312482833862305e-01 1.216979473829269409e-01
-5.418286323547363281e+00 1.714005917310714722e-01 6.622999906539916992e-03
-1.158365058898925781e+01 8.574469685554504395e-01 1.236675083637237549e-01
-5.397146224975585938e+00 2.038883268833160400e-01 6.598564796149730682e-03
-1.177752017974853516e+01 9.444935321807861328e-01 1.257967799901962280e-01
-8.077206611633300781e+00 3.547770977020263672e-01 9.877688251435756683e-03
-1.169778156280517578e+01 1.010373711585998535e+00 1.250089406967163086e-01
-8.049908638000488281e+00 4.030809998512268066e-01 9.847145527601242065e-03
-1.170231437683105469e+01 1.083144664764404297e+00 1.251260489225387573e-01
-8.042291641235351562e+00 4.521860182285308838e-01 9.841036982834339142e-03
-1.182879257202148438e+01 1.168096065521240234e+00 1.265526711940765381e-01
-8.049346923828125000e+00 5.021467208862304688e-01 9.853254072368144989e-03
-1.203322601318359375e+01 1.262885093688964844e+00 1.288203299045562744e-01
-8.022170066833496094e+00 5.498858690261840820e-01 9.823932312428951263e-03
-1.182449913024902344e+01 1.314380764961242676e+00 1.266697794198989868e-01
-8.109392166137695312e+00 6.058785915374755859e-01 9.935109876096248627e-03
-1.171888446807861328e+01 1.375486254692077637e+00 1.256264299154281616e-01
-8.211175918579101562e+00 6.641715168952941895e-01 1.006461307406425476e-02
-1.159014511108398438e+01 1.432524442672729492e+00 1.243382319808006287e-01
-8.271701812744140625e+00 7.201798558235168457e-01 1.014402601867914200e-02
-1.186573219299316406e+01 1.540563106536865234e+00 1.273937225341796875e-01
-8.383621215820312500e+00 7.817836999893188477e-01 1.028696820139884949e-02
-1.216816139221191406e+01 1.655811309814453125e+00 1.307473033666610718e-01
-8.360755920410156250e+00 8.314287662506103516e-01 1.026497781276702881e-02
-1.498760795593261719e+01 2.688764333724975586e+00 3.083227872848510742e-01
-1.199838924407958984e+01 1.707757115364074707e+00 1.290332525968551636e-01
-8.304779052734375000e+00 8.773556947708129883e-01 1.020266953855752945e-02
-1.495116901397705078e+01 2.777024507522583008e+00 3.079178929328918457e-01
-1.195900058746337891e+01 1.777083396911621094e+00 1.287245005369186401e-01
-8.354891777038574219e+00 9.345213174819946289e-01 1.027108635753393173e-02
-1.489359188079833984e+01 2.860977888107299805e+00 3.070878684520721436e-01
-1.174727439880371094e+01 1.819361448287963867e+00 1.265633106231689453e-01
-8.320200920104980469e+00 9.823679327964782715e-01 1.023565605282783508e-02
-1.484633731842041016e+01 2.946470499038696289e+00 3.064805269241333008e-01
-1.202316665649414062e+01 1.937705993652343750e+00 1.296613812446594238e-01
-8.266382217407226562e+00 1.027480483055114746e+00 1.017701253294944763e-02
-1.482602024078369141e+01 3.037109375000000000e+00 3.064400553703308105e-01
-1.213432693481445312e+01 2.032086849212646484e+00 1.309921741485595703e-01
-8.307518959045410156e+00 1.084395647048950195e+00 1.023565605282783508e-02
-1.482666873931884766e+01 3.132155656814575195e+00 3.068449199199676514e-01
-1.208123779296875000e+01 2.099483966827392578e+00 1.305556744337081909e-01
-8.337367057800292969e+00 1.140363216400146484e+00 1.028085965663194656e-02
-1.483159446716308594e+01 3.228387832641601562e+00 3.073510527610778809e-01
-1.209666728973388672e+01 2.178713798522949219e+00 1.308644115924835205e-01
-8.228251457214355469e+00 1.176914930343627930e+00 1.015502121299505234e-02
-1.481443309783935547e+01 3.319987773895263672e+00 3.074117600917816162e-01
-1.233177185058593750e+01 2.299266815185546875e+00 1.335579305887222290e-01
-8.372197151184082031e+00 1.249972820281982422e+00 1.034194603562355042e-02
-1.479670619964599609e+01 3.411498785018920898e+00 3.074724972248077393e-01
-1.229877567291259766e+01 2.371292829513549805e+00 1.333556622266769409e-01
-8.390061378479003906e+00 1.305317163467407227e+00 1.037371065467596054e-02
-1.477549457550048828e+01 3.502225399017333984e+00 3.074724972248077393e-01
-1.223986339569091797e+01 2.437922239303588867e+00 1.328765749931335449e-01
-8.341421127319335938e+00 1.350221753120422363e+00 1.032362133264541626e-02
-1.474789905548095703e+01 3.591400861740112305e+00 3.073510527610778809e-01
-1.227266788482666016e+01 2.522844552993774414e+00 1.333982348442077637e-01
-8.199849128723144531e+00 1.378989338874816895e+00 1.015868689864873886e-02
-1.472267532348632812e+01 3.681097269058227539e+00 3.072903156280517578e-01
-1.215228843688964844e+01 2.575914144515991211e+00 1.322590857744216919e-01
-8.489722251892089844e+00 1.481359720230102539e+00 1.052887085825204849e-02
-1.469206333160400391e+01 3.769376754760742188e+00 3.071283400058746338e-01
-1.209033870697021484e+01 2.640403270721435547e+00 1.317587047815322876e-01
-7.612548828125000000e+00 1.376487255096435547e+00 9.451305493712425232e-03
-1.463288402557373047e+01 3.850041866302490234e+00 3.063793182373046875e-01
-1.231780815124511719e+01 2.769373178482055664e+00 1.344202756881713867e-01
-8.463041305541992188e+00 1.583958506584167480e+00 1.051909755915403366e-02
-1.458388710021972656e+01 3.932986736297607422e+00 3.058529496192932129e-01
-1.217783164978027344e+01 2.816511392593383789e+00 1.330788582563400269e-01
-8.411929130554199219e+00 1.627877235412597656e+00 1.046778541058301926e-02
-1.454406070709228516e+01 4.018137931823730469e+00 3.055290579795837402e-01
-1.218074989318847656e+01 2.896037340164184570e+00 1.333024203777313232e-01
-8.593979835510253906e+00 1.717880249023437500e+00 1.070724427700042725e-02
-1.452490425109863281e+01 4.108935832977294922e+00 3.056505024433135986e-01
-1.206852531433105469e+01 2.947708368301391602e+00 1.322697252035140991e-01
-8.592091560363769531e+00 1.772397756576538086e+00 1.071823947131633759e-02
-1.451478481292724609e+01 4.202430248260498047e+00 3.059744238853454590e-01
-1.201141548156738281e+01 3.011975288391113281e+00 1.318438798189163208e-01
-8.579097747802734375e+00 1.824668526649475098e+00 1.071579661220312119e-02
-1.448872566223144531e+01 4.291412353515625000e+00 3.059744238853454590e-01
-1.172542858123779297e+01 3.016850709915161133e+00 1.289054900407791138e-01
-8.528666496276855469e+00 1.868713021278381348e+00 1.066692639142274857e-02
-1.445159626007080078e+01 4.377044677734375000e+00 3.057517409324645996e-01
-1.169509410858154297e+01 3.085678577423095703e+00 1.287777423858642578e-01
-8.496554374694824219e+00 1.916388273239135742e+00 1.064126938581466675e-02
-1.442160129547119141e+01 4.464748382568359375e+00 3.056910037994384766e-01
-1.166146183013916016e+01 3.153464794158935547e+00 1.286180466413497925e-01
-8.410603523254394531e+00 1.951310038566589355e+00 1.054841931909322739e-02
-1.437677669525146484e+01 4.547726154327392578e+00 3.053266108036041260e-01
-1.200518989562988281e+01 3.325596809387207031e+00 1.326317042112350464e-01
-8.417925834655761719e+00 2.007519245147705078e+00 1.057285349816083908e-02
-1.433337974548339844e+01 4.630937099456787109e+00 3.050026893615722656e-01
-1.162573432922363281e+01 3.297422885894775391e+00 1.286606341600418091e-01
-8.375339508056640625e+00 2.051756620407104492e+00 1.053497940301895142e-02
-1.434362316131591797e+01 4.731638908386230469e+00 3.058327138423919678e-01
-1.134311866760253906e+01 3.292596101760864258e+00 1.257541775703430176e-01
-8.260764122009277344e+00 2.077499389648437500e+00 1.040669810026884079e-02
-1.431811046600341797e+01 4.820837020874023438e+00 3.059136867523193359e-01
-1.193235778808593750e+01 3.543163537979125977e+00 1.325252503156661987e-01
-8.527695655822753906e+00 2.200351238250732422e+00 1.075977738946676254e-02
-1.428542423248291016e+01 4.907626152038574219e+00 3.058529496192932129e-01
-1.200033283233642578e+01 3.643620729446411133e+00 1.335259974002838135e-01
-8.530468940734863281e+00 2.256983041763305664e+00 1.078054774552583694e-02
-1.422862339019775391e+01 4.985929965972900391e+00 3.052861094474792480e-01
-1.202836513519287109e+01 3.732892751693725586e+00 1.340902447700500488e-01
-8.584019660949707031e+00 2.327601909637451172e+00 1.086606830358505249e-02
-1.419870376586914062e+01 5.073477268218994141e+00 3.053063452243804932e-01
-1.185844612121582031e+01 3.760083436965942383e+00 1.324507147073745728e-01
-8.611971855163574219e+00 2.392004013061523438e+00 1.091982517391443253e-02
-1.476057052612304688e+01 5.970963478088378906e+00 4.043806552886962891e+00
-1.420018672943115234e+01 5.172480106353759766e+00 3.060149252414703369e-01
-1.187510585784912109e+01 3.845713853836059570e+00 1.328978687524795532e-01
-8.510564804077148438e+00 2.420183420181274414e+00 1.080986950546503067e-02
-1.474247741699218750e+01 6.069168567657470703e+00 4.048975944519042969e+00
-1.417005538940429688e+01 5.260209560394287109e+00 3.060553967952728271e-01
-1.212186241149902344e+01 4.007969379425048828e+00 1.359320580959320068e-01
-8.312162399291992188e+00 2.418987512588500977e+00 1.057651918381452560e-02
-1.470301532745361328e+01 6.155682086944580078e+00 3.422976016998291016e+00
-1.414405918121337891e+01 5.349532127380371094e+00 3.061971068382263184e-01
-1.182133293151855469e+01 3.989231348037719727e+00 1.328339725732803345e-01
-8.604821205139160156e+00 2.561529636383056641e+00 1.096869446337223053e-02
-1.451352310180664062e+01 6.184274673461914062e+00 4.006637096405029297e+00
-1.483857536315917969e+01 6.319721221923828125e+00 3.463497877120971680e+00
-1.404659461975097656e+01 5.411417484283447266e+00 3.048002421855926514e-01
-1.178434276580810547e+01 4.057458877563476562e+00 1.326955854892730713e-01
-8.722873687744140625e+00 2.655045509338378906e+00 1.113973557949066162e-02
-1.403267192840576172e+01 5.505171775817871094e+00 3.052253723144531250e-01
-1.210358524322509766e+01 4.250625133514404297e+00 1.365814805030822754e-01
-8.561280250549316406e+00 2.663366317749023438e+00 1.095403358340263367e-02
-1.460958766937255859e+01 6.435126304626464844e+00 3.428224802017211914e+00
-1.401348400115966797e+01 5.597104549407958984e+00 3.055492937564849854e-01
-1.203867912292480469e+01 4.310989856719970703e+00 1.361449956893920898e-01
-8.642937660217285156e+00 2.747046470642089844e+00 1.107987109571695328e-02
-1.370027828216552734e+01 6.140989303588867188e+00 4.424449443817138672e+00
-1.471831130981445312e+01 6.594225883483886719e+00 4.095991134643554688e+00
-1.401962947845458984e+01 5.699551582336425781e+00 3.064400553703308105e-01
-1.202609062194824219e+01 4.389919757843017578e+00 1.363046765327453613e-01
-8.675379753112792969e+00 2.816081523895263672e+00 1.114340126514434814e-02
-1.367368698120117188e+01 6.230107307434082031e+00 4.428124427795410156e+00
-1.409893703460693359e+01 6.420891761779785156e+00 3.934514522552490234e+00
-1.410238838195800781e+01 6.419491767883300781e+00 3.327444076538085938e+00
-1.398346900939941406e+01 5.785085201263427734e+00 3.064197897911071777e-01
-1.218543052673339844e+01 4.533007144927978516e+00 1.384232938289642334e-01
-8.549724578857421875e+00 2.833397865295410156e+00 1.100412383675575256e-02
-1.365609359741210938e+01 6.323563575744628906e+00 4.434908866882324219e+00
-1.412129878997802734e+01 6.532995700836181641e+00 3.341301441192626953e+00
-7.574302196502685547e+00 3.515372037887573242e+00 2.478318065404891968e-01
-1.398180484771728516e+01 5.885128021240234375e+00 3.071688413619995117e-01
-1.214710044860839844e+01 4.603791713714599609e+00 1.383061856031417847e-01
-8.555860519409179688e+00 2.893814802169799805e+00 1.103466749191284180e-02
-1.361703586578369141e+01 6.407237052917480469e+00 4.434908866882324219e+00
-1.438657283782958984e+01 6.766261577606201172e+00 4.037652492523193359e+00
-1.446053314208984375e+01 6.797964572906494141e+00 3.431374073028564453e+00
-7.564343452453613281e+00 3.567323684692382812e+00 2.482174783945083618e-01
-1.396840858459472656e+01 5.980646133422851562e+00 3.076749742031097412e-01
-1.207478046417236328e+01 4.661313056945800781e+00 1.378058046102523804e-01
-8.623020172119140625e+00 2.975616216659545898e+00 1.114462316036224365e-02
-1.441212463378906250e+01 6.886585235595703125e+00 4.056606769561767578e+00
-1.442486953735351562e+01 6.245187759399414062e+00 3.823100805282592773e+00
-1.448560047149658203e+01 6.918589591979980469e+00 3.447331190109252930e+00
-1.399011611938476562e+01 6.091787338256835938e+00 3.089706003665924072e-01
-1.206177234649658203e+01 4.741533756256103516e+00 1.379867941141128540e-01
-8.492349624633789062e+00 2.988962411880493164e+00 1.099923718720674515e-02
-1.401023006439208984e+01 6.803474426269531250e+00 4.589815616607666016e+00
-1.403834533691406250e+01 6.174552440643310547e+00 4.345500946044921875e+00
-1.420044136047363281e+01 6.892779350280761719e+00 4.008852958679199219e+00
-1.388665103912353516e+01 6.148371219635009766e+00 3.075129985809326172e-01
-1.219398593902587891e+01 4.880101203918457031e+00 1.398392468690872192e-01
-8.500204086303710938e+00 3.050472021102905273e+00 1.103344559669494629e-02
-1.392950916290283203e+01 6.870217800140380859e+00 4.577095031738281250e+00
-1.384231376647949219e+01 6.824208736419677734e+00 3.919498920440673828e+00
-1.384866428375244141e+01 6.233462333679199219e+00 3.075129985809326172e-01
-1.220548534393310547e+01 4.971805095672607422e+00 1.403183341026306152e-01
-8.826928138732910156e+00 3.228996038436889648e+00 1.148304250091314316e-02
-1.422787284851074219e+01 6.473428249359130859e+00 3.801831245422363281e+00
-1.385379600524902344e+01 6.338284969329833984e+00 3.084847331047058105e-01
-1.207406330108642578e+01 5.004867553710937500e+00 1.391578912734985352e-01
-8.747918128967285156e+00 3.261090278625488281e+00 1.140607334673404694e-02
-1.413408756256103516e+01 6.535730361938476562e+00 3.787415266036987305e+00
-1.455817985534667969e+01 6.738003730773925781e+00 3.281251430511474609e+00
-7.603583812713623047e+00 3.535315036773681641e+00 1.697900891304016113e-01
-1.166628932952880859e+01 4.919937133789062500e+00 1.348035484552383423e-01
-8.704372406005859375e+00 3.305829048156738281e+00 1.137553062289953232e-02
-1.424775695800781250e+01 6.053041934967041016e+00 4.223300933837890625e+00
-1.411042690277099609e+01 6.630183219909667969e+00 3.791905403137207031e+00
-1.454847717285156250e+01 6.842214107513427734e+00 3.288465499877929688e+00
-7.593500614166259766e+00 3.587455511093139648e+00 1.700532734394073486e-01
-1.213763332366943359e+01 5.206663608551025391e+00 1.406164318323135376e-01
-8.683924674987792969e+00 3.359175920486450195e+00 1.137553062289953232e-02
-1.442461490631103516e+01 6.886176586151123047e+00 3.887619018554687500e+00
-1.455395603179931641e+01 6.954162597656250000e+00 3.299286842346191406e+00
-1.388440513610839844e+01 6.664028167724609375e+00 3.118453025817871094e-01
