-1.269341230392456055e+00 -5.861030101776123047e+00 7.767337560653686523e-01
-1.035324454307556152e+00 -5.788866996765136719e+00 7.064388990402221680e-01
-8.138659596443176270e-01 -5.747281074523925781e+00 6.418614983558654785e-01
-1.503360390663146973e+00 -5.889327526092529297e+00 6.227584481239318848e-01
-1.265106201171875000e+00 -5.831634521484375000e+00 5.546184778213500977e-01
-1.499642491340637207e+00 -5.866218090057373047e+00 3.989797830581665039e-01
-1.267613172531127930e+00 -5.833361625671386719e+00 3.368824422359466553e-01
-1.513168215751647949e+00 -5.914824962615966797e+00 1.812014281749725342e-01
-1.287144660949707031e+00 -5.913294792175292969e+00 1.225395798683166504e-01
-1.368990182876586914e+00 -6.159057140350341797e+00 1.290537476539611816e+00
-8.632091879844665527e-01 -5.858686447143554688e+00 8.734194636344909668e-01
-1.551478862762451172e+00 -5.934320449829101562e+00 8.544058799743652344e-01
-1.309597015380859375e+00 -5.872489929199218750e+00 7.793027162551879883e-01
-1.075344562530517578e+00 -5.806811809539794922e+00 7.094206809997558594e-01
-8.521686196327209473e-01 -5.762826919555664062e+00 6.441695690155029297e-01
-1.542743802070617676e+00 -5.892503261566162109e+00 6.240834593772888184e-01
-1.305857062339782715e+00 -5.846112251281738281e+00 5.567469596862792969e-01
-1.542694568634033203e+00 -5.883932113647460938e+00 4.008208215236663818e-01
-1.302510142326354980e+00 -5.821577072143554688e+00 3.366571068763732910e-01
-1.555520653724670410e+00 -5.928633213043212891e+00 1.819134205579757690e-01
-1.322091937065124512e+00 -5.899432182312011719e+00 1.224181130528450012e-01
-1.411998152732849121e+00 -6.173462390899658203e+00 1.295346856117248535e+00
-1.161169171333312988e+00 -6.096817493438720703e+00 1.208651900291442871e+00
-1.121276855468750000e+00 -5.881773471832275391e+00 9.397898912429809570e-01
-8.977893590927124023e-01 -5.844479084014892578e+00 8.721063137054443359e-01
-1.596579432487487793e+00 -5.957215785980224609e+00 8.590965867042541504e-01
-1.342943787574768066e+00 -5.852744579315185547e+00 7.777613401412963867e-01
-1.116557478904724121e+00 -5.829358100891113281e+00 7.129987478256225586e-01
-8.890269398689270020e-01 -5.767313480377197266e+00 6.452686786651611328e-01
-1.579901933670043945e+00 -5.886769294738769531e+00 6.244911551475524902e-01
-1.346609950065612793e+00 -5.859338760375976562e+00 5.587829351425170898e-01
-1.111088156700134277e+00 -5.789864063262939453e+00 4.919513463973999023e-01
-1.584466338157653809e+00 -5.895555973052978516e+00 4.022673666477203369e-01
-1.343357443809509277e+00 -5.835853576660156250e+00 3.379530012607574463e-01
-1.597579956054687500e+00 -5.940212726593017578e+00 1.825660765171051025e-01
-1.367474555969238281e+00 -5.931152343750000000e+00 1.232481375336647034e-01
-1.715457201004028320e+00 -6.251494407653808594e+00 1.145388960838317871e+00
-1.159637093544006348e+00 -5.886414051055908203e+00 9.416505098342895508e-01
-9.350392818450927734e-01 -5.847652435302734375e+00 8.734194636344909668e-01
-1.636773824691772461e+00 -5.960678100585937500e+00 8.610280752182006836e-01
-1.383839964866638184e+00 -5.865628719329833984e+00 7.805871963500976562e-01
-1.155581593513488770e+00 -5.838955402374267578e+00 7.150263786315917969e-01
-9.270744919776916504e-01 -5.778433799743652344e+00 6.471371054649353027e-01
-1.626806378364562988e+00 -5.916291236877441406e+00 6.286700367927551270e-01
-1.386429429054260254e+00 -5.867439270019531250e+00 5.603561997413635254e-01
-1.152407407760620117e+00 -5.812262535095214844e+00 4.944460093975067139e-01
-1.625114083290100098e+00 -5.902076721191406250e+00 4.033851325511932373e-01
-1.384888648986816406e+00 -5.851790428161621094e+00 3.393616080284118652e-01
-1.165151238441467285e+00 -5.865803241729736328e+00 2.809825837612152100e-01
-1.639308691024780273e+00 -5.949571132659912109e+00 1.831593960523605347e-01
-1.412373661994934082e+00 -5.958645343780517578e+00 1.239971816539764404e-01
-9.746327400207519531e-01 -5.864251136779785156e+00 8.767754435539245605e-01
-1.675998210906982422e+00 -5.960057735443115234e+00 8.624077439308166504e-01
-1.423309445381164551e+00 -5.871484756469726562e+00 7.825139760971069336e-01
-1.194368004798889160e+00 -5.846346378326416016e+00 7.168154120445251465e-01
-9.664360284805297852e-01 -5.796165943145751953e+00 6.497748494148254395e-01
-1.665234446525573730e+00 -5.913858413696289062e+00 6.294854283332824707e-01
-1.424049615859985352e+00 -5.865594863891601562e+00 5.610040426254272461e-01
-1.190646648406982422e+00 -5.817774295806884766e+00 4.955270290374755859e-01
-1.666713714599609375e+00 -5.911201953887939453e+00 4.047001600265502930e-01
-1.424070835113525391e+00 -5.856764316558837891e+00 3.401504158973693848e-01
-1.201522350311279297e+00 -5.860500335693359375e+00 2.810764312744140625e-01
-1.684469342231750488e+00 -5.970184803009033203e+00 1.841087192296981812e-01
-1.453166604042053223e+00 -5.967351913452148438e+00 1.243615746498107910e-01
-1.011774063110351562e+00 -5.864984512329101562e+00 8.777968287467956543e-01
-1.719111919403076172e+00 -5.972504615783691406e+00 8.657188415527343750e-01
-1.467214345932006836e+00 -5.894398212432861328e+00 7.867528200149536133e-01
-1.231036782264709473e+00 -5.842793941497802734e+00 7.172925472259521484e-01
-1.006558537483215332e+00 -5.816570281982421875e+00 6.527423858642578125e-01
-1.703418374061584473e+00 -5.910220623016357422e+00 6.301988959312438965e-01
-1.463385343551635742e+00 -5.870272636413574219e+00 5.622996091842651367e-01
-1.229614138603210449e+00 -5.825960159301757812e+00 4.968575537204742432e-01
-1.707103013992309570e+00 -5.915244579315185547e+00 4.056864082813262939e-01
-1.466510176658630371e+00 -5.874070644378662109e+00 3.416717052459716797e-01
-1.239732027053833008e+00 -5.863768100738525391e+00 2.815926969051361084e-01
-1.723011255264282227e+00 -5.966458797454833984e+00 1.843163818120956421e-01
-1.491209268569946289e+00 -5.964142799377441406e+00 1.244830414652824402e-01
-1.826065778732299805e+00 -6.204689025878906250e+00 1.142778992652893066e+00
-1.053140759468078613e+00 -5.888855457305908203e+00 8.823200464248657227e-01
-1.759083747863769531e+00 -5.973245143890380859e+00 8.673744201660156250e-01
-1.508017420768737793e+00 -5.903540611267089844e+00 7.891933321952819824e-01
-1.273815870285034180e+00 -5.867148876190185547e+00 7.212284803390502930e-01
-1.042580366134643555e+00 -5.812241554260253906e+00 6.529622077941894531e-01
-1.743027091026306152e+00 -5.911107540130615234e+00 6.314220428466796875e-01
-1.504312515258789062e+00 -5.880475997924804688e+00 5.641505122184753418e-01
-1.269150376319885254e+00 -5.835833549499511719e+00 4.983543753623962402e-01
-1.746756792068481445e+00 -5.916142463684082031e+00 4.064754247665405273e-01
-1.508967399597167969e+00 -5.890108585357666016e+00 3.431366682052612305e-01
-1.277601480484008789e+00 -5.864834785461425781e+00 2.820150554180145264e-01
-1.764969348907470703e+00 -5.973988056182861328e+00 1.848800480365753174e-01
-1.536721110343933105e+00 -5.989744663238525391e+00 1.252118498086929321e-01
-1.127996563911437988e+00 -6.115345001220703125e+00 1.150286912918090820e+00
-1.861832141876220703e+00 -6.185824394226074219e+00 1.141387104988098145e+00
-1.088533759117126465e+00 -5.878391742706298828e+00 8.817363977432250977e-01
-1.805412888526916504e+00 -5.994583129882812500e+00 8.720651268959045410e-01
-1.548987865447998047e+00 -5.912404060363769531e+00 7.916338443756103516e-01
-1.312824487686157227e+00 -5.872787475585937500e+00 7.228982448577880859e-01
-1.078949928283691406e+00 -5.809643745422363281e+00 6.534017920494079590e-01
-1.785295486450195312e+00 -5.920301914215087891e+00 6.335624456405639648e-01
-1.544156312942504883e+00 -5.885581493377685547e+00 5.655386447906494141e-01
-1.314297318458557129e+00 -5.869751930236816406e+00 5.019300580024719238e-01
-1.785620570182800293e+00 -5.913910865783691406e+00 4.070672094821929932e-01
-1.547363400459289551e+00 -5.889429569244384766e+00 3.436437845230102539e-01
-1.316842436790466309e+00 -5.871505260467529297e+00 2.827190458774566650e-01
-1.793497443199157715e+00 -5.936254501342773438e+00 1.840493977069854736e-01
-1.574207663536071777e+00 -5.983103275299072266e+00 1.252725720405578613e-01
-1.125690102577209473e+00 -5.899675369262695312e+00 1.110998153686523438e+00
-1.902648568153381348e+00 -6.183695793151855469e+00 1.143126964569091797e+00
-1.128490447998046875e+00 -5.892005920410156250e+00 8.848004937171936035e-01
-1.852069854736328125e+00 -6.015577316284179688e+00 8.767559528350830078e-01
-1.588580369949340820e+00 -5.915239334106445312e+00 7.933036684989929199e-01
-1.349724650382995605e+00 -5.868492126464843750e+00 7.233752608299255371e-01
-1.120388865470886230e+00 -5.833173274993896484e+00 6.568089723587036133e-01
-1.822760462760925293e+00 -5.913038730621337891e+00 6.339701414108276367e-01
-1.585670948028564453e+00 -5.896188735961914062e+00 5.674821138381958008e-01
-1.355210185050964355e+00 -5.882941246032714844e+00 5.037595033645629883e-01
-1.118157625198364258e+00 -5.805146217346191406e+00 4.372515678405761719e-01
-1.823051095008850098e+00 -5.906656742095947266e+00 4.073302149772644043e-01
-1.590221524238586426e+00 -5.904890060424804688e+00 3.451087474822998047e-01
-1.355314850807189941e+00 -5.874021530151367188e+00 2.832353115081787109e-01
-1.842275738716125488e+00 -5.965250015258789062e+00 1.852953732013702393e-01
-1.630414128303527832e+00 -6.045729637145996094e+00 1.267909109592437744e-01
-1.458314657211303711e+00 -6.196118831634521484e+00 1.239618420600891113e+00
-1.948825478553771973e+00 -6.198208332061767578e+00 1.147998809814453125e+00
-1.169615268707275391e+00 -5.910203456878662109e+00 8.885941505432128906e-01
-1.890729308128356934e+00 -6.009768486022949219e+00 8.775837421417236328e-01
-1.627213597297668457e+00 -5.913986682891845703e+00 7.944597601890563965e-01
-1.387307047843933105e+00 -5.866863727569580078e+00 7.242102026939392090e-01
-1.156739830970764160e+00 -5.829113483428955078e+00 6.571387052536010742e-01
-1.867675185203552246e+00 -5.929259300231933594e+00 6.369259357452392578e-01
-1.628431439399719238e+00 -5.910346508026123047e+00 5.697957277297973633e-01
-1.391970753669738770e+00 -5.877424240112304688e+00 5.040089488029479980e-01
-1.158621907234191895e+00 -5.822628498077392578e+00 4.390955567359924316e-01
-1.870664000511169434e+00 -5.931521415710449219e+00 4.098287522792816162e-01
-1.631468415260314941e+00 -5.913307666778564453e+00 3.461792469024658203e-01
-1.392714977264404297e+00 -5.871426582336425781e+00 2.835168838500976562e-01
-1.167543172836303711e+00 -5.851453304290771484e+00 2.240066826343536377e-01
-1.881550431251525879e+00 -5.962412357330322266e+00 1.855623573064804077e-01
-1.658160805702209473e+00 -6.001882553100585938e+00 1.260823458433151245e-01
-1.490999102592468262e+00 -6.165111064910888672e+00 1.235221982002258301e+00
-2.001575469970703125e+00 -6.232075214385986328e+00 1.156524419784545898e+00
-1.715559005737304688e+00 -6.096912384033203125e+00 1.055349230766296387e+00
-1.208233714103698730e+00 -5.914546966552734375e+00 8.903450965881347656e-01
-1.934841632843017578e+00 -6.020684242248535156e+00 8.808947801589965820e-01
-1.669387459754943848e+00 -5.924890995025634766e+00 7.972856163978576660e-01
-1.426092028617858887e+00 -5.869818210601806641e+00 7.256414294242858887e-01
-1.195875406265258789e+00 -5.838459491729736328e+00 6.590071320533752441e-01
-1.914076089859008789e+00 -5.948938369750976562e+00 6.402894258499145508e-01
-1.665747523307800293e+00 -5.904076576232910156e+00 5.701659321784973145e-01
-1.429656982421875000e+00 -5.875550746917724609e+00 5.045910477638244629e-01
-1.202552914619445801e+00 -5.855462074279785156e+00 4.421197474002838135e-01
-1.911613225936889648e+00 -5.934178352355957031e+00 4.108150303363800049e-01
-1.670978426933288574e+00 -5.914715766906738281e+00 3.468554019927978516e-01
-1.435573697090148926e+00 -5.890914440155029297e+00 2.848779261112213135e-01
-1.209471464157104492e+00 -5.873542308807373047e+00 2.251321673393249512e-01
-1.918406486511230469e+00 -5.951706886291503906e+00 1.855920404195785522e-01
-1.710196852684020996e+00 -6.045469760894775391e+00 1.272160410881042480e-01
-1.529745697975158691e+00 -6.159657001495361328e+00 1.235986471176147461e+00
-2.046221256256103516e+00 -6.239326477050781250e+00 1.160178184509277344e+00
-1.247153282165527344e+00 -5.919606685638427734e+00 8.922418951988220215e-01
-1.978232383728027344e+00 -6.028461456298828125e+00 8.837919831275939941e-01
-1.713679790496826172e+00 -5.942169666290283203e+00 8.010106682777404785e-01
-1.463763952255249023e+00 -5.867700576782226562e+00 7.264763116836547852e-01
-1.238866567611694336e+00 -5.865048885345458984e+00 6.628538966178894043e-01
-1.957062602043151855e+00 -5.956929206848144531e+00 6.424298882484436035e-01
-1.709401488304138184e+00 -5.919573307037353516e+00 5.726646184921264648e-01
-1.469063401222229004e+00 -5.880203247070312500e+00 5.057552456855773926e-01
-1.238045334815979004e+00 -5.846021652221679688e+00 4.419721961021423340e-01
-1.949547529220581055e+00 -5.927076816558837891e+00 4.111437797546386719e-01
-1.713340282440185547e+00 -5.925452232360839844e+00 3.480949997901916504e-01
-1.475329518318176270e+00 -5.896531105041503906e+00 2.855819165706634521e-01
-1.248601317405700684e+00 -5.880672931671142578e+00 2.256948947906494141e-01
-1.954889297485351562e+00 -5.939823627471923828e+00 1.855920404195785522e-01
-1.752263903617858887e+00 -6.052148818969726562e+00 1.275804489850997925e-01
-1.573572516441345215e+00 -6.173933506011962891e+00 1.240765333175659180e+00
-1.287439703941345215e+00 -5.930211544036865234e+00 8.950142264366149902e-01
-2.033116102218627930e+00 -6.069741725921630859e+00 8.916559219360351562e-01
-1.751511216163635254e+00 -5.936298847198486328e+00 8.016529083251953125e-01
-1.507865190505981445e+00 -5.890349388122558594e+00 7.304122447967529297e-01
-1.273773670196533203e+00 -5.852481365203857422e+00 6.623044013977050781e-01
-1.996107101440429688e+00 -5.952353954315185547e+00 6.432452797889709473e-01
-1.746537566184997559e+00 -5.911838054656982422e+00 5.729422569274902344e-01
-1.509075522422790527e+00 -5.886524200439453125e+00 5.070857405662536621e-01
-1.274530410766601562e+00 -5.841238498687744141e+00 4.421935081481933594e-01
-2.031929016113281250e+00 -6.052165031433105469e+00 4.206777513027191162e-01
-1.757878899574279785e+00 -5.942592144012451172e+00 3.497289717197418213e-01
-1.517443537712097168e+00 -5.910587787628173828e+00 2.867082655429840088e-01
-1.285942196846008301e+00 -5.878758430480957031e+00 2.259199917316436768e-01
-2.002757310867309570e+00 -5.961827754974365234e+00 1.866600215435028076e-01
-1.615149259567260742e+00 -6.178407192230224609e+00 1.243632674217224121e+00
-1.326392292976379395e+00 -5.933785915374755859e+00 8.967651724815368652e-01
-2.075446367263793945e+00 -6.072147369384765625e+00 8.938633203506469727e-01
-1.804518342018127441e+00 -5.980507373809814453e+00 8.091030120849609375e-01
-1.550534486770629883e+00 -5.905954837799072266e+00 7.335132956504821777e-01
-1.311398506164550781e+00 -5.852314472198486328e+00 6.631836295127868652e-01
-2.041288375854492188e+00 -5.965406894683837891e+00 6.459972262382507324e-01
-1.787098407745361328e+00 -5.915307521820068359e+00 5.743303894996643066e-01
-1.546939969062805176e+00 -5.883900165557861328e+00 5.076678395271301270e-01
-1.314063310623168945e+00 -5.849849224090576172e+00 4.434474110603332520e-01
-2.167982339859008789e+00 -6.328441619873046875e+00 4.407977163791656494e-01
-1.794597983360290527e+00 -5.932650089263916016e+00 3.497852981090545654e-01
-1.558005213737487793e+00 -5.917587280273437500e+00 2.875061333179473877e-01
-1.324623703956604004e+00 -5.882456302642822266e+00 2.263701856136322021e-01
-2.065229654312133789e+00 -6.025071144104003906e+00 1.890333145856857300e-01
-1.668781638145446777e+00 -6.227162837982177734e+00 1.255483984947204590e+00
-1.884705662727355957e+00 -6.118019104003906250e+00 1.066689968109130859e+00
-1.364993691444396973e+00 -5.935176849365234375e+00 8.982242345809936523e-01
-2.122773647308349609e+00 -6.088290214538574219e+00 8.981401920318603516e-01
-1.846441507339477539e+00 -5.986380577087402344e+00 8.114150762557983398e-01
-1.590871691703796387e+00 -5.911670207977294922e+00 7.354216575622558594e-01
-1.351525306701660156e+00 -5.862559795379638672e+00 6.652718782424926758e-01
-2.087688446044921875e+00 -5.980946063995361328e+00 6.490550041198730469e-01
-1.828649044036865234e+00 -5.921355724334716797e+00 5.759962201118469238e-01
-1.587421774864196777e+00 -5.890655040740966797e+00 5.090814828872680664e-01
-1.352402567863464355e+00 -5.852364540100097656e+00 4.442587792873382568e-01
-2.204468011856079102e+00 -6.308425903320312500e+00 4.403374493122100830e-01
-1.834800362586975098e+00 -5.933927059173583984e+00 3.505177795886993408e-01
-1.601052045822143555e+00 -5.932990550994873047e+00 2.887263596057891846e-01
-1.362045884132385254e+00 -5.880058765411376953e+00 2.265952825546264648e-01
-2.088303804397583008e+00 -5.972656726837158203e+00 1.877873390913009644e-01
-1.872828960418701172e+00 -6.049431800842285156e+00 1.282282620668411255e-01
-1.700721979141235352e+00 -6.194089412689208984e+00 1.250896334648132324e+00
-1.950346827507019043e+00 -6.195724010467529297e+00 1.082304120063781738e+00
-1.409125447273254395e+00 -5.959423065185546875e+00 9.031851887702941895e-01
-2.163077116012573242e+00 -6.083549499511718750e+00 8.993818759918212891e-01
-1.884927153587341309e+00 -5.980613708496093750e+00 8.121858239173889160e-01
-1.630809426307678223e+00 -5.915197372436523438e+00 7.370914220809936523e-01
-1.391139268875122070e+00 -5.869630813598632812e+00 6.670303940773010254e-01
-2.131352901458740234e+00 -5.987704753875732422e+00 6.511954069137573242e-01
-1.869142293930053711e+00 -5.923317432403564453e+00 5.772918462753295898e-01
-1.626453399658203125e+00 -5.891370296478271484e+00 5.099961757659912109e-01
-1.392435431480407715e+00 -5.861421585083007812e+00 4.455864727497100830e-01
-2.164087057113647461e+00 -6.072955131530761719e+00 4.248200953006744385e-01
-1.880199313163757324e+00 -5.951117992401123047e+00 3.522081077098846436e-01
-1.641418457031250000e+00 -5.937496662139892578e+00 2.894303500652313232e-01
-1.405275106430053711e+00 -5.901726245880126953e+00 2.277582585811614990e-01
-2.128940343856811523e+00 -5.971028804779052734e+00 1.881433278322219849e-01
-1.899358630180358887e+00 -6.004463195800781250e+00 1.275197118520736694e-01
-1.996478915214538574e+00 -6.208994388580322266e+00 1.086741805076599121e+00
-1.693225502967834473e+00 -6.017793655395507812e+00 9.811895489692687988e-01
-1.450569868087768555e+00 -5.970852851867675781e+00 9.062493443489074707e-01
-2.216903448104858398e+00 -6.115788936614990234e+00 9.061420559883117676e-01
-1.925842642784118652e+00 -5.982151031494140625e+00 8.139840960502624512e-01
-1.673277974128723145e+00 -5.927056312561035156e+00 7.398346066474914551e-01
-1.428304314613342285e+00 -5.865813255310058594e+00 6.675799489021301270e-01
-2.180947780609130859e+00 -6.010048866271972656e+00 6.550685167312622070e-01
-1.912782788276672363e+00 -5.934481620788574219e+00 5.795128941535949707e-01
-1.672601699829101562e+00 -5.916760921478271484e+00 5.130729675292968750e-01
-1.432630300521850586e+00 -5.870206356048583984e+00 4.469141662120819092e-01
-2.206760406494140625e+00 -6.074567794799804688e+00 4.258721172809600830e-01
-1.924957990646362305e+00 -5.965123653411865234e+00 3.537293970584869385e-01
-1.687613606452941895e+00 -5.961914062500000000e+00 2.911198735237121582e-01
-1.447396874427795410e+00 -5.917259216308593750e+00 2.286961674690246582e-01
-2.207878589630126953e+00 -6.074342250823974609e+00 1.918219327926635742e-01
-1.932477116584777832e+00 -5.981279373168945312e+00 1.272767782211303711e-01
-2.043462514877319336e+00 -6.223805427551269531e+00 1.091508269309997559e+00
-1.494122743606567383e+00 -5.989676475524902344e+00 9.104807376861572266e-01
-2.277041196823120117e+00 -6.163389205932617188e+00 9.152476191520690918e-01
-1.969015717506408691e+00 -5.990006446838378906e+00 8.166815042495727539e-01
-1.711543560028076172e+00 -5.923355102539062500e+00 7.406695485115051270e-01
-1.466197967529296875e+00 -5.864652633666992188e+00 6.684591770172119141e-01
-2.224339723587036133e+00 -6.014280796051025391e+00 6.570050716400146484e-01
-1.952895283699035645e+00 -5.933982849121093750e+00 5.806233882904052734e-01
-1.712198376655578613e+00 -5.917874336242675781e+00 5.140708088874816895e-01
-1.471046090126037598e+00 -5.870978832244873047e+00 4.476517736911773682e-01
-2.304967880249023438e+00 -6.225606918334960938e+00 4.374443888664245605e-01
-1.968396782875061035e+00 -5.974061489105224609e+00 3.549689650535583496e-01
-1.731112360954284668e+00 -5.975432872772216797e+00 2.922931909561157227e-01
-1.486597895622253418e+00 -5.919897556304931641e+00 2.291463464498519897e-01
-2.224622964859008789e+00 -6.005379199981689453e+00 1.900716423988342285e-01
-1.966322302818298340e+00 -5.960764408111572266e+00 1.270945817232131958e-01
-2.085373878479003906e+00 -6.222373485565185547e+00 1.093480587005615234e+00
-1.529865264892578125e+00 -5.976562023162841797e+00 9.098970293998718262e-01
-2.321794748306274414e+00 -6.167840003967285156e+00 9.180068969726562500e-01
-2.011410951614379883e+00 -5.994735717773437500e+00 8.189936280250549316e-01
-1.748982191085815430e+00 -5.916549682617187500e+00 7.411466240882873535e-01
-1.507835865020751953e+00 -5.877689838409423828e+00 6.709871292114257812e-01
-2.267164468765258789e+00 -6.016344547271728516e+00 6.587377786636352539e-01
-2.024780035018920898e+00 -6.027602672576904297e+00 5.909883975982666016e-01
-1.752720117568969727e+00 -5.921590328216552734e+00 5.153182148933410645e-01
-1.512505054473876953e+00 -5.883091449737548828e+00 4.492744803428649902e-01
-2.291704416275024414e+00 -6.075038433074951172e+00 4.278446733951568604e-01
-2.040342330932617188e+00 -6.066914081573486328e+00 3.612231910228729248e-01
-1.765757441520690918e+00 -5.957994461059570312e+00 2.919646799564361572e-01
-1.524639010429382324e+00 -5.917438030242919922e+00 2.294089645147323608e-01
-2.258605480194091797e+00 -5.984134674072265625e+00 1.898342967033386230e-01
-1.995841264724731445e+00 -5.927741527557373047e+00 1.266492009162902832e-01
-2.127344608306884766e+00 -6.220660686492919922e+00 1.095452904701232910e+00
-1.577561020851135254e+00 -6.009165287017822266e+00 9.163171052932739258e-01
-2.368816137313842773e+00 -6.177522182464599609e+00 9.215939044952392578e-01
-2.058435440063476562e+00 -6.012305259704589844e+00 8.231040239334106445e-01
-1.798180818557739258e+00 -5.948474407196044922e+00 7.465137839317321777e-01
-1.551964521408081055e+00 -5.899086475372314453e+00 6.745041012763977051e-01
-2.314019203186035156e+00 -6.028324604034423828e+00 6.615916490554809570e-01
-2.090137720108032227e+00 -6.097954273223876953e+00 5.991322994232177734e-01
-1.792485475540161133e+00 -5.922169685363769531e+00 5.163160562515258789e-01
-1.555947542190551758e+00 -5.901665687561035156e+00 4.514135420322418213e-01
-2.310325622558593750e+00 -6.012427806854248047e+00 4.244256019592285156e-01
-2.068456411361694336e+00 -6.027838706970214844e+00 3.596455454826354980e-01
-1.798805236816406250e+00 -5.935576438903808594e+00 2.914014756679534912e-01
-1.563471674919128418e+00 -5.917633533477783203e+00 2.297841310501098633e-01
-2.316443920135498047e+00 -6.025209426879882812e+00 1.915846168994903564e-01
-1.654001235961914062e+00 -6.163671493530273438e+00 1.180481076240539551e+00
-2.177170276641845703e+00 -6.241019248962402344e+00 1.101369738578796387e+00
-1.615945219993591309e+00 -6.005104541778564453e+00 9.171925783157348633e-01
-2.423609256744384766e+00 -6.206232547760009766e+00 9.280781745910644531e-01
-2.108366727828979492e+00 -6.037012100219726562e+00 8.282420039176940918e-01
-1.836404919624328613e+00 -5.943020820617675781e+00 7.472293972969055176e-01
-1.595894932746887207e+00 -5.918242931365966797e+00 6.778013706207275391e-01
-2.359295129776000977e+00 -6.035322666168212891e+00 6.639359593391418457e-01
-2.096295118331909180e+00 -5.995722293853759766e+00 5.903405547142028809e-01
-1.836447477340698242e+00 -5.935812473297119141e+00 5.184780955314636230e-01
-1.592650413513183594e+00 -5.893932819366455078e+00 4.515610635280609131e-01
-2.369354486465454102e+00 -6.054821491241455078e+00 4.284364283084869385e-01
-2.110681056976318359e+00 -6.030110836029052734e+00 3.605470657348632812e-01
-1.844058632850646973e+00 -5.953052520751953125e+00 2.928094565868377686e-01
-1.607848763465881348e+00 -5.937829971313476562e+00 2.309471070766448975e-01
-2.365760326385498047e+00 -6.042528629302978516e+00 1.925932615995407104e-01
-2.103480577468872070e+00 -6.002818584442138672e+00 1.287951171398162842e-01
-1.708472967147827148e+00 -6.214087486267089844e+00 1.192122220993041992e+00
-1.657757163047790527e+00 -6.013196945190429688e+00 9.199649095535278320e-01
-2.466767549514770508e+00 -6.204129695892333984e+00 9.300096631050109863e-01
-2.151691198348999023e+00 -6.041712284088134766e+00 8.306825160980224609e-01
-1.875227451324462891e+00 -5.939215183258056641e+00 7.481835484504699707e-01
-1.636413097381591797e+00 -5.923667907714843750e+00 6.795598864555358887e-01
-2.402536392211914062e+00 -6.036444664001464844e+00 6.656686067581176758e-01
-2.145417213439941406e+00 -6.017448902130126953e+00 5.937647223472595215e-01
-1.881845712661743164e+00 -5.952938079833984375e+00 5.209727883338928223e-01
-1.633839964866638184e+00 -5.902310848236083984e+00 4.529625177383422852e-01
-2.410524129867553711e+00 -6.050365924835205078e+00 4.291597008705139160e-01
-2.156702995300292969e+00 -6.042434692382812500e+00 3.620683550834655762e-01
-1.885072350502014160e+00 -5.955910682678222656e+00 2.935134172439575195e-01
-1.648525953292846680e+00 -5.943259716033935547e+00 2.315473705530166626e-01
-2.401681661605834961e+00 -6.025113582611083984e+00 1.925042718648910522e-01
-2.136236429214477539e+00 -5.978500843048095703e+00 1.285521835088729858e-01
-1.905580282211303711e+00 -6.009766101837158203e+00 6.712497025728225708e-02
-1.748968124389648438e+00 -6.212006092071533203e+00 1.193759202957153320e+00
-1.981313824653625488e+00 -6.162062168121337891e+00 1.015922069549560547e+00
-1.703222990036010742e+00 -6.033378601074218750e+00 9.246340394020080566e-01
-2.536372661590576172e+00 -6.266914844512939453e+00 9.417365193367004395e-01
-2.194813728332519531e+00 -6.045175075531005859e+00 8.329945802688598633e-01
-1.927176237106323242e+00 -5.975789070129394531e+00 7.542663812637329102e-01
-1.671647071838378906e+00 -5.909689903259277344e+00 6.791202425956726074e-01
-2.449615478515625000e+00 -6.046483516693115234e+00 6.684206128120422363e-01
-2.207468986511230469e+00 -6.073421478271484375e+00 6.006129980087280273e-01
-1.931809663772583008e+00 -5.983006000518798828e+00 5.246316790580749512e-01
-1.680902957916259766e+00 -5.930553913116455078e+00 4.559129178524017334e-01
-2.470477819442749023e+00 -6.091867446899414062e+00 4.331705272197723389e-01
-2.202272891998291016e+00 -6.052543640136718750e+00 3.634769618511199951e-01
-1.930492162704467773e+00 -5.971795558929443359e+00 2.948744595050811768e-01
-1.693152070045471191e+00 -5.961871147155761719e+00 2.326728254556655884e-01
-2.452510833740234375e+00 -6.044534206390380859e+00 1.936019212007522583e-01
-1.932869315147399902e+00 -5.968470096588134766e+00 6.679493188858032227e-02
-1.791952610015869141e+00 -6.218165397644042969e+00 1.197033286094665527e+00
-2.022167682647705078e+00 -6.159174919128417969e+00 1.017472505569458008e+00
-1.741584062576293945e+00 -6.027566432952880859e+00 9.253636002540588379e-01
-2.595901489257812500e+00 -6.302519321441650391e+00 9.494625329971313477e-01
-2.236683130264282227e+00 -6.044615268707275391e+00 8.347928524017333984e-01
-1.970638394355773926e+00 -5.984598636627197266e+00 7.568902969360351562e-01
-1.713681221008300781e+00 -5.919371128082275391e+00 6.814283132553100586e-01
-2.509041547775268555e+00 -6.085600852966308594e+00 6.744341254234313965e-01
-2.271671056747436523e+00 -6.132591724395751953e+00 6.078314781188964844e-01
-1.951323509216308594e+00 -5.918985843658447266e+00 5.200580954551696777e-01
-1.718649744987487793e+00 -5.924917697906494141e+00 4.562817215919494629e-01
-2.541689395904541016e+00 -6.158685684204101562e+00 4.390224218368530273e-01
-2.253254413604736328e+00 -6.076361656188964844e+00 3.657307326793670654e-01
-1.974925041198730469e+00 -5.983551979064941406e+00 2.960477471351623535e-01
-1.732490539550781250e+00 -5.960965633392333984e+00 2.330479919910430908e-01
-1.976988554000854492e+00 -5.979283332824707031e+00 6.705044955015182495e-02
-1.830628991127014160e+00 -6.208939552307128906e+00 1.197396993637084961e+00
-2.066200017929077148e+00 -6.165385246276855469e+00 1.020573616027832031e+00
-1.790314078330993652e+00 -6.056612968444824219e+00 9.314917922019958496e-01
-2.643328666687011719e+00 -6.307481765747070312e+00 9.526356458663940430e-01
-2.288074493408203125e+00 -6.068823814392089844e+00 8.400593400001525879e-01
-2.014913558959960938e+00 -5.994981288909912109e+00 7.597528100013732910e-01
-1.753638863563537598e+00 -5.921133995056152344e+00 6.828570961952209473e-01
-2.559033870697021484e+00 -6.100363731384277344e+00 6.777976155281066895e-01
-2.304334878921508789e+00 -6.105495452880859375e+00 6.065358519554138184e-01
-2.014301300048828125e+00 -5.986239433288574219e+00 5.270431637763977051e-01
-1.756957888603210449e+00 -5.920953273773193359e+00 4.567980468273162842e-01
-2.565136671066284180e+00 -6.108933448791503906e+00 4.365895986557006836e-01
-2.276381015777587891e+00 -6.025062561035156250e+00 3.634769618511199951e-01
-2.010645627975463867e+00 -5.968481540679931641e+00 2.959069609642028809e-01
-1.777292251586914062e+00 -5.978001117706298828e+00 2.341359406709671021e-01
-2.256529808044433594e+00 -5.966220855712890625e+00 1.291595101356506348e-01
-2.013639450073242188e+00 -5.967040061950683594e+00 6.705044955015182495e-02
-1.863866209983825684e+00 -6.181585788726806641e+00 1.194304943084716797e+00
-2.118695497512817383e+00 -6.195590019226074219e+00 1.027706146240234375e+00
-1.835458159446716309e+00 -6.072029113769531250e+00 9.355772733688354492e-01
-2.706839323043823242e+00 -6.349454402923583984e+00 9.614652991294860840e-01
-2.343757390975952148e+00 -6.102811336517333984e+00 8.467386960983276367e-01
-2.054558992385864258e+00 -5.990957736968994141e+00 7.608262300491333008e-01
-1.797427654266357422e+00 -5.934995651245117188e+00 6.857147216796875000e-01
-2.615157842636108398e+00 -6.128465652465820312e+00 6.826900243759155273e-01
-2.361048460006713867e+00 -6.141428470611572266e+00 6.115332245826721191e-01
-2.055524826049804688e+00 -5.986962795257568359e+00 5.282073616981506348e-01
-1.800204634666442871e+00 -5.932964801788330078e+00 4.585683047771453857e-01
-2.608843326568603516e+00 -6.107760906219482422e+00 4.376416206359863281e-01
-2.324065208435058594e+00 -6.038935184478759766e+00 3.651672899723052979e-01
-2.062815189361572266e+00 -6.001375198364257812e+00 2.981597185134887695e-01
-1.814811110496520996e+00 -5.969851970672607422e+00 2.342485040426254272e-01
-2.318973541259765625e+00 -6.019435882568359375e+00 1.306171119213104248e-01
-2.059004068374633789e+00 -5.980100154876708984e+00 6.733790040016174316e-02
-2.164155006408691406e+00 -6.203927516937255859e+00 1.031272530555725098e+00
-1.877061843872070312e+00 -6.074831008911132812e+00 9.377660155296325684e-01
-2.388383865356445312e+00 -6.106787204742431641e+00 8.493077158927917480e-01
-2.094558477401733398e+00 -5.987610340118408203e+00 7.620189189910888672e-01
-1.838219165802001953e+00 -5.938097476959228516e+00 6.873633265495300293e-01
-2.675286769866943359e+00 -6.164319515228271484e+00 6.884996891021728516e-01
-2.359483480453491211e+00 -6.026690483093261719e+00 6.015384793281555176e-01
-2.084645748138427734e+00 -5.952605724334716797e+00 5.262948274612426758e-01
-1.837756276130676270e+00 -5.925617218017578125e+00 4.588633477687835693e-01
-2.670125484466552734e+00 -6.146551609039306641e+00 4.415867328643798828e-01
-2.370183467864990234e+00 -6.047801017761230469e+00 3.665759265422821045e-01
-2.112158775329589844e+00 -6.024425506591796875e+00 2.999431192874908447e-01
-1.854075789451599121e+00 -5.967192173004150391e+00 2.345861345529556274e-01
-2.364992856979370117e+00 -6.028361797332763672e+00 1.311232149600982666e-01
-2.090688705444335938e+00 -5.953201770782470703e+00 6.717820465564727783e-02
-2.206485271453857422e+00 -6.202631950378417969e+00 1.033288240432739258e+00
-1.923832178115844727e+00 -6.093387126922607422e+00 9.424350857734680176e-01
-2.435348272323608398e+00 -6.115972518920898438e+00 8.526473641395568848e-01
-2.141265869140625000e+00 -6.002699851989746094e+00 7.655970454216003418e-01
-1.879116415977478027e+00 -5.940921783447265625e+00 6.890119910240173340e-01
-2.720289468765258789e+00 -6.164170265197753906e+00 6.903343796730041504e-01
-2.404897689819335938e+00 -6.033372879028320312e+00 6.036669611930847168e-01
-2.149953365325927734e+00 -6.020412445068359375e+00 5.334461927413940430e-01
-1.895469427108764648e+00 -5.981728553771972656e+00 4.641003310680389404e-01
-2.721498012542724609e+00 -6.161085605621337891e+00 4.438222646713256836e-01
-2.418717384338378906e+00 -6.061890602111816406e+00 3.683225810527801514e-01
-2.155137062072753906e+00 -6.028283119201660156e+00 3.007879257202148438e-01
-1.885212421417236328e+00 -5.938559532165527344e+00 2.339108437299728394e-01
-2.401937723159790039e+00 -6.013737201690673828e+00 1.311232149600982666e-01
-2.261342763900756836e+00 -6.235412120819091797e+00 1.041040897369384766e+00
-1.970597028732299805e+00 -6.110656261444091797e+00 9.469583034515380859e-01
-2.489220380783081055e+00 -6.141354084014892578e+00 8.582991361618041992e-01
-2.182129144668579102e+00 -6.000645160675048828e+00 7.670282721519470215e-01
-1.923783779144287109e+00 -5.954816818237304688e+00 6.919794678688049316e-01
-2.769462823867797852e+00 -6.172776222229003906e+00 6.931882500648498535e-01
-2.453477382659912109e+00 -6.047105312347412109e+00 6.065358519554138184e-01
-2.165035963058471680e+00 -5.947176456451416016e+00 5.281242132186889648e-01
-1.922617435455322266e+00 -5.940571784973144531e+00 4.618137478828430176e-01
-2.777645587921142578e+00 -6.185232639312744141e+00 4.467810988426208496e-01
-2.476905345916748047e+00 -6.098737239837646484e+00 3.714778721332550049e-01
-2.183876514434814453e+00 -5.992421627044677734e+00 2.996615469455718994e-01
-1.936408877372741699e+00 -5.972508430480957031e+00 2.357116192579269409e-01
-2.188273668289184570e+00 -5.994728565216064453e+00 6.794473528861999512e-02
-1.969188570976257324e+00 -6.066392898559570312e+00 7.792195305228233337e-03
-2.302984952926635742e+00 -6.230685710906982422e+00 1.042591452598571777e+00
-2.010838747024536133e+00 -6.106906890869140625e+00 9.482714533805847168e-01
-2.544629573822021484e+00 -6.169054031372070312e+00 8.643362522125244141e-01
-2.236849069595336914e+00 -6.035553932189941406e+00 7.732303738594055176e-01
-1.971494317054748535e+00 -5.976881504058837891e+00 6.959361433982849121e-01
-2.832878351211547852e+00 -6.211784362792968750e+00 6.995075941085815430e-01
-2.507255554199218750e+00 -6.072432518005371094e+00 6.106078028678894043e-01
-2.230257272720336914e+00 -6.011327743530273438e+00 5.350261926651000977e-01
-1.956841707229614258e+00 -5.922034740447998047e+00 4.612974226474761963e-01
-2.844549894332885742e+00 -6.231614112854003906e+00 4.513836801052093506e-01
-2.530678272247314453e+00 -6.123100757598876953e+00 3.739006519317626953e-01
-2.222343206405639648e+00 -5.983590602874755859e+00 2.998962104320526123e-01
-2.002851247787475586e+00 -6.050638198852539062e+00 2.392756044864654541e-01
-2.245933771133422852e+00 -6.037420749664306641e+00 6.858351826667785645e-02
-1.982780933380126953e+00 -5.983004093170166016e+00 7.700565736740827560e-03
-2.070018768310546875e+00 -6.159158706665039062e+00 9.583393335342407227e-01
-2.600855588912963867e+00 -6.197217941284179688e+00 8.705018162727355957e-01
-2.283310413360595703e+00 -6.046794414520263672e+00 7.764506340026855469e-01
-2.011936426162719727e+00 -5.975975990295410156e+00 6.972550749778747559e-01
-2.897712469100952148e+00 -6.252049446105957031e+00 7.060307860374450684e-01
-2.560665130615234375e+00 -6.095489978790283203e+00 6.144946813583374023e-01
-2.280489921569824219e+00 -6.032951831817626953e+00 5.381860733032226562e-01
-2.004933595657348633e+00 -5.944880485534667969e+00 4.640265703201293945e-01
-2.899529457092285156e+00 -6.250250339508056641e+00 4.540137350559234619e-01
-2.565492153167724609e+00 -6.101015090942382812e+00 3.735062479972839355e-01
-2.266793489456176758e+00 -5.990395545959472656e+00 3.009287118911743164e-01
-2.031623840332031250e+00 -6.013619899749755859e+00 2.383002042770385742e-01
-2.289315462112426758e+00 -6.040357112884521484e+00 6.877514719963073730e-02
-2.020736217498779297e+00 -5.974514007568359375e+00 7.705452386289834976e-03
-2.108734369277954102e+00 -6.149148464202880859e+00 9.587770104408264160e-01
-2.658301115036010742e+00 -6.226746559143066406e+00 8.769242763519287109e-01
-2.327498435974121094e+00 -6.051203727722167969e+00 7.788360714912414551e-01
-2.053732872009277344e+00 -5.978558540344238281e+00 6.990135312080383301e-01
-2.939410448074340820e+00 -6.241351127624511719e+00 7.068461179733276367e-01
-2.614451169967651367e+00 -6.118118762969970703e+00 6.183815002441406250e-01
-2.342529773712158203e+00 -6.083944320678710938e+00 5.440070033073425293e-01
-2.041373014450073242e+00 -5.932466506958007812e+00 4.640265703201293945e-01
-2.952291488647460938e+00 -6.263029098510742188e+00 4.562492668628692627e-01
-2.607590675354003906e+00 -6.096174240112304688e+00 3.741823732852935791e-01
-2.368531227111816406e+00 -6.145076751708984375e+00 3.094234168529510498e-01
-2.071089506149291992e+00 -6.008598804473876953e+00 2.386003285646438599e-01
-2.323454141616821289e+00 -6.018733024597167969e+00 6.868997961282730103e-02
-2.055726051330566406e+00 -5.957276344299316406e+00 7.699344307184219360e-03
-2.146752119064331055e+00 -6.137028217315673828e+00 9.589229822158813477e-01
-2.722525596618652344e+00 -6.270356178283691406e+00 8.854019641876220703e-01
-2.379430532455444336e+00 -6.074711799621582031e+00 7.837261557579040527e-01
-2.094322204589843750e+00 -5.977100849151611328e+00 7.003324627876281738e-01
-2.660276651382446289e+00 -6.121139049530029297e+00 6.203249692916870117e-01
-2.418376207351684570e+00 -6.167799472808837891e+00 5.528215765953063965e-01
-2.085331678390502930e+00 -5.941472053527832031e+00 4.657230377197265625e-01
-2.673622846603393555e+00 -6.145978450775146484e+00 3.782391548156738281e-01
-2.368966102600097656e+00 -6.035584449768066406e+00 3.046363294124603271e-01
-2.103941440582275391e+00 -5.984465122222900391e+00 2.381501495838165283e-01
-2.347902536392211914e+00 -5.972722530364990234e+00 6.832800060510635376e-02
-2.099212408065795898e+00 -5.964359283447265625e+00 7.725000381469726562e-03
-2.205971956253051758e+00 -6.184306621551513672e+00 9.684070944786071777e-01
-2.779373407363891602e+00 -6.295265674591064453e+00 8.913106322288513184e-01
-2.427692890167236328e+00 -6.087665081024169922e+00 7.873042821884155273e-01
-2.140321493148803711e+00 -5.990345478057861328e+00 7.034098505973815918e-01
-2.713079214096069336e+00 -6.139308452606201172e+00 6.238416433334350586e-01
-2.445091724395751953e+00 -6.125079154968261719e+00 5.503268837928771973e-01
-2.144935369491577148e+00 -5.993352890014648438e+00 4.708125293254852295e-01
-2.729054689407348633e+00 -6.169632911682128906e+00 3.807183206081390381e-01
-2.414850950241088867e+00 -6.043197154998779297e+00 3.057627081871032715e-01
-2.159168481826782227e+00 -6.023180484771728516e+00 2.402135133743286133e-01
-2.145565032958984375e+00 -5.978662014007568359e+00 7.760430220514535904e-03
-2.254019260406494141e+00 -6.198546886444091797e+00 9.727844595909118652e-01
-2.849218130111694336e+00 -6.347759723663330078e+00 9.012012481689453125e-01
-2.486285924911499023e+00 -6.125092029571533203e+00 7.941027283668518066e-01
-2.186221837997436523e+00 -6.002316474914550781e+00 7.063773870468139648e-01
-2.782118320465087891e+00 -6.192481517791748047e+00 6.309675574302673340e-01
-2.458620071411132812e+00 -6.050874233245849609e+00 5.450049042701721191e-01
-2.206962347030639648e+00 -6.049407958984375000e+00 4.762707948684692383e-01
-2.783238649368286133e+00 -6.189194679260253906e+00 3.829720914363861084e-01
-2.465434312820434570e+00 -6.061576366424560547e+00 3.074522614479064941e-01
-2.185110092163085938e+00 -5.979783535003662109e+00 2.390130013227462769e-01
-2.200417041778564453e+00 -6.015158653259277344e+00 7.825181819498538971e-03
-2.301292419433593750e+00 -6.209645748138427734e+00 9.767240285873413086e-01
-2.533298492431640625e+00 -6.132662296295166016e+00 7.970844507217407227e-01
-2.234770298004150391e+00 -6.020470619201660156e+00 7.101142406463623047e-01
-2.827094078063964844e+00 -6.190691471099853516e+00 6.325408220291137695e-01
-2.499128341674804688e+00 -6.043962478637695312e+00 5.457533001899719238e-01
-2.246124505996704102e+00 -6.041360855102539062e+00 4.767133593559265137e-01
-2.854367256164550781e+00 -6.244644165039062500e+00 3.874796330928802490e-01
-2.537726402282714844e+00 -6.131247520446777344e+00 3.117700219154357910e-01
-2.219319105148315430e+00 -5.959708213806152344e+00 2.387503981590270996e-01
-2.259988546371459961e+00 -6.062449455261230469e+00 7.904594764113426208e-03
-2.355426549911499023e+00 -6.237982273101806641e+00 9.834359288215637207e-01
-2.584728956222534180e+00 -6.149953842163085938e+00 8.013781905174255371e-01
-2.283271789550781250e+00 -6.037324428558349609e+00 7.137412428855895996e-01
-2.900236368179321289e+00 -6.249094963073730469e+00 6.403145194053649902e-01
-2.568626642227172852e+00 -6.105673789978027344e+00 5.527384281158447266e-01
-2.299048185348510742e+00 -6.069432735443115234e+00 4.800325930118560791e-01
-2.905669212341308594e+00 -6.255082607269287109e+00 3.892263174057006836e-01
-2.581501960754394531e+00 -6.130290508270263672e+00 3.125209510326385498e-01
-2.323194742202758789e+00 -6.123498439788818359e+00 2.458783984184265137e-01
-2.290753602981567383e+00 -6.031641006469726562e+00 7.882603444159030914e-03
-2.401470661163330078e+00 -6.243725776672363281e+00 9.866458773612976074e-01
-2.645053148269653320e+00 -6.186928749084472656e+00 8.082959055900573730e-01
-2.323131322860717773e+00 -6.030620574951171875e+00 7.146204710006713867e-01
-2.986941814422607422e+00 -6.333849430084228516e+00 6.508646011352539062e-01
-2.626037359237670898e+00 -6.136522769927978516e+00 5.569794178009033203e-01
-2.347374677658081055e+00 -6.084055423736572266e+00 4.823191463947296143e-01
-2.950387477874755859e+00 -6.250679016113281250e+00 3.900714814662933350e-01
-2.641487121582031250e+00 -6.166673183441162109e+00 3.151960968971252441e-01
-2.354600667953491211e+00 -6.093281745910644531e+00 2.452406138181686401e-01
-2.630770921707153320e+00 -6.800899505615234375e+00 8.908856660127639771e-03
-2.448034763336181641e+00 -6.250060081481933594e+00 9.900018572807312012e-01
-2.715428829193115234e+00 -6.245244979858398438e+00 8.180760145187377930e-01
-2.379328727722167969e+00 -6.065293312072753906e+00 7.204455733299255371e-01
-2.662050247192382812e+00 -6.116639137268066406e+00 5.566467642784118652e-01
-2.420765161514282227e+00 -6.161429882049560547e+00 4.896214306354522705e-01
-2.686456203460693359e+00 -6.166832923889160156e+00 3.160408437252044678e-01
-2.364500999450683594e+00 -6.008977890014648438e+00 2.424269467592239380e-01
-2.755705118179321289e+00 -6.233006000518798828e+00 8.186724185943603516e-01
-2.422398328781127930e+00 -6.065348148345947266e+00 7.222040891647338867e-01
-2.728566884994506836e+00 -6.165802955627441406e+00 5.626339912414550781e-01
-2.468155145645141602e+00 -6.170535087585449219e+00 4.915392100811004639e-01
-2.733549356460571289e+00 -6.171239376068115234e+00 3.171202838420867920e-01
-2.435142993927001953e+00 -6.078770637512207031e+00 2.458408772945404053e-01
-2.782501220703125000e+00 -6.190623760223388672e+00 8.153328299522399902e-01
-2.468552350997924805e+00 -6.072469234466552734e+00 7.248418927192687988e-01
-2.801510095596313477e+00 -6.227101325988769531e+00 5.697854161262512207e-01
-2.473630428314208984e+00 -6.075839996337890625e+00 4.851958155632019043e-01
-2.785718917846679688e+00 -6.186228752136230469e+00 3.187628984451293945e-01
-2.488242149353027344e+00 -6.102578639984130859e+00 2.474165409803390503e-01
-2.519824028015136719e+00 -6.091191291809082031e+00 7.289084792137145996e-01
-2.853342294692993164e+00 -6.239701747894287109e+00 5.725295543670654297e-01
-2.515063047409057617e+00 -6.070682048797607422e+00 4.860071539878845215e-01
-2.874343395233154297e+00 -6.279829502105712891e+00 3.244886398315429688e-01
-2.537511825561523438e+00 -6.115809440612792969e+00 2.485795319080352783e-01
-2.575273513793945312e+00 -6.118671894073486328e+00 7.340741753578186035e-01
-2.904594182968139648e+00 -6.250091552734375000e+00 5.751073956489562988e-01
-2.584027767181396484e+00 -6.130491733551025391e+00 4.920555353164672852e-01
-2.911978721618652344e+00 -6.260262966156005859e+00 3.243947625160217285e-01
-2.581596374511718750e+00 -6.115774631500244141e+00 2.492172867059707642e-01
-2.641716718673706055e+00 -6.170370578765869141e+00 7.422073483467102051e-01
-2.636921405792236328e+00 -6.150267601013183594e+00 4.949321746826171875e-01
-2.658499717712402344e+00 -6.191642761230468750e+00 2.529688775539398193e-01
-2.693415164947509766e+00 -6.185940742492675781e+00 7.460540533065795898e-01
-2.679392099380493164e+00 -6.144941806793212891e+00 4.958172738552093506e-01
-2.712036609649658203e+00 -6.210930347442626953e+00 2.544319927692413330e-01
-2.751037120819091797e+00 -6.213831901550292969e+00 7.514395713806152344e-01
-2.744936466217041016e+00 -6.191292285919189453e+00 5.009067654609680176e-01
-2.764287471771240234e+00 -6.226138591766357422e+00 2.557450532913208008e-01
-3.092884063720703125e+00 -6.959701061248779297e+00 9.304697625339031219e-03
-2.800943136215209961e+00 -6.223119258880615234e+00 7.546268701553344727e-01
-2.790250062942504883e+00 -6.190699100494384766e+00 5.022344589233398438e-01
-2.853825092315673828e+00 -6.322912693023681641e+00 2.604345083236694336e-01
-2.862644195556640625e+00 -6.257335186004638672e+00 7.608916759490966797e-01
-2.865565299987792969e+00 -6.255061149597167969e+00 5.088728666305541992e-01
-2.923253774642944336e+00 -6.278948783874511719e+00 5.122658610343933105e-01
-3.387534141540527344e+00 -6.817792892456054688e+00 9.301031939685344696e-03
-3.437411785125732422e+00 -6.812949657440185547e+00 9.323023259639739990e-03
-3.932468652725219727e+00 -6.926530361175537109e+00 9.731081314384937286e-03
-1.415623784065246582e+00 -1.937972307205200195e+00 7.122865319252014160e-02
-3.972399950027465820e+00 -6.897938251495361328e+00 9.724972769618034363e-03
-1.421723484992980957e+00 -1.922160267829895020e+00 1.575404703617095947e-01
-1.429271936416625977e+00 -1.931660294532775879e+00 7.131765037775039673e-02
-3.907222747802734375e+00 -6.689509391784667969e+00 9.464743547141551971e-03
-1.435285806655883789e+00 -1.915796279907226562e+00 1.577377319335937500e-01
-1.423713207244873047e+00 -1.899658322334289551e+00 7.045733183622360229e-02
-3.691845655441284180e+00 -6.232635021209716797e+00 8.850214071571826935e-03
-1.449426531791687012e+00 -1.910133004188537598e+00 1.580007225275039673e-01
-1.440177321434020996e+00 -1.897256135940551758e+00 7.069466263055801392e-02
-4.062136650085449219e+00 -6.762786388397216797e+00 9.638229385018348694e-03
-1.455039262771606445e+00 -1.893291711807250977e+00 1.573432087898254395e-01
-1.441434741020202637e+00 -1.874912261962890625e+00 7.019034028053283691e-02
-4.106156826019287109e+00 -6.742004871368408203e+00 9.644338861107826233e-03
-1.457210421562194824e+00 -1.871553301811218262e+00 7.039800286293029785e-02
-1.359133005142211914e+00 -1.882081747055053711e+00 4.700758308172225952e-02
-4.148498535156250000e+00 -6.718384742736816406e+00 9.646781720221042633e-03
-1.468666553497314453e+00 -1.862576723098754883e+00 7.039800286293029785e-02
-1.414337277412414551e+00 -1.933420300483703613e+00 4.850567132234573364e-02
-4.232622146606445312e+00 -6.761460304260253906e+00 9.745742194354534149e-03
-1.427688002586364746e+00 -1.928155779838562012e+00 1.353953033685684204e-01
