-4.005236551165580750e-03 -7.477993965148925781e-01 4.220186546444892883e-02
-2.511676959693431854e-02 -7.035177350044250488e-01 6.542887538671493530e-02
-8.385955356061458588e-03 -7.194505929946899414e-01 6.003868579864501953e-02
-3.657472878694534302e-02 -7.355725169181823730e-01 2.764912694692611694e-02
-1.157785058021545410e-01 -7.509718537330627441e-01 1.538577210158109665e-02
-1.126955673098564148e-01 -7.039015293121337891e-01 4.022981971502304077e-02
-7.124394923448562622e-02 -7.189698815345764160e-01 2.712390571832656860e-02
-1.126388013362884521e-01 -7.272875308990478516e-01 7.835682481527328491e-03
-4.842784404754638672e+00 -6.952630519866943359e+00 1.035172026604413986e-02
-4.951169013977050781e+00 -6.836395263671875000e+00 1.031262427568435669e-02
-4.904886722564697266e+00 -6.685750484466552734e+00 1.013058796525001526e-02
-4.952378273010253906e+00 -6.664357662200927734e+00 1.014402601867914200e-02
-5.077368736267089844e+00 -6.745700836181640625e+00 1.031506899744272232e-02
-5.172014713287353516e+00 -6.784402370452880859e+00 1.042257994413375854e-02
-5.143877506256103516e+00 -6.662305831909179688e+00 1.028330344706773758e-02
-5.172955989837646484e+00 -6.615650653839111328e+00 1.026009116321802139e-02
-5.065701961517333984e+00 -6.397200584411621094e+00 9.969319216907024384e-03
-5.101105213165283203e+00 -6.361316204071044922e+00 9.961987845599651337e-03
-5.122391223907470703e+00 -6.308160781860351562e+00 9.927779436111450195e-03
-5.301998138427734375e+00 -6.448086738586425781e+00 1.019900385290384293e-02
-5.341463088989257812e+00 -6.415432929992675781e+00 1.019900385290384293e-02
-5.382015705108642578e+00 -6.384066581726074219e+00 1.020144764333963394e-02
-5.476271152496337891e+00 -6.415573120117187500e+00 1.030529476702213287e-02
-5.541034698486328125e+00 -6.411357402801513672e+00 1.035294122993946075e-02
-5.423542499542236328e+00 -6.198127269744873047e+00 1.006217021495103836e-02
-5.502585411071777344e+00 -6.211140155792236328e+00 1.013791747391223907e-02
-5.419738769531250000e+00 -6.042518615722656250e+00 9.916784241795539856e-03
-5.676540851593017578e+00 -6.251233577728271484e+00 1.031628996133804321e-02
-5.089439392089843750e+00 -5.536056995391845703e+00 9.187411516904830933e-03
-5.724211215972900391e+00 -6.150358676910400391e+00 1.026497781276702881e-02
-5.826303958892822266e+00 -6.183534145355224609e+00 1.037982013076543808e-02
-5.893125057220458984e+00 -6.178059101104736328e+00 1.043113227933645248e-02
-5.747534275054931641e+00 -5.951875686645507812e+00 1.010859571397304535e-02
-5.710546016693115234e+00 -5.841415405273437500e+00 9.980314411222934723e-03
-5.842649936676025391e+00 -5.903641700744628906e+00 1.014769170433282852e-02
-5.883010387420654297e+00 -5.871919155120849609e+00 1.015502121299505234e-02
-5.147731304168701172e+00 -5.075355529785156250e+00 8.831888437271118164e-03
-5.191670894622802734e+00 -5.056232452392578125e+00 8.853878825902938843e-03
-6.003068447113037109e+00 -5.775115966796875000e+00 1.017701253294944763e-02
-5.773078441619873047e+00 -5.486052036285400391e+00 9.729859419167041779e-03
-6.058174610137939453e+00 -5.686642169952392578e+00 1.015135645866394043e-02
-5.584779262542724609e+00 -5.178185939788818359e+00 9.304697625339031219e-03
-6.111278533935546875e+00 -5.597012519836425781e+00 1.012447848916053772e-02
-6.148472309112548828e+00 -5.562092304229736328e+00 1.012936513870954514e-02
-6.271967411041259766e+00 -5.604216575622558594e+00 1.027597300708293915e-02
-6.151035785675048828e+00 -5.428653717041015625e+00 1.002307515591382980e-02
-6.255087375640869141e+00 -5.452576637268066406e+00 1.013791747391223907e-02
-6.180057525634765625e+00 -5.320792198181152344e+00 9.963210672140121460e-03
-6.277342796325683594e+00 -5.337834358215332031e+00 1.006705779582262039e-02
-6.437860965728759766e+00 -5.406615734100341797e+00 1.027108635753393173e-02
-6.431658744812011719e+00 -5.334453582763671875e+00 1.020877715200185776e-02
-6.379946708679199219e+00 -5.225820541381835938e+00 1.007560919970273972e-02
-6.261837959289550781e+00 -5.065196990966796875e+00 9.839816018939018250e-03
-6.476410865783691406e+00 -5.173347949981689453e+00 1.012692227959632874e-02
-6.570057868957519531e+00 -5.182437896728515625e+00 1.022343803197145462e-02
-6.484972000122070312e+00 -5.051083087921142578e+00 1.004262268543243408e-02
-6.503952026367187500e+00 -5.002052307128906250e+00 1.002429611980915070e-02
-6.606995105743408203e+00 -5.017084121704101562e+00 1.013547368347644806e-02
-4.415683269500732422e+00 -2.616631746292114258e+00 1.523361653089523315e-01
-6.609651565551757812e+00 -4.955454826354980469e+00 1.009271387010812759e-02
-4.430792808532714844e+00 -2.588984012603759766e+00 1.523065119981765747e-01
-6.639129161834716797e+00 -4.914210319519042969e+00 1.009149104356765747e-02
-4.433603286743164062e+00 -2.554263830184936523e+00 1.518615186214447021e-01
-6.666734695434570312e+00 -4.871610641479492188e+00 1.008782628923654556e-02
-6.702989578247070312e+00 -4.835293292999267578e+00 1.009760051965713501e-02
-6.834354877471923828e+00 -4.866579055786132812e+00 1.025031693279743195e-02
-4.381820201873779297e+00 -2.628928899765014648e+00 1.034693121910095215e-01
-6.804363727569580078e+00 -4.782575130462646484e+00 1.016113068908452988e-02
-4.409915447235107422e+00 -2.609120607376098633e+00 1.037527471780776978e-01
-6.908349990844726562e+00 -4.792604446411132812e+00 1.027230732142925262e-02
-4.397343158721923828e+00 -2.565387010574340820e+00 1.030846685171127319e-01
-6.924425125122070312e+00 -4.741086483001708984e+00 1.025275979191064835e-02
-4.414734840393066406e+00 -2.539354324340820312e+00 1.031251624226570129e-01
-6.829927921295166016e+00 -4.615087509155273438e+00 1.007072161883115768e-02
-6.939652919769287109e+00 -4.627462387084960938e+00 1.019045244902372360e-02
-7.058972358703613281e+00 -4.644708156585693359e+00 1.032362133264541626e-02
-4.367119789123535156e+00 -2.616029262542724609e+00 5.420035123825073242e-02
-7.011852264404296875e+00 -4.552299499511718750e+00 1.021366473287343979e-02
-4.427020072937011719e+00 -2.618262767791748047e+00 2.416534423828125000e-01
-4.378784656524658203e+00 -2.586641311645507812e+00 5.414712429046630859e-02
-7.021969318389892578e+00 -4.497863292694091797e+00 1.018800865858793259e-02
-4.439550876617431641e+00 -2.589036941528320312e+00 2.414657324552536011e-01
-4.391981124877929688e+00 -2.558214902877807617e+00 5.411518365144729614e-02
-7.034218788146972656e+00 -4.445076465606689453e+00 1.016601733863353729e-02
-4.410197257995605469e+00 -2.532711982727050781e+00 5.414712429046630859e-02
-7.150466442108154297e+00 -4.457377433776855469e+00 1.029429957270622253e-02
-7.191310882568359375e+00 -4.421799659729003906e+00 1.031384617090225220e-02
-7.184105396270751953e+00 -4.356849193572998047e+00 1.026497781276702881e-02
-4.426054000854492188e+00 -2.649299383163452148e+00 1.936564296483993530e-01
-4.387183666229248047e+00 -2.623953104019165039e+00 6.245485041290521622e-03
-4.422433853149414062e+00 -2.610408782958984375e+00 1.927935779094696045e-01
-4.407507896423339844e+00 -2.599524259567260742e+00 6.251593586057424545e-03
-4.445277214050292969e+00 -2.587245464324951172e+00 1.930937021970748901e-01
-4.411273002624511719e+00 -2.565393447875976562e+00 6.234489381313323975e-03
-4.414785861968994141e+00 -2.531314373016357422e+00 6.217385176569223404e-03
-6.329776763916015625e+00 -3.577889204025268555e+00 8.883200585842132568e-03
-6.343749523162841797e+00 -3.534602642059326172e+00 8.872205391526222229e-03
-7.454836845397949219e+00 -4.093937873840332031e+00 1.039081532508134842e-02
-7.473660469055175781e+00 -4.044786930084228516e+00 1.038226298987865448e-02
-7.483337402343750000e+00 -3.990853548049926758e+00 1.036149356514215469e-02
-7.586470603942871094e+00 -3.986259222030639648e+00 1.047022826969623566e-02
-7.725348472595214844e+00 -3.998935699462890625e+00 1.062783133238554001e-02
-7.674906730651855469e+00 -3.913302421569824219e+00 1.052520610392093658e-02
-7.688942909240722656e+00 -3.861199617385864258e+00 1.051176618784666061e-02
-7.720558166503906250e+00 -3.817938327789306641e+00 1.052276324480772018e-02
-1.296827507019042969e+01 -4.656485557556152344e+00 4.089491963386535645e-01
-7.700682640075683594e+00 -3.749480962753295898e+00 1.046411972492933273e-02
-7.828148365020751953e+00 -3.752300262451171875e+00 1.060584094375371933e-02
-7.782290458679199219e+00 -3.671767473220825195e+00 1.051298901438713074e-02
-7.836418151855468750e+00 -3.638687133789062500e+00 1.055574882775545120e-02
-7.903165340423583984e+00 -3.610898256301879883e+00 1.061561331152915955e-02
-1.290255641937255859e+01 -4.712410926818847656e+00 2.781383097171783447e-01
-7.646985054016113281e+00 -3.437293052673339844e+00 1.024298649281263351e-02
-1.296228790283203125e+01 -4.644281864166259766e+00 2.788063883781433105e-01
-7.975234031677246094e+00 -3.526178121566772461e+00 1.065348740667104721e-02
-7.990300655364990234e+00 -3.474385261535644531e+00 1.064493507146835327e-02
-8.001355171203613281e+00 -3.420968055725097656e+00 1.063149701803922653e-02
-9.153337478637695312e+00 -2.726554155349731445e+00 2.834609746932983398e-01
-8.204727172851562500e+00 -3.448528289794921875e+00 1.087339967489242554e-02
-9.164136886596679688e+00 -2.668662309646606445e+00 2.832829952239990234e-01
-8.240519523620605469e+00 -3.404229164123535156e+00 1.089294627308845520e-02
-1.290112876892089844e+01 -4.701843261718750000e+00 1.461950987577438354e-01
-7.913790702819824219e+00 -3.212552309036254883e+00 1.043479796499013901e-02
-1.293067836761474609e+01 -4.622931957244873047e+00 1.462057530879974365e-01
-8.060606956481933594e+00 -3.214684009552001953e+00 1.060217525810003281e-02
-8.291543006896972656e+00 -3.247959375381469727e+00 1.087950821965932846e-02
-8.276782035827636719e+00 -3.183738470077514648e+00 1.083430275321006775e-02
-9.144904136657714844e+00 -2.717201471328735352e+00 1.931724250316619873e-01
-8.283063888549804688e+00 -3.127947330474853516e+00 1.081719901412725449e-02
-9.178686141967773438e+00 -2.666057825088500977e+00 1.935368180274963379e-01
-8.343358993530273438e+00 -3.092356204986572266e+00 1.087095588445663452e-02
-8.365934371948242188e+00 -3.042471170425415039e+00 1.087584253400564194e-02
-8.452259063720703125e+00 -3.015273332595825195e+00 1.096380688250064850e-02
-8.460218429565429688e+00 -2.959722280502319336e+00 1.095036789774894714e-02
-9.094952583312988281e+00 -2.756377935409545898e+00 1.011825129389762878e-01
-8.481058120727539062e+00 -2.908728837966918945e+00 1.095403358340263367e-02
-9.104024887084960938e+00 -2.698247194290161133e+00 1.010973379015922546e-01
-8.419122695922851562e+00 -2.829872131347656250e+00 1.085140742361545563e-02
-9.105042457580566406e+00 -2.637883186340332031e+00 1.009269952774047852e-01
-8.493317604064941406e+00 -2.796927452087402344e+00 1.092471182346343994e-02
-8.600733757019042969e+00 -2.773921251296997070e+00 1.104077603667974472e-02
-8.040669441223144531e+00 -2.538926601409912109e+00 1.030162908136844635e-02
-8.668520927429199219e+00 -2.678796768188476562e+00 1.108475774526596069e-02
-8.852307319641113281e+00 -2.676199197769165039e+00 1.129856053739786148e-02
-8.845545768737792969e+00 -2.615027904510498047e+00 1.126923877745866776e-02
-8.885442733764648438e+00 -2.567643880844116211e+00 1.129978336393833160e-02
-9.004004478454589844e+00 -2.542149066925048828e+00 1.143050845712423325e-02
-9.022324562072753906e+00 -2.487650871276855469e+00 1.143417321145534515e-02
-9.025831222534179688e+00 -2.429125308990478516e+00 1.141951233148574829e-02
-9.091829299926757812e+00 -2.387157917022705078e+00 1.148426439613103867e-02
-9.111148834228515625e+00 -2.332566499710083008e+00 1.149037294089794159e-02
-9.092300415039062500e+00 -2.268387556076049805e+00 1.144883409142494202e-02
-9.232372283935546875e+00 -2.243249416351318359e+00 1.160765904933214188e-02
-9.285862922668457031e+00 -2.195994138717651367e+00 1.165775023400783539e-02
-9.310857772827148438e+00 -2.141665697097778320e+00 1.167241111397743225e-02
-9.327726364135742188e+00 -2.085367679595947266e+00 1.167729776352643967e-02
-9.343277931213378906e+00 -2.028731346130371094e+00 1.168096344918012619e-02
-9.479821205139160156e+00 -1.997549653053283691e+00 1.183612272143363953e-02
-9.499736785888671875e+00 -1.940946340560913086e+00 1.184589602053165436e-02
-9.519315719604492188e+00 -1.884173870086669922e+00 1.185567025095224380e-02
-9.536590576171875000e+00 -1.826857805252075195e+00 1.186299975961446762e-02
-9.706911087036132812e+00 -1.797810196876525879e+00 1.206092070788145065e-02
-9.778790473937988281e+00 -1.749132394790649414e+00 1.213666796684265137e-02
-9.857334136962890625e+00 -1.700830221176147461e+00 1.222096756100654602e-02
-9.754141807556152344e+00 -1.621456861495971680e+00 1.208046823740005493e-02
-9.739221572875976562e+00 -1.557627916336059570e+00 1.204992551356554031e-02
-9.760455131530761719e+00 -1.499662041664123535e+00 1.206458546221256256e-02
-9.808057785034179688e+00 -1.445430994033813477e+00 1.211223378777503967e-02
-9.847437858581542969e+00 -1.389554142951965332e+00 1.215010695159435272e-02
-9.887491226196289062e+00 -1.333381772041320801e+00 1.218920201063156128e-02
-9.926233291625976562e+00 -1.276642680168151855e+00 1.222707610577344894e-02
-1.001924324035644531e+01 -1.226159214973449707e+00 1.233214512467384338e-02
-9.948105812072753906e+00 -1.155544042587280273e+00 1.223562844097614288e-02
-9.961966514587402344e+00 -1.095246911048889160e+00 1.224417984485626221e-02
-9.970488548278808594e+00 -1.034307122230529785e+00 1.224662363529205322e-02
-1.000152969360351562e+01 -9.755368828773498535e-01 1.227716729044914246e-02
-1.007404899597167969e+01 -9.202451705932617188e-01 1.235902309417724609e-02
-1.009943389892578125e+01 -8.601118326187133789e-01 1.238345820456743240e-02
-1.011648368835449219e+01 -7.990716099739074707e-01 1.239811908453702927e-02
-9.899783134460449219e+00 -7.208605408668518066e-01 1.212689466774463654e-02
-1.010158157348632812e+01 -6.732705235481262207e-01 1.236879732459783554e-02
-1.041695308685302734e+01 -6.301139593124389648e-01 1.274997740983963013e-02
-1.034573268890380859e+01 -5.621158480644226074e-01 1.265834644436836243e-02
-1.206375598907470703e+01 7.276147007942199707e-01 3.586945831775665283e-01
-1.020215797424316406e+01 -4.915506839752197266e-01 1.247875299304723740e-02
-1.036983680725097656e+01 -4.358714222908020020e-01 1.268033869564533234e-02
-1.051822185516357422e+01 -3.774712681770324707e-01 1.285871118307113647e-02
-1.040339183807373047e+01 -3.094469606876373291e-01 1.271576900035142899e-02
-1.065502548217773438e+01 -2.515065968036651611e-01 1.302120089530944824e-02
-1.047939491271972656e+01 -1.830328702926635742e-01 1.280495524406433105e-02
-1.204413700103759766e+01 7.347388267517089844e-01 2.443301081657409668e-01
-1.040532493591308594e+01 -1.178794503211975098e-01 1.271332427859306335e-02
-1.072184753417968750e+01 -5.567213520407676697e-02 1.309939101338386536e-02
-1.073898792266845703e+01 1.013297494500875473e-02 1.312016043812036514e-02
-1.069072532653808594e+01 7.568616420030593872e-02 1.306151878088712692e-02
-1.069105911254882812e+01 1.412950009107589722e-01 1.306273974478244781e-02
-1.199982833862304688e+01 6.664302349090576172e-01 1.279579848051071167e-01
-1.089795207977294922e+01 2.109162807464599609e-01 1.331685949116945267e-02
-1.202944660186767578e+01 7.421407103538513184e-01 1.283199489116668701e-01
-1.088845443725585938e+01 2.775769829750061035e-01 1.330708526074886322e-02
-1.197179126739501953e+01 8.123501539230346680e-01 1.277557015419006348e-01
-1.087954998016357422e+01 3.441607356071472168e-01 1.329853292554616928e-02
-1.340072822570800781e+01 1.480268001556396484e+00 2.729962468147277832e-01
-1.085125160217285156e+01 4.099284112453460693e-01 1.326676830649375916e-02
-1.082155895233154297e+01 4.753179848194122314e-01 1.323378179222345352e-02
-1.076650333404541016e+01 5.391083359718322754e-01 1.317025255411863327e-02
-1.120130062103271484e+01 6.298044919967651367e-01 1.370659191161394119e-02
-1.117626667022705078e+01 6.972150206565856934e-01 1.368093583732843399e-02
-1.124360847473144531e+01 7.707018852233886719e-01 1.376889925450086594e-02
-1.335995483398437500e+01 1.485058069229125977e+00 1.431183218955993652e-01
-1.096343517303466797e+01 8.191133737564086914e-01 1.343170180916786194e-02
-1.334562492370605469e+01 1.566422343254089355e+00 1.430650800466537476e-01
-1.096617794036865234e+01 8.870133161544799805e-01 1.344147603958845139e-02
-1.116973686218261719e+01 9.724986553192138672e-01 1.369803957641124725e-02
-1.107494354248046875e+01 1.032752990722656250e+00 1.358930487185716629e-02
-1.122960376739501953e+01 1.116719126701354980e+00 1.378722582012414932e-02
-1.116883850097656250e+01 1.179928421974182129e+00 1.372125279158353806e-02
-1.123095417022705078e+01 1.256218075752258301e+00 1.380677334964275360e-02
-7.987150192260742188e+00 1.835721492767333984e+00 2.432335466146469116e-01
-1.121111774444580078e+01 1.323699116706848145e+00 1.379211246967315674e-02
-7.968926906585693359e+00 1.883086085319519043e+00 2.430258840322494507e-01
-1.121667766571044922e+01 1.394191265106201172e+00 1.380921714007854462e-02
-1.121485328674316406e+01 1.463895201683044434e+00 1.381776854395866394e-02
-1.117791843414306641e+01 1.528886318206787109e+00 1.378356013447046280e-02
-1.120891380310058594e+01 1.603249311447143555e+00 1.383365225046873093e-02
-1.142832183837890625e+01 1.706253528594970703e+00 1.411709282547235489e-02
-7.950745105743408203e+00 1.833107829093933105e+00 1.652148514986038208e-01
-1.114985847473144531e+01 1.734683632850646973e+00 1.378600392490625381e-02
-7.937401771545410156e+00 1.881397008895874023e+00 1.651743650436401367e-01
-1.145094394683837891e+01 1.853558778762817383e+00 1.417207065969705582e-02
-1.137328433990478516e+01 1.912674069404602051e+00 1.409021485596895218e-02
-1.154062461853027344e+01 2.013707399368286133e+00 1.431256905198097229e-02
-1.154773235321044922e+01 2.088040113449096680e+00 1.433700416237115860e-02
-7.914966583251953125e+00 1.779496669769287109e+00 8.637349307537078857e-02
-1.160252571105957031e+01 2.171550035476684570e+00 1.442130375653505325e-02
-7.941894531250000000e+00 1.836816072463989258e+00 8.678869903087615967e-02
-1.170483303070068359e+01 2.265120506286621094e+00 1.456546783447265625e-02
-7.899344444274902344e+00 1.878110766410827637e+00 8.644802123308181763e-02
-1.171032619476318359e+01 2.340817451477050781e+00 1.458990201354026794e-02
-1.178094863891601562e+01 2.430203199386596680e+00 1.469619292765855789e-02
-1.178733444213867188e+01 2.507020711898803711e+00 1.472307089716196060e-02
-1.187722682952880859e+01 2.602414608001708984e+00 1.485501788556575775e-02
-7.961984634399414062e+00 1.795816659927368164e+00 9.971762076020240784e-03
-7.946918487548828125e+00 1.843732476234436035e+00 9.966874495148658752e-03
-7.931565284729003906e+00 1.891531348228454590e+00 9.961987845599651337e-03
-1.188748550415039062e+01 2.912147760391235352e+00 1.495275553315877914e-02
-9.279157638549804688e+00 3.060985803604125977e+00 1.978488862514495850e-01
-1.199255752563476562e+01 3.016007900238037109e+00 1.510791573673486710e-02
-1.216167354583740234e+01 3.138005256652832031e+00 1.534493174403905869e-02
-1.221082782745361328e+01 3.230729103088378906e+00 1.543167419731616974e-02
-1.241275978088378906e+01 3.365784645080566406e+00 1.571267284452915192e-02
-1.221169471740722656e+01 3.391839265823364258e+00 1.548420917242765427e-02
-1.220700454711914062e+01 3.471354961395263672e+00 1.550497859716415405e-02
-9.249944686889648438e+00 3.058399200439453125e+00 1.037269756197929382e-01
-1.228821182250976562e+01 3.576088666915893555e+00 1.563570275902748108e-02
-1.233983802795410156e+01 3.673389673233032227e+00 1.572977751493453979e-02
-1.229697704315185547e+01 3.742921352386474609e+00 1.570412144064903259e-02
-1.213054943084716797e+01 3.773746013641357422e+00 1.552086044102907181e-02
-1.230158233642578125e+01 3.909899234771728516e+00 1.577009446918964386e-02
-9.245114326477050781e+00 3.001021146774291992e+00 1.187521778047084808e-02
-9.228425025939941406e+00 3.058320760726928711e+00 1.187766063958406448e-02
-9.199065208435058594e+00 3.111363410949707031e+00 1.186422258615493774e-02
-1.227471160888671875e+01 4.235734939575195312e+00 1.586416736245155334e-02
-1.225792312622070312e+01 4.314291477203369141e+00 1.587638445198535919e-02
-1.222557258605957031e+01 4.387396812438964844e+00 1.586905308067798615e-02
-1.217494392395019531e+01 4.453740119934082031e+00 1.583851128816604614e-02
-1.217362308502197266e+01 4.538140773773193359e+00 1.587271876633167267e-02
-1.216611576080322266e+01 4.620562553405761719e+00 1.589959673583507538e-02
-1.216085147857666016e+01 4.704144954681396484e+00 1.593014039099216461e-02
-1.219688701629638672e+01 4.804327964782714844e+00 1.601566188037395477e-02
-1.216439533233642578e+01 4.877959728240966797e+00 1.601199619472026825e-02
-1.210183048248291016e+01 4.939281463623046875e+00 1.596923545002937317e-02
-1.208976650238037109e+01 5.021114826202392578e+00 1.599366962909698486e-02
-1.205780792236328125e+01 5.094812393188476562e+00 1.599244773387908936e-02
-1.130074977874755859e+01 5.857048511505126953e+00 2.577319443225860596e-01
-1.202999496459960938e+01 5.170281887054443359e+00 1.599733531475067139e-02
-1.204477596282958984e+01 5.264423847198486328e+00 1.605964452028274536e-02
-1.203692054748535156e+01 5.349195003509521484e+00 1.609263010323047638e-02
-1.209500312805175781e+01 5.464121341705322266e+00 1.621480286121368408e-02
-1.198218536376953125e+01 5.501928329467773438e+00 1.610851287841796875e-02
-1.195273113250732422e+01 5.577460289001464844e+00 1.611462235450744629e-02
-1.129839706420898438e+01 5.865683078765869141e+00 1.355381458997726440e-01
-1.195804119110107422e+01 5.669545650482177734e+00 1.616837643086910248e-02
-3.287312507629394531e+00 2.048411369323730469e+00 1.149566993117332458e-01
-1.187708091735839844e+01 5.720681190490722656e+00 1.610606908798217773e-02
-3.355809211730957031e+00 2.119789838790893555e+00 1.178046613931655884e-01
-1.184804344177246094e+01 5.796525955200195312e+00 1.611462235450744629e-02
-3.348631858825683594e+00 2.144113779067993164e+00 1.180123239755630493e-01
-1.177732753753662109e+01 5.851761817932128906e+00 1.606697402894496918e-02
-1.180280303955078125e+01 5.954997062683105469e+00 1.615127362310886383e-02
-1.132815265655517578e+01 5.802991390228271484e+00 1.555018220096826553e-02
-1.125773143768310547e+01 5.854396343231201172e+00 1.550253387540578842e-02
-3.288373231887817383e+00 2.052211046218872070e+00 7.848767936229705811e-02
-1.135778903961181641e+01 5.995251178741455078e+00 1.569068059325218201e-02
-3.339087724685668945e+00 2.112438917160034180e+00 8.000601828098297119e-02
-1.175623798370361328e+01 6.298109531402587891e+00 1.629421673715114594e-02
-3.271358013153076172e+00 2.097806930541992188e+00 7.869012653827667236e-02
-1.174109363555908203e+01 6.383021831512451172e+00 1.632720232009887695e-02
-1.174811458587646484e+01 6.480543136596679688e+00 1.639195531606674194e-02
-1.170202159881591797e+01 6.549087524414062500e+00 1.638340204954147339e-02
-1.171901130676269531e+01 6.653352260589599609e+00 1.646403595805168152e-02
-3.344400644302368164e+00 2.087937116622924805e+00 1.852410584688186646e-01
-3.293385505676269531e+00 2.058485031127929688e+00 4.135026037693023682e-02
-1.171089649200439453e+01 6.744097232818603516e+00 1.651046238839626312e-02
-3.318865299224853516e+00 2.100405931472778320e+00 1.845370680093765259e-01
-1.174528217315673828e+01 6.860209465026855469e+00 1.661797426640987396e-02
-3.245159626007080078e+00 2.084155321121215820e+00 4.106280952692031860e-02
-1.169006252288818359e+01 6.924503803253173828e+00 1.659964956343173981e-02
-3.305239200592041016e+00 2.013025760650634766e+00 4.728096071630716324e-03
-3.353301048278808594e+00 2.068994998931884766e+00 1.479246914386749268e-01
-3.300482988357543945e+00 2.037997007369995117e+00 4.739091731607913971e-03
-3.343084335327148438e+00 2.091121196746826172e+00 1.480372399091720581e-01
-3.317582607269287109e+00 2.076781272888183594e+00 4.781852010637521744e-03
-3.301496744155883789e+00 2.093400478363037109e+00 1.467617154121398926e-01
-3.261715412139892578e+00 2.069772958755493164e+00 4.719543736428022385e-03
-3.269254922866821289e+00 2.101191997528076172e+00 1.458988487720489502e-01
-3.251477241516113281e+00 2.091370344161987305e+00 4.723208956420421600e-03
-3.226017951965332031e+00 2.103089809417724609e+00 4.704882856458425522e-03
-5.624595165252685547e+00 5.902602195739746094e+00 1.650933921337127686e-01
-5.558119773864746094e+00 5.904969692230224609e+00 1.642026305198669434e-01
-5.589430809020996094e+00 6.625404834747314453e+00 5.711827874183654785e-01
-5.591484069824218750e+00 6.630186557769775391e+00 2.574140131473541260e-01
-5.548672676086425781e+00 6.659575939178466797e+00 5.711827874183654785e-01
-5.541740894317626953e+00 6.653617858886718750e+00 2.569986879825592041e-01
-5.520424842834472656e+00 6.704183101654052734e+00 8.898005485534667969e-01
-5.505169868469238281e+00 6.690414905548095703e+00 5.709198117256164551e-01
-5.518590450286865234e+00 6.709110736846923828e+00 2.578293383121490479e-01
-5.585526466369628906e+00 5.869674205780029297e+00 8.626703172922134399e-02
-5.483171939849853516e+00 6.738026142120361328e+00 1.210075020790100098e+00
-5.455963134765625000e+00 6.709372997283935547e+00 8.860293626785278320e-01
-5.515133857727050781e+00 6.789396762847900391e+00 2.596093118190765381e-01
-5.418148994445800781e+00 6.742206096649169922e+00 1.204832315444946289e+00
-5.321259975433349609e+00 6.626375675201416016e+00 8.707406520843505859e-01
-5.479626178741455078e+00 6.830906391143798828e+00 2.599059939384460449e-01
-5.373599052429199219e+00 6.771445274353027344e+00 1.204142570495605469e+00
-5.349729537963867188e+00 6.746201038360595703e+00 8.821562528610229492e-01
-5.366835117340087891e+00 6.772626399993896484e+00 5.694075822830200195e-01
-5.449401855468750000e+00 6.879286766052246094e+00 2.604696452617645264e-01
-5.359439849853515625e+00 6.839371204376220703e+00 1.210350871086120605e+00
-5.345033645629882812e+00 6.825893402099609375e+00 8.882716298103332520e-01
-5.308575153350830078e+00 6.784211158752441406e+00 5.676322579383850098e-01
-5.577672958374023438e+00 6.618349552154541016e+00 4.884485900402069092e-01
-5.420636653900146484e+00 6.929914474487304688e+00 2.611222863197326660e-01
-5.337442398071289062e+00 6.895577430725097656e+00 1.540698647499084473e+00
-5.321616172790527344e+00 6.877610683441162109e+00 1.211316585540771484e+00
-5.318871021270751953e+00 6.879022598266601562e+00 8.909217119216918945e-01
-5.537029266357421875e+00 6.647813320159912109e+00 8.041180968284606934e-01
-5.268678188323974609e+00 6.819025039672851562e+00 5.678294897079467773e-01
-5.547816753387451172e+00 6.665494918823242188e+00 4.894064664840698242e-01
-5.373126029968261719e+00 6.956716537475585938e+00 2.608849704265594482e-01
-5.655869960784912109e+00 5.879115581512451172e+00 9.966874495148658752e-03
-5.287257671356201172e+00 6.918025970458984375e+00 1.538436651229858398e+00
-5.295549869537353516e+00 6.931383132934570312e+00 1.215041518211364746e+00
-5.527472019195556641e+00 6.714980125427246094e+00 1.126501560211181641e+00
-5.286824226379394531e+00 6.924971580505371094e+00 8.926544189453125000e-01
-5.502460479736328125e+00 6.689352512359619141e+00 8.050435185432434082e-01
-5.306022644042968750e+00 6.955151081085205078e+00 5.764428973197937012e-01
-5.513153076171875000e+00 6.707122325897216797e+00 4.899698495864868164e-01
-5.612369537353515625e+00 6.832686424255371094e+00 1.790418177843093872e-01
-5.606601715087890625e+00 5.899935245513916016e+00 9.943662211298942566e-03
-5.239964962005615234e+00 6.944049835205078125e+00 1.537044763565063477e+00
-5.256499290466308594e+00 6.968490600585937500e+00 1.215869426727294922e+00
-5.473653793334960938e+00 6.733378410339355469e+00 1.123932480812072754e+00
-5.473868370056152344e+00 6.738446712493896484e+00 8.068944811820983887e-01
-5.262046337127685547e+00 6.985983371734619141e+00 5.763114094734191895e-01
-5.550814151763916016e+00 6.842924118041992188e+00 1.784142255783081055e-01
-5.570294857025146484e+00 5.934226036071777344e+00 9.943662211298942566e-03
-5.201376438140869141e+00 6.981598854064941406e+00 1.538262724876403809e+00
-5.391878128051757812e+00 6.711764335632324219e+00 1.434525489807128906e+00
-5.379465579986572266e+00 6.701102733612060547e+00 1.113014340400695801e+00
-5.422449588775634766e+00 6.759479045867919922e+00 8.054136633872985840e-01
-5.484969615936279297e+00 6.847202777862548828e+00 1.776449382305145264e-01
-5.391054630279541016e+00 6.795724868774414062e+00 1.445373177528381348e+00
-5.341943740844726562e+00 6.738647460937500000e+00 1.113785028457641602e+00
-5.374071121215820312e+00 6.784038066864013672e+00 8.043957352638244629e-01
-5.450295925140380859e+00 6.890138626098632812e+00 1.778878718614578247e-01
-5.380886077880859375e+00 6.869054317474365234e+00 1.453919887542724609e+00
-5.357345581054687500e+00 6.843923568725585938e+00 1.125730872154235840e+00
-5.324982166290283203e+00 6.807474136352539062e+00 8.032851815223693848e-01
-5.302621364593505859e+00 6.783765792846679688e+00 4.859130978584289551e-01
-5.586646080017089844e+00 6.635897636413574219e+00 4.075584411621093750e-01
-5.418378829956054688e+00 6.936846256256103516e+00 1.782320290803909302e-01
-5.710653305053710938e+00 6.790408611297607422e+00 9.446468949317932129e-02
-5.349500179290771484e+00 6.915985584259033203e+00 1.456878304481506348e+00
-5.326168060302734375e+00 6.890789985656738281e+00 1.128042936325073242e+00
-5.297719955444335938e+00 6.858932018280029297e+00 8.055062890052795410e-01
-5.512089729309082031e+00 6.624773979187011719e+00 7.191337347030639648e-01
-5.265167236328125000e+00 6.821707248687744141e+00 4.863075017929077148e-01
-5.537521839141845703e+00 6.660067081451416016e+00 4.069483578205108643e-01
-5.362890243530273438e+00 6.953336238861083984e+00 1.778068840503692627e-01
-5.664408206939697266e+00 6.819936275482177734e+00 9.439016133546829224e-02
-5.309957504272460938e+00 6.952599048614501953e+00 1.457700133323669434e+00
-5.287396430969238281e+00 6.928071022033691406e+00 1.128813624382019043e+00
-5.502033233642578125e+00 6.691064357757568359e+00 1.040634751319885254e+00
-5.269422054290771484e+00 6.909518718719482422e+00 8.076347708702087402e-01
-5.508664608001708984e+00 6.703897476196289062e+00 7.240399718284606934e-01
-5.275860786437988281e+00 6.922971725463867188e+00 4.912094473838806152e-01
-5.502257347106933594e+00 6.700867176055908203e+00 4.073707461357116699e-01
-5.614211559295654297e+00 6.844513416290283203e+00 9.425176680088043213e-02
-5.262445449829101562e+00 6.978748321533203125e+00 1.456385135650634766e+00
-5.257319927215576172e+00 6.977015972137451172e+00 1.131511092185974121e+00
-5.457118988037109375e+00 6.720074176788330078e+00 1.039919137954711914e+00
-5.553855895996093750e+00 6.856299400329589844e+00 9.394302219152450562e-02
-5.449058055877685547e+00 6.782789707183837891e+00 1.365571498870849609e+00
-5.361742496490478516e+00 6.686044216156005859e+00 1.029542565345764160e+00
-5.417881011962890625e+00 6.760882854461669922e+00 7.229588627815246582e-01
-5.500438690185546875e+00 6.876193046569824219e+00 9.375139325857162476e-02
-5.350236892700195312e+00 6.744120597839355469e+00 1.351151466369628906e+00
-5.316301822662353516e+00 6.713368892669677734e+00 1.028707623481750488e+00
-5.364545822143554688e+00 6.779151439666748047e+00 7.213789224624633789e-01
-5.362494468688964844e+00 6.781422615051269531e+00 4.061974585056304932e-01
-5.464961528778076172e+00 6.918445110321044922e+00 9.386849403381347656e-02
-5.369677066802978516e+00 6.854590892791748047e+00 1.366656899452209473e+00
-5.360021591186523438e+00 6.854579448699951172e+00 1.045286297798156738e+00
-5.316099166870117188e+00 6.803302288055419922e+00 7.204642295837402344e-01
-5.311562061309814453e+00 6.802388668060302734e+00 4.054934680461883545e-01
-5.588292598724365234e+00 6.649475574493408203e+00 3.260871171951293945e-01
-5.419332981109619141e+00 6.947904586791992188e+00 9.381525963544845581e-02
-5.343232154846191406e+00 6.907726764678955078e+00 1.370688319206237793e+00
-5.316648006439208984e+00 6.885766506195068359e+00 1.045047640800476074e+00
-5.313823699951171875e+00 6.887077331542968750e+00 7.258693575859069824e-01
-5.544763565063476562e+00 6.673366069793701172e+00 6.417153477668762207e-01
-5.269113063812255859e+00 6.834060192108154297e+00 4.054464995861053467e-01
-5.526325702667236328e+00 6.658264636993408203e+00 3.248490989208221436e-01
-5.636415958404541016e+00 6.795730113983154297e+00 1.078665629029273987e-02
-5.265520095825195312e+00 6.891765117645263672e+00 1.689015984535217285e+00
-5.318136215209960938e+00 6.963150501251220703e+00 1.375185012817382812e+00
-5.277909278869628906e+00 6.922996997833251953e+00 1.045763373374938965e+00
-5.507106304168701172e+00 6.704237461090087891e+00 9.593850970268249512e-01
-5.313134670257568359e+00 6.974249839782714844e+00 7.316071391105651855e-01
-5.504977226257324219e+00 6.708804130554199219e+00 6.418628692626953125e-01
-5.274880886077880859e+00 6.929051876068115234e+00 4.091541469097137451e-01
-5.507539272308349609e+00 6.719097614288330078e+00 3.261621296405792236e-01
-5.614889144897460938e+00 6.854941844940185547e+00 1.082575134932994843e-02
-5.220178127288818359e+00 6.920025825500488281e+00 1.688060164451599121e+00
-5.461925029754638672e+00 6.725842475891113281e+00 1.277883052825927734e+00
-5.443324565887451172e+00 6.710114479064941406e+00 9.554284811019897461e-01
-5.487585067749023438e+00 6.779173374176025391e+00 3.274376988410949707e-01
-5.418077945709228516e+00 6.756143093109130859e+00 1.277299404144287109e+00
-5.333071231842041016e+00 6.657282352447509766e+00 9.432287216186523438e-01
-5.418431282043457031e+00 6.778371810913085938e+00 3.257869780063629150e-01
-5.497267723083496094e+00 6.881918907165527344e+00 1.076100021600723267e-02
-5.375906467437744141e+00 6.788484573364257812e+00 1.277153491973876953e+00
-5.317405223846435547e+00 6.721839904785156250e+00 9.477348923683166504e-01
-5.345313549041748047e+00 6.764395713806152344e+00 6.376585364341735840e-01
-5.390359401702880859e+00 6.828747272491455078e+00 3.266123235225677490e-01
-5.452460289001464844e+00 6.912379741668701172e+00 1.075611356645822525e-02
-5.356699943542480469e+00 6.850177288055419922e+00 1.282552123069763184e+00
-5.339694023132324219e+00 6.835803031921386719e+00 9.591652750968933105e-01
-5.296958923339843750e+00 6.788418292999267578e+00 6.368471980094909668e-01
-5.343442440032958984e+00 6.855388164520263672e+00 3.263121843338012695e-01
-5.405642509460449219e+00 6.940182685852050781e+00 1.074756123125553131e-02
-5.310679435729980469e+00 6.867964267730712891e+00 1.605927109718322754e+00
-5.315776824951171875e+00 6.884482860565185547e+00 1.282844066619873047e+00
-5.317075252532958984e+00 6.893623352050781250e+00 9.626824259757995605e-01
-5.264945030212402344e+00 6.833431720733642578e+00 6.380273103713989258e-01
-5.337847232818603516e+00 6.935560703277587891e+00 3.285631537437438965e-01
-5.267245292663574219e+00 6.898857593536376953e+00 1.605563402175903320e+00
-5.283630371093750000e+00 6.930344104766845703e+00 1.285324454307556152e+00
-5.284914016723632812e+00 6.939560890197753906e+00 9.645507335662841797e-01
-5.300807476043701172e+00 6.967996597290039062e+00 6.475424170494079590e-01
-5.283099174499511719e+00 6.952270030975341797e+00 3.278128504753112793e-01
-5.220079898834228516e+00 6.924765110015869141e+00 1.604108214378356934e+00
-5.256476402282714844e+00 6.983183860778808594e+00 1.289118051528930664e+00
-5.172208309173583984e+00 6.949564933776855469e+00 1.602471232414245605e+00
-5.758124589920043945e-02 7.226685881614685059e-01 7.718572858721017838e-03
-2.273344248533248901e-02 7.304965257644653320e-01 1.479868311434984207e-02
-1.348002906888723373e-02 6.898943781852722168e-01 6.413324922323226929e-02
-1.308358740061521530e-02 6.817895174026489258e-01 3.848314285278320312e-02
-1.397458557039499283e-02 7.417163252830505371e-01 1.502137258648872375e-02
-2.269097417593002319e-02 7.456125617027282715e-01 7.942145690321922302e-03
