-4.894112110137939453e+00 -2.424403429031372070e+00 5.815013498067855835e-02
-4.482613086700439453e+00 -2.426015377044677734e+00 6.227158941328525543e-03
-7.001432418823242188e+00 -2.813271522521972656e+00 7.730970382690429688e-01
-7.671689510345458984e+00 -3.410994529724121094e+00 7.803341746330261230e-01
-6.793262004852294922e+00 -2.726871967315673828e+00 4.823526144027709961e-01
-7.816887378692626953e+00 -3.472285032272338867e+00 4.827014803886413574e-01
-5.011116981506347656e+00 -2.447435379028320312e+00 2.620219886302947998e-01
-4.795796871185302734e+00 -2.559742450714111328e+00 2.040858119726181030e-01
-7.055020809173583984e+00 -2.830514430999755859e+00 2.256118059158325195e-01
-5.383477210998535156e+00 -2.389107227325439453e+00 1.192599758505821228e-01
-4.946642875671386719e+00 -2.412739038467407227e+00 5.859727784991264343e-02
-4.568003654479980469e+00 -2.436110019683837891e+00 6.324897054582834244e-03
-7.055575370788574219e+00 -2.784867763519287109e+00 7.771739959716796875e-01
-7.551981925964355469e+00 -3.302421331405639648e+00 7.660824060440063477e-01
-6.785730361938476562e+00 -2.675621271133422852e+00 4.806430935859680176e-01
-7.250672817230224609e+00 -3.167646884918212891e+00 4.465284347534179688e-01
-5.049446105957031250e+00 -2.427896022796630859e+00 2.632422149181365967e-01
-4.868902206420898438e+00 -2.560500621795654297e+00 2.065243422985076904e-01
-7.145721435546875000e+00 -2.816125392913818359e+00 2.279554307460784912e-01
-5.409947395324707031e+00 -2.361229181289672852e+00 1.195231601595878601e-01
-4.885635375976562500e+00 -2.345983266830444336e+00 5.770298466086387634e-02
-4.615619182586669922e+00 -2.425245761871337891e+00 6.370101589709520340e-03
-8.121775627136230469e+00 -3.495741605758666992e+00 1.145255208015441895e+00
-6.876818180084228516e+00 -2.665659427642822266e+00 7.556679844856262207e-01
-7.690102100372314453e+00 -3.306761026382446289e+00 7.780206203460693359e-01
-6.802950382232666016e+00 -2.634294748306274414e+00 4.807088375091552734e-01
-7.236948013305664062e+00 -3.108911037445068359e+00 4.445000588893890381e-01
-5.115712642669677734e+00 -2.421225070953369141e+00 2.659173607826232910e-01
-4.928886413574218750e+00 -2.553561925888061523e+00 2.084001302719116211e-01
-7.167527198791503906e+00 -2.774030685424804688e+00 2.281037569046020508e-01
-5.423415184020996094e+00 -2.327595472335815430e+00 1.195029169321060181e-01
-5.078939437866210938e+00 -2.400566577911376953e+00 5.981095507740974426e-02
-4.640182495117187500e+00 -2.401935815811157227e+00 6.383540574461221695e-03
-6.879098892211914062e+00 -2.618105888366699219e+00 7.541390657424926758e-01
-7.300293922424316406e+00 -3.086205005645751953e+00 7.366532683372497559e-01
-8.747457504272460938e+00 -4.078309535980224609e+00 8.053665757179260254e-01
-6.823649883270263672e+00 -2.594276189804077148e+00 4.810375869274139404e-01
-7.200703144073486328e+00 -3.041140794754028320e+00 4.411194026470184326e-01
-5.194762229919433594e+00 -2.419736385345458984e+00 2.692495286464691162e-01
-4.972054958343505859e+00 -2.537352085113525391e+00 2.095631211996078491e-01
-8.138410568237304688e+00 -3.092508077621459961e+00 2.583929896354675293e-01
-5.479046821594238281e+00 -2.311764240264892578e+00 1.204139143228530884e-01
-5.186052322387695312e+00 -2.412375450134277344e+00 6.089688092470169067e-02
-4.613852500915527344e+00 -2.352523803710937500e+00 6.327340845018625259e-03
-7.958999633789062500e+00 -3.654789447784423828e+00 1.052084684371948242e+00
-6.886646747589111328e+00 -2.572714090347290039e+00 7.532217502593994141e-01
-7.023018836975097656e+00 -2.918323516845703125e+00 7.068539857864379883e-01
-8.410917282104492188e+00 -3.858756542205810547e+00 7.721872925758361816e-01
-6.814198493957519531e+00 -2.542938709259033203e+00 4.792622923851013184e-01
-7.172199726104736328e+00 -2.977378129959106445e+00 4.382458329200744629e-01
-5.201338768005371094e+00 -2.384070396423339844e+00 2.688271403312683105e-01
-4.990208625793457031e+00 -2.508142709732055664e+00 2.096756696701049805e-01
-8.237774848937988281e+00 -3.072554588317871094e+00 2.609443068504333496e-01
-5.775727272033691406e+00 -2.395300626754760742e+00 1.266087144613265991e-01
-5.112562179565429688e+00 -2.340140342712402344e+00 5.986418575048446655e-02
-4.557602405548095703e+00 -2.288716793060302734e+00 6.230824161320924759e-03
-7.980370998382568359e+00 -3.605476617813110352e+00 1.051965475082397461e+00
-6.872414588928222656e+00 -2.519452810287475586e+00 7.499601840972900391e-01
-6.878554344177246094e+00 -2.808924436569213867e+00 6.905661225318908691e-01
-7.881283283233642578e+00 -3.557397365570068359e+00 7.215452194213867188e-01
-6.826861858367919922e+00 -2.500050067901611328e+00 4.790650308132171631e-01
-6.891737937927246094e+00 -2.811501502990722656e+00 4.200466275215148926e-01
-5.260488510131835938e+00 -2.372231721878051758e+00 2.711268365383148193e-01
-4.984009742736816406e+00 -2.466837406158447266e+00 2.087752819061279297e-01
-8.073433876037597656e+00 -2.954956769943237305e+00 2.551593780517578125e-01
-5.856977462768554688e+00 -2.386984109878540039e+00 1.280663013458251953e-01
-5.096736431121826172e+00 -2.295176744461059570e+00 5.951286107301712036e-02
-4.569766998291015625e+00 -2.259822130203247070e+00 6.228380370885133743e-03
-8.003250122070312500e+00 -3.556845188140869141e+00 1.052084684371948242e+00
-6.887744426727294922e+00 -2.477237224578857422e+00 7.499601840972900391e-01
-6.861468315124511719e+00 -2.752947092056274414e+00 6.871420145034790039e-01
-7.667978286743164062e+00 -3.404637098312377930e+00 7.000910043716430664e-01
-6.837378025054931641e+00 -2.456427335739135742e+00 4.787362813949584961e-01
-6.811551094055175781e+00 -2.730159282684326172e+00 4.141304790973663330e-01
-5.278597354888916016e+00 -2.341529369354248047e+00 2.713145315647125244e-01
-5.083492755889892578e+00 -2.477360486984252930e+00 2.123017758131027222e-01
-6.051575660705566406e+00 -2.423099756240844727e+00 1.319937407970428467e-01
-5.112552165985107422e+00 -2.264670610427856445e+00 5.953415483236312866e-02
-4.420812129974365234e+00 -2.152504205703735352e+00 6.007247604429721832e-03
-7.983075618743896484e+00 -3.489379405975341797e+00 1.046598315238952637e+00
-7.026648998260498047e+00 -2.478609800338745117e+00 7.634142041206359863e-01
-6.884715557098388672e+00 -2.713349580764770508e+00 6.877897977828979492e-01
-7.563607692718505859e+00 -3.302886962890625000e+00 6.886985898017883301e-01
-9.726360321044921875e+00 -4.672620773315429688e+00 7.980873584747314453e-01
-6.846675395965576172e+00 -2.412438154220581055e+00 4.783417880535125732e-01
-6.810523986816406250e+00 -2.681363821029663086e+00 4.130599200725555420e-01
-5.339559078216552734e+00 -2.329467296600341797e+00 2.737080752849578857e-01
-5.076073646545410156e+00 -2.435315608978271484e+00 2.113638818264007568e-01
-5.578790187835693359e+00 -2.194170236587524414e+00 1.213856488466262817e-01
-5.237276077270507812e+00 -2.281581401824951172e+00 6.082235649228096008e-02
-4.572806835174560547e+00 -2.191903352737426758e+00 6.195393856614828110e-03
-7.770818710327148438e+00 -3.339962720870971680e+00 1.016065001487731934e+00
-6.980615139007568359e+00 -2.414313077926635742e+00 7.567890882492065430e-01
-6.898448944091796875e+00 -2.669976711273193359e+00 6.875121593475341797e-01
-7.285216808319091797e+00 -3.128234863281250000e+00 6.615897417068481445e-01
-8.837964057922363281e+00 -4.179278850555419922e+00 7.230730056762695312e-01
-6.858519077301025391e+00 -2.369404792785644531e+00 4.781445264816284180e-01
-6.806361198425292969e+00 -2.631603717803955078e+00 4.118203818798065186e-01
-5.370275974273681641e+00 -2.303749084472656250e+00 2.745528519153594971e-01
-5.145137310028076172e+00 -2.429726600646972656e+00 2.136148214340209961e-01
-7.043685436248779297e+00 -2.431998014450073242e+00 2.211618572473526001e-01
-5.968937397003173828e+00 -2.305428266525268555e+00 1.295643895864486694e-01
-5.270479202270507812e+00 -2.257671356201171875e+00 6.104592978954315186e-02
-4.577126502990722656e+00 -2.159537076950073242e+00 6.183176767081022263e-03
-7.805799484252929688e+00 -3.298402786254882812e+00 1.017973423004150391e+00
-9.222650527954101562e+00 -4.298020839691162109e+00 1.125126123428344727e+00
-6.993413925170898438e+00 -2.370796680450439453e+00 7.565852403640747070e-01
-6.910978317260742188e+00 -2.626183509826660156e+00 6.871420145034790039e-01
-7.222565174102783203e+00 -3.048981428146362305e+00 6.541888713836669922e-01
-8.440296173095703125e+00 -3.928043127059936523e+00 6.885531544685363770e-01
-6.883325099945068359e+00 -2.330797672271728516e+00 4.788677990436553955e-01
-6.815846443176269531e+00 -2.587310791015625000e+00 4.114259481430053711e-01
-5.430329799652099609e+00 -2.290162324905395508e+00 2.768994569778442383e-01
-5.165386199951171875e+00 -2.400637865066528320e+00 2.138399183750152588e-01
-6.995038986206054688e+00 -2.367264747619628906e+00 2.191742211580276489e-01
-6.199853897094726562e+00 -2.351002931594848633e+00 1.342611163854598999e-01
-5.288840770721435547e+00 -2.227230310440063477e+00 6.109916046261787415e-02
-4.742665290832519531e+00 -2.202163696289062500e+00 6.388427224010229111e-03
-9.877591133117675781e+00 -3.284939527511596680e+00 1.449992775917053223e+00
-7.830475330352783203e+00 -3.252348899841308594e+00 1.018569588661193848e+00
-8.777235984802246094e+00 -4.025077819824218750e+00 1.067754149436950684e+00
-6.966289997100830078e+00 -2.314042806625366211e+00 7.521005868911743164e-01
-6.934426307678222656e+00 -2.586513042449951172e+00 6.878823637962341309e-01
-7.032196044921875000e+00 -2.917910099029541016e+00 6.353123784065246582e-01
-8.219425201416015625e+00 -3.764068365097045898e+00 6.686378717422485352e-01
-6.903179645538330078e+00 -2.290403842926025391e+00 4.792622923851013184e-01
-6.827851295471191406e+00 -2.544046401977539062e+00 4.112005829811096191e-01
-5.499645709991455078e+00 -2.279750108718872070e+00 2.797154188156127930e-01
-5.202738285064697266e+00 -2.379288434982299805e+00 2.147778123617172241e-01
-1.027790737152099609e+01 -3.408112525939941406e+00 3.213744163513183594e-01
-6.327538967132568359e+00 -2.355115890502929688e+00 1.367106884717941284e-01
-5.394799709320068359e+00 -2.232979059219360352e+00 6.216379255056381226e-02
-4.888884544372558594e+00 -2.233695507049560547e+00 6.566800177097320557e-03
-7.795130252838134766e+00 -3.181728839874267578e+00 1.011413455009460449e+00
-6.986033439636230469e+00 -2.273101806640625000e+00 7.527121305465698242e-01
-6.948295593261718750e+00 -2.543230772018432617e+00 6.876972317695617676e-01
-6.876486778259277344e+00 -2.803967475891113281e+00 6.196790337562561035e-01
-7.966862678527832031e+00 -3.589437007904052734e+00 6.462884545326232910e-01
-6.920898914337158203e+00 -2.249237060546875000e+00 4.795252978801727295e-01
-6.843332767486572266e+00 -2.502103567123413086e+00 4.112005829811096191e-01
-5.525556564331054688e+00 -2.250860691070556641e+00 2.803255021572113037e-01
-5.252780437469482422e+00 -2.363310813903808594e+00 2.162409275770187378e-01
-8.273694992065429688e+00 -2.687288761138916016e+00 2.581853270530700684e-01
-6.486495494842529297e+00 -2.369067907333374023e+00 1.398283392190933228e-01
-5.381538391113281250e+00 -2.188909530639648438e+00 6.185505166649818420e-02
-4.877871513366699219e+00 -2.192585945129394531e+00 6.533813197165727615e-03
-8.402480125427246094e+00 -3.378147840499877930e+00 1.421391487121582031e+00
-7.799761772155761719e+00 -3.127926111221313477e+00 1.009505152702331543e+00
-7.944735527038574219e+00 -3.525963306427001953e+00 9.611436724662780762e-01
-7.661419868469238281e+00 -3.395423889160156250e+00 6.198085546493530273e-01
-6.947881221771240234e+00 -2.210965156555175781e+00 4.804458022117614746e-01
-5.282717227935791016e+00 -2.337910652160644531e+00 2.168786972761154175e-01
-8.041413307189941406e+00 -2.557404994964599609e+00 2.504424452781677246e-01
-6.507497787475585938e+00 -2.331583499908447266e+00 1.399700492620468140e-01
-5.368868350982666016e+00 -2.145458221435546875e+00 6.155695021152496338e-02
-3.969325304031372070e+00 -1.755001544952392578e+00 5.302309058606624603e-03
-1.268315124511718750e+01 -3.960229158401489258e+00 3.915632247924804688e+00
-8.871741294860839844e+00 -3.877928018569946289e+00 1.428024888038635254e+00
-7.804950714111328125e+00 -3.074550151824951172e+00 1.007716059684753418e+00
-7.760346412658691406e+00 -3.387287378311157227e+00 9.363044500350952148e-01
-7.261572360992431641e+00 -3.165053606033325195e+00 5.858787298202514648e-01
-6.974655151367187500e+00 -2.172446489334106445e+00 4.813663661479949951e-01
-5.380343437194824219e+00 -2.341743230819702148e+00 2.202926278114318848e-01
-1.006403446197509766e+01 -3.132791280746459961e+00 3.128305375576019287e-01
-6.513192176818847656e+00 -2.288627147674560547e+00 1.397878378629684448e-01
-5.421025753021240234e+00 -2.127820014953613281e+00 6.200409680604934692e-02
-4.075392723083496094e+00 -1.772084116935729980e+00 5.429369397461414337e-03
-1.255401325225830078e+01 -3.835526704788208008e+00 3.868425369262695312e+00
-8.490909576416015625e+00 -3.649573802947998047e+00 1.363094687461853027e+00
-7.817186832427978516e+00 -3.024094581604003906e+00 1.006881117820739746e+00
-7.399197101593017578e+00 -3.175743579864501953e+00 8.903630971908569336e-01
-6.862795829772949219e+00 -2.652132511138916016e+00 6.139413118362426758e-01
-7.164443492889404297e+00 -3.070545673370361328e+00 5.765111446380615234e-01
-6.979262828826904297e+00 -2.126991987228393555e+00 4.807745814323425293e-01
-5.405635356903076172e+00 -2.313404083251953125e+00 2.207428216934204102e-01
-8.311239242553710938e+00 -2.531338453292846680e+00 2.578589916229248047e-01
-5.377997875213623047e+00 -2.072938919067382812e+00 6.136532127857208252e-02
-4.874187469482421875e+00 -2.083952188491821289e+00 6.476391572505235672e-03
-1.286957168579101562e+01 -3.845759391784667969e+00 3.958316326141357422e+00
-7.836524009704589844e+00 -2.976424932479858398e+00 1.007000446319580078e+00
-7.254623413085937500e+00 -3.061116218566894531e+00 8.706895709037780762e-01
-7.019695758819580078e+00 -2.094996929168701172e+00 7.505717277526855469e-01
-6.989753723144531250e+00 -2.365561246871948242e+00 6.858463883399963379e-01
-6.903164386749267578e+00 -2.619164705276489258e+00 6.161033511161804199e-01
-7.170282363891601562e+00 -3.021106481552124023e+00 5.754784941673278809e-01
-6.986444950103759766e+00 -2.082417726516723633e+00 4.803800582885742188e-01
-6.892271995544433594e+00 -2.329889059066772461e+00 4.105807840824127197e-01
-7.065217971801757812e+00 -2.677829265594482422e+00 3.549945056438446045e-01
-5.447361469268798828e+00 -2.291817903518676758e+00 2.218683063983917236e-01
-8.342901229858398438e+00 -2.485145092010498047e+00 2.583633363246917725e-01
-6.680033206939697266e+00 -2.255545139312744141e+00 1.427637785673141479e-01
-5.354142189025878906e+00 -2.026098966598510742e+00 6.095011159777641296e-02
-4.967086315155029297e+00 -2.087715864181518555e+00 6.582682952284812927e-03
-1.293896293640136719e+01 -3.780170679092407227e+00 3.972450256347656250e+00
-7.877896785736083984e+00 -2.936955451965332031e+00 1.009982228279113770e+00
-7.265006542205810547e+00 -3.013118028640747070e+00 8.697003722190856934e-01
-7.067061424255371094e+00 -2.926685571670532227e+00 5.657421350479125977e-01
-7.023998737335205078e+00 -2.046768665313720703e+00 4.820896089076995850e-01
-7.138625144958496094e+00 -2.655673027038574219e+00 3.578573763370513916e-01
-5.503800392150878906e+00 -2.275916337966918945e+00 2.235940247774124146e-01
-8.169891357421875000e+00 -2.379130840301513672e+00 2.525487542152404785e-01
-6.576995849609375000e+00 -2.175889492034912109e+00 1.402737051248550415e-01
-5.425527572631835938e+00 -2.015142440795898438e+00 6.162082776427268982e-02
-5.151711463928222656e+00 -2.128216028213500977e+00 6.809924263507127762e-03
-1.274700450897216797e+01 -3.639349460601806641e+00 3.906586647033691406e+00
-8.620865821838378906e+00 -3.162361860275268555e+00 1.441238522529602051e+00
-7.839823722839355469e+00 -2.868095397949218750e+00 1.002825975418090820e+00
-7.252983570098876953e+00 -2.956104516983032227e+00 8.660734295845031738e-01
-7.064256191253662109e+00 -2.011556625366210938e+00 4.839964210987091064e-01
-5.587094783782958984e+00 -2.270317077636718750e+00 2.264077067375183105e-01
-8.191065788269042969e+00 -2.330871582031250000e+00 2.527564167976379395e-01
-5.443427085876464844e+00 -1.983868360519409180e+00 6.168470531702041626e-02
-5.037733554840087891e+00 -2.045035362243652344e+00 6.642547436058521271e-03
-1.260093498229980469e+01 -3.514169931411743164e+00 3.855139493942260742e+00
-1.253303718566894531e+01 -4.010123729705810547e+00 3.728570699691772461e+00
-8.681937217712402344e+00 -3.124459266662597656e+00 1.448215961456298828e+00
-8.306127548217773438e+00 -3.331098318099975586e+00 1.319905281066894531e+00
-7.755414485931396484e+00 -2.783380031585693359e+00 9.898255467414855957e-01
-7.091847419738769531e+00 -1.972451210021972656e+00 4.850484132766723633e-01
-6.929232597351074219e+00 -2.201118946075439453e+00 4.102990627288818359e-01
-6.704217910766601562e+00 -2.127065420150756836e+00 1.424196213483810425e-01
-5.444198608398437500e+00 -1.946391224861145020e+00 6.155695021152496338e-02
-5.170938014984130859e+00 -2.062243223190307617e+00 6.801372393965721130e-03
-1.231961536407470703e+01 -3.354381799697875977e+00 3.762704610824584961e+00
-8.240808486938476562e+00 -3.246348381042480469e+00 1.306335568428039551e+00
-7.833221912384033203e+00 -2.757168292999267578e+00 9.975780844688415527e-01
-6.971943855285644531e+00 -2.451277494430541992e+00 6.166854500770568848e-01
-6.826405525207519531e+00 -2.680910110473632812e+00 5.424338579177856445e-01
-7.131742477416992188e+00 -1.936482071876525879e+00 4.869551956653594971e-01
-6.958815097808837891e+00 -2.163599729537963867e+00 4.112569093704223633e-01
-7.275832176208496094e+00 -2.555268764495849609e+00 3.623158931732177734e-01
-6.841638565063476562e+00 -2.682758569717407227e+00 2.758910059928894043e-01
-7.523519992828369141e+00 -2.041451454162597656e+00 2.313670516014099121e-01
-6.729556083679199219e+00 -2.089743614196777344e+00 1.426827907562255859e-01
-5.433392047882080078e+00 -1.905009388923645020e+00 6.130144000053405762e-02
-4.926507949829101562e+00 -1.929809451103210449e+00 6.464174948632717133e-03
-1.032455730438232422e+01 -2.743233442306518555e+00 3.148165941238403320e+00
-8.614130973815917969e+00 -2.981173992156982422e+00 1.430694699287414551e+00
-8.265185356140136719e+00 -3.197507381439208984e+00 1.307065129280090332e+00
-8.185354232788085938e+00 -2.496217727661132812e+00 1.108390212059020996e+00
-7.855623722076416016e+00 -2.710996150970458984e+00 9.982937574386596680e-01
-7.327492237091064453e+00 -2.830337047576904297e+00 8.686012625694274902e-01
-6.982142448425292969e+00 -2.406828403472900391e+00 6.162696480751037598e-01
-6.825047492980957031e+00 -2.632155418395996094e+00 5.410324335098266602e-01
-7.188824653625488281e+00 -1.904697537422180176e+00 4.900455474853515625e-01
-6.976736068725585938e+00 -2.122313261032104492e+00 4.115386307239532471e-01
-6.845847606658935547e+00 -2.636060476303100586e+00 2.754033207893371582e-01
-5.514955520629882812e+00 -1.895688533782958984e+00 6.208926811814308167e-02
-4.798256397247314453e+00 -1.845692396163940430e+00 6.280915345996618271e-03
-1.098189163208007812e+01 -2.845862150192260742e+00 3.343212842941284180e+00
-7.740437984466552734e+00 -2.618205785751342773e+00 9.815958738327026367e-01
-6.915585994720458984e+00 -2.336509466171264648e+00 6.091182231903076172e-01
-6.846665859222412109e+00 -2.592346906661987305e+00 5.414749979972839355e-01
-7.241918563842773438e+00 -1.871286273002624512e+00 4.928728342056274414e-01
-6.991540431976318359e+00 -2.080034255981445312e+00 4.116513133049011230e-01
-6.854414939880371094e+00 -2.591178417205810547e+00 2.751031816005706787e-01
-9.234033584594726562e+00 -2.743684053421020508e+00 1.950551420450210571e-01
-5.567231178283691406e+00 -1.875541090965270996e+00 6.254705786705017090e-02
-4.780489921569824219e+00 -1.805264353752136230e+00 6.243041250854730606e-03
-1.084476566314697266e+01 -2.739427804946899414e+00 3.296288490295410156e+00
-1.031394004821777344e+01 -3.023153066635131836e+00 3.045394659042358398e+00
-1.088892078399658203e+01 -2.752603530883789062e+00 2.852424383163452148e+00
-8.317706108093261719e+00 -3.101024150848388672e+00 1.309253811836242676e+00
-8.070192337036132812e+00 -2.674675464630126953e+00 1.021312952041625977e+00
-7.192139148712158203e+00 -2.677099466323852539e+00 8.485980629920959473e-01
-6.938306331634521484e+00 -2.296850681304931641e+00 6.098666191101074219e-01
-6.854964256286621094e+00 -2.547508478164672852e+00 5.408848524093627930e-01
-7.230041027069091797e+00 -1.820966482162475586e+00 4.912948012351989746e-01
-7.017593383789062500e+00 -2.040999412536621094e+00 4.124401509761810303e-01
-6.855195045471191406e+00 -2.543509960174560547e+00 2.745029330253601074e-01
-7.426054000854492188e+00 -1.868956208229064941e+00 2.272731065750122070e-01
-5.786586761474609375e+00 -1.909984946250915527e+00 6.487859785556793213e-02
-5.104657649993896484e+00 -1.891974210739135742e+00 6.651099305599927902e-03
-1.241964817047119141e+01 -3.056304693222045898e+00 3.769206047058105469e+00
-1.029899883270263672e+01 -2.950272560119628906e+00 3.035580396652221680e+00
-9.852604866027832031e+00 -2.814956426620483398e+00 2.095921039581298828e+00
-7.957076549530029297e+00 -2.583107948303222656e+00 1.004972815513610840e+00
-7.417378902435302734e+00 -1.822569251060485840e+00 7.825760245323181152e-01
-7.061973094940185547e+00 -2.009657144546508789e+00 6.824222803115844727e-01
-6.996823310852050781e+00 -2.268681287765502930e+00 6.137750148773193359e-01
-6.877025127410888672e+00 -2.507790803909301758e+00 5.414012074470520020e-01
-7.158705711364746094e+00 -1.756359696388244629e+00 4.857059419155120850e-01
-7.060717105865478516e+00 -2.006635904312133789e+00 4.142431616783142090e-01
-7.006594657897949219e+00 -2.269146919250488281e+00 3.460304737091064453e-01
-6.868794918060302734e+00 -2.500715732574462891e+00 2.744278907775878906e-01
-7.464564323425292969e+00 -1.830019712448120117e+00 2.281037569046020508e-01
-9.493993759155273438e+00 -2.694585084915161133e+00 1.998328417539596558e-01
-5.903809547424316406e+00 -1.908585548400878906e+00 6.606034189462661743e-02
-5.158460617065429688e+00 -1.875996828079223633e+00 6.706077139824628830e-03
-1.084211921691894531e+01 -2.597646951675415039e+00 3.285546779632568359e+00
-1.259524440765380859e+01 -3.524580240249633789e+00 3.705943584442138672e+00
-1.328571128845214844e+01 -3.185555458068847656e+00 3.469776868820190430e+00
-1.010237121582031250e+01 -2.424141168594360352e+00 2.231033563613891602e+00
-8.903374671936035156e+00 -2.478069067001342773e+00 1.197020292282104492e+00
-8.014409065246582031e+00 -2.547469139099121094e+00 1.010220766067504883e+00
-7.237549304962158203e+00 -2.593333005905151367e+00 8.501367568969726562e-01
-7.390689849853515625e+00 -1.767996549606323242e+00 7.786009311676025391e-01
-7.103910446166992188e+00 -1.974554061889648438e+00 6.852911114692687988e-01
-7.025808811187744141e+00 -2.230531454086303711e+00 6.151054501533508301e-01
-6.882893085479736328e+00 -2.462188005447387695e+00 5.406635999679565430e-01
-7.247961044311523438e+00 -1.731178402900695801e+00 4.910317957401275635e-01
-7.101757526397705078e+00 -1.971285462379455566e+00 4.159334897994995117e-01
-6.958494663238525391e+00 -2.206487417221069336e+00 3.429798781871795654e-01
-6.891538143157958984e+00 -2.461211204528808594e+00 2.747280299663543701e-01
-7.416345119476318359e+00 -1.770028948783874512e+00 2.262941151857376099e-01
-9.284898757934570312e+00 -2.573785066604614258e+00 1.950956284999847412e-01
-5.908736228942871094e+00 -1.870212316513061523e+00 6.598581373691558838e-02
-5.191536903381347656e+00 -1.852037787437438965e+00 6.734177004545927048e-03
-9.734982490539550781e+00 -2.269319772720336914e+00 2.945769786834716797e+00
-1.310667133331298828e+01 -3.581123590469360352e+00 3.849884748458862305e+00
-9.890455245971679688e+00 -2.309202194213867188e+00 2.181063175201416016e+00
-8.766247749328613281e+00 -2.382044792175292969e+00 1.176596879959106445e+00
-7.964474678039550781e+00 -2.477894067764282227e+00 1.001991033554077148e+00
-6.960754394531250000e+00 -2.446063756942749023e+00 8.158455491065979004e-01
-7.496350765228271484e+00 -1.744714140892028809e+00 7.885895371437072754e-01
-7.153369426727294922e+00 -1.941097736358642578e+00 6.889003515243530273e-01
-7.089800357818603516e+00 -2.203052759170532227e+00 6.195127367973327637e-01
-6.872463226318359375e+00 -2.410995483398437500e+00 5.386720895767211914e-01
-7.253587245941162109e+00 -1.685543894767761230e+00 4.907030463218688965e-01
-7.130101680755615234e+00 -1.932111978530883789e+00 4.168913364410400391e-01
-7.061579227447509766e+00 -2.191580772399902344e+00 3.473915159702301025e-01
-6.918770790100097656e+00 -2.423173189163208008e+00 2.752157151699066162e-01
-7.369620323181152344e+00 -1.711151361465454102e+00 2.245438098907470703e-01
-9.242611885070800781e+00 -2.501096248626708984e+00 1.938809752464294434e-01
-5.858969688415527344e+00 -1.814984798431396484e+00 6.530445069074630737e-02
-5.088590621948242188e+00 -1.780192255973815918e+00 6.586347706615924835e-03
-9.338044166564941406e+00 -2.116463899612426758e+00 2.821675062179565430e+00
-1.304194164276123047e+01 -3.477581739425659180e+00 3.824531555175781250e+00
-8.173295021057128906e+00 -2.487960815429687500e+00 1.026322245597839355e+00
-7.074304103851318359e+00 -2.437302589416503906e+00 8.273858428001403809e-01
-7.596179008483886719e+00 -1.718883395195007324e+00 7.979665994644165039e-01
-7.185358524322509766e+00 -1.902521014213562012e+00 6.908437609672546387e-01
-7.118439674377441406e+00 -2.164146900177001953e+00 6.208432316780090332e-01
-6.897500514984130859e+00 -2.372349262237548828e+00 5.394834280014038086e-01
-7.295911788940429688e+00 -1.648261189460754395e+00 4.928728342056274414e-01
-7.163058280944824219e+00 -1.893940925598144531e+00 4.181309342384338379e-01
-7.093054294586181641e+00 -2.153724670410156250e+00 3.482832312583923340e-01
-6.905154705047607422e+00 -2.370939254760742188e+00 2.740902602672576904e-01
-7.404356956481933594e+00 -1.671402454376220703e+00 2.252854704856872559e-01
-7.939248085021972656e+00 -2.096203804016113281e+00 1.662675589323043823e-01
-5.800137996673583984e+00 -1.757829070091247559e+00 6.452727317810058594e-02
-5.231845855712890625e+00 -1.794354081153869629e+00 6.757389754056930542e-03
-9.586920738220214844e+00 -2.111110448837280273e+00 2.892909288406372070e+00
-1.211047267913818359e+01 -3.149745941162109375e+00 3.545645236968994141e+00
-1.311999893188476562e+01 -3.938372611999511719e+00 3.737171173095703125e+00
-8.210292816162109375e+00 -2.444279432296752930e+00 1.029065489768981934e+00
-7.171053886413574219e+00 -2.421514987945556641e+00 8.369478583335876465e-01
-7.661963462829589844e+00 -1.684416651725769043e+00 8.037762641906738281e-01
-7.194005012512207031e+00 -1.857649803161621094e+00 6.905661225318908691e-01
-7.122032642364501953e+00 -2.117588043212890625e+00 6.200116872787475586e-01
-6.913817405700683594e+00 -2.330619573593139648e+00 5.396309494972229004e-01
-7.332203388214111328e+00 -1.609238862991333008e+00 4.946481287479400635e-01
-7.212249279022216797e+00 -1.859675765037536621e+00 4.203283488750457764e-01
-7.140607833862304688e+00 -2.120398521423339844e+00 3.499727547168731689e-01
-6.924308300018310547e+00 -2.330118894577026367e+00 2.742778360843658447e-01
-7.501369476318359375e+00 -1.644994378089904785e+00 2.279257774353027344e-01
-7.957770347595214844e+00 -2.048945903778076172e+00 1.663890331983566284e-01
-5.830947399139404297e+00 -1.728173971176147461e+00 6.475084275007247925e-02
-5.352712154388427734e+00 -1.799176931381225586e+00 6.899110507220029831e-03
-1.010997676849365234e+01 -2.161336183547973633e+00 3.046685457229614258e+00
-1.036133575439453125e+01 -2.627053022384643555e+00 3.028765201568603516e+00
-1.334757041931152344e+01 -3.917568445205688477e+00 3.795075178146362305e+00
-1.064289379119873047e+01 -2.690533876419067383e+00 2.245414972305297852e+00
-8.642194747924804688e+00 -2.864356517791748047e+00 1.342813134193420410e+00
-8.246109008789062500e+00 -2.399960041046142578e+00 1.031689405441284180e+00
-7.233902454376220703e+00 -2.393391132354736328e+00 8.425531387329101562e-01
-7.248719692230224609e+00 -1.824409604072570801e+00 6.947306394577026367e-01
-7.095657348632812500e+00 -2.062444448471069336e+00 6.166023015975952148e-01
-6.948821067810058594e+00 -2.295033931732177734e+00 5.412536859512329102e-01
-7.415134429931640625e+00 -1.579813480377197266e+00 4.995794892311096191e-01
-7.221587181091308594e+00 -1.814900398254394531e+00 4.202156364917755127e-01
-7.168833255767822266e+00 -2.081000328063964844e+00 3.507236838340759277e-01
-6.955558300018310547e+00 -2.293220520019531250e+00 2.749531269073486328e-01
-3.890088081359863281e+00 -8.280835151672363281e-01 1.180419847369194031e-01
-7.952736854553222656e+00 -1.995698928833007812e+00 1.660246253013610840e-01
-5.834718704223632812e+00 -1.690415620803833008e+00 6.467632204294204712e-02
-5.390245914459228516e+00 -1.775057315826416016e+00 6.933318916708230972e-03
-9.607409477233886719e+00 -1.992331266403198242e+00 2.891495943069458008e+00
-1.348390007019042969e+01 -3.330840826034545898e+00 3.935486316680908203e+00
-1.227060127258300781e+01 -3.519841909408569336e+00 3.482657194137573242e+00
-1.314182186126708984e+01 -2.727670669555664062e+00 3.408730983734130859e+00
-8.748997688293457031e+00 -2.840295314788818359e+00 1.356674671173095703e+00
-8.213885307312011719e+00 -2.336009263992309570e+00 1.025845170021057129e+00
-7.282986640930175781e+00 -1.785588145256042480e+00 6.969516873359680176e-01
-7.067916393280029297e+00 -2.007431983947753906e+00 6.131097078323364258e-01
-6.971311569213867188e+00 -2.255115985870361328e+00 5.419175028800964355e-01
-7.475502490997314453e+00 -1.544785737991333008e+00 5.029985904693603516e-01
-7.231617450714111328e+00 -1.770318031311035156e+00 4.201593101024627686e-01
-7.176661968231201172e+00 -2.035610914230346680e+00 3.504890203475952148e-01
-6.978056430816650391e+00 -2.253262519836425781e+00 2.752907574176788330e-01
-3.913695335388183594e+00 -8.080388903617858887e-01 1.186056509613990784e-01
-7.949293613433837891e+00 -1.943066120147705078e+00 1.657007187604904175e-01
-5.998922824859619141e+00 -1.698160171508789062e+00 6.637972593307495117e-02
-5.342980861663818359e+00 -1.723225951194763184e+00 6.858793552964925766e-03
-9.631678581237792969e+00 -1.935801029205322266e+00 2.895170927047729492e+00
-9.852107048034667969e+00 -2.369657993316650391e+00 2.871192932128906250e+00
-1.275180149078369141e+01 -3.573340415954589844e+00 3.612941026687622070e+00
-1.310130023956298828e+01 -2.635514020919799805e+00 3.393961906433105469e+00
-1.356368637084960938e+01 -3.257369995117187500e+00 3.392745256423950195e+00
-7.236201286315917969e+00 -2.296022891998291016e+00 8.394757509231567383e-01
-7.319955825805664062e+00 -1.747108459472656250e+00 6.994504332542419434e-01
-7.160763740539550781e+00 -1.986402392387390137e+00 6.200948357582092285e-01
-6.967905044555664062e+00 -2.206878423690795898e+00 5.405898690223693848e-01
-7.492667675018310547e+00 -1.500455379486083984e+00 5.035246014595031738e-01
-7.253998756408691406e+00 -1.728689789772033691e+00 4.208354353904724121e-01
-7.231373310089111328e+00 -2.003271341323852539e+00 3.525540530681610107e-01
-6.995562076568603516e+00 -2.211608409881591797e+00 2.754408121109008789e-01
-3.900937318801879883e+00 -7.804799079895019531e-01 1.180716603994369507e-01
-7.902707576751708984e+00 -1.880367636680603027e+00 1.644860506057739258e-01
-5.931162357330322266e+00 -1.639737010002136230e+00 6.551738083362579346e-02
-5.018743991851806641e+00 -1.584721446037292480e+00 6.429966539144515991e-03
-9.794965744018554688e+00 -1.906166195869445801e+00 2.940681934356689453e+00
-1.060466575622558594e+01 -2.481932640075683594e+00 3.086014509201049805e+00
-1.189878177642822266e+01 -3.255696535110473633e+00 3.365533351898193359e+00
-1.308202362060546875e+01 -2.548219680786132812e+00 3.384854078292846680e+00
-1.018589878082275391e+01 -2.376424312591552734e+00 2.139406442642211914e+00
-8.782387733459472656e+00 -2.381596088409423828e+00 1.093113660812377930e+00
-7.068851947784423828e+00 -2.195275068283081055e+00 8.184833526611328125e-01
-8.722454071044921875e+00 -1.694288492202758789e+00 9.103892445564270020e-01
-7.412009716033935547e+00 -1.721078991889953613e+00 7.072241306304931641e-01
-7.158389091491699219e+00 -1.938520193099975586e+00 6.188474893569946289e-01
-7.007986545562744141e+00 -2.172350168228149414e+00 5.426551103591918945e-01
-8.318715095520019531e+00 -1.612851262092590332e+00 5.583612918853759766e-01
-7.307264328002929688e+00 -1.694068908691406250e+00 4.233146011829376221e-01
-7.303313255310058594e+00 -1.975030064582824707e+00 3.554638326168060303e-01
-7.024274826049804688e+00 -2.173368692398071289e+00 2.760410606861114502e-01
-3.859530687332153320e+00 -7.475956082344055176e-01 1.166773438453674316e-01
-7.912148475646972656e+00 -1.831391334533691406e+00 1.644455641508102417e-01
-5.988416671752929688e+00 -1.616079211235046387e+00 6.603904813528060913e-02
-4.951939105987548828e+00 -1.530277132987976074e+00 6.332227494567632675e-03
-8.677172660827636719e+00 -1.633442401885986328e+00 2.602035522460937500e+00
-1.036827468872070312e+01 -2.359599113464355469e+00 3.012953519821166992e+00
-1.165568733215332031e+01 -3.112437248229980469e+00 3.291311264038085938e+00
-8.705574989318847656e+00 -1.640362381935119629e+00 2.249841213226318359e+00
-8.712269783020019531e+00 -1.643198490142822266e+00 1.903916239738464355e+00
-1.015920448303222656e+01 -2.304560422897338867e+00 2.130789518356323242e+00
-1.088659954071044922e+01 -2.892822027206420898e+00 2.193656444549560547e+00
-8.702685356140136719e+00 -1.639817953109741211e+00 1.564709424972534180e+00
-8.723088264465332031e+00 -1.642085909843444824e+00 1.236425876617431641e+00
-8.794916152954101562e+00 -2.327155590057373047e+00 1.092875123023986816e+00
-8.731708526611328125e+00 -1.640552997589111328e+00 9.102873802185058594e-01
-7.466137886047363281e+00 -1.685433983802795410e+00 7.113886475563049316e-01
-7.208687782287597656e+00 -1.904743671417236328e+00 6.221737265586853027e-01
-7.064129829406738281e+00 -2.142333507537841797e+00 5.459743738174438477e-01
-8.627580642700195312e+00 -1.617871284484863281e+00 5.784155130386352539e-01
-7.309729576110839844e+00 -1.647444367408752441e+00 4.228638410568237305e-01
-7.220641613006591797e+00 -1.905205965042114258e+00 3.508644700050354004e-01
-7.047999382019042969e+00 -2.133412361145019531e+00 2.764537632465362549e-01
-8.616241455078125000e+00 -1.614188194274902344e+00 2.601729631423950195e-01
-7.932991027832031250e+00 -1.785003542900085449e+00 1.646480113267898560e-01
-6.142301559448242188e+00 -1.617240428924560547e+00 6.762534379959106445e-02
-5.198624610900878906e+00 -1.571630358695983887e+00 6.635216996073722839e-03
-8.680425643920898438e+00 -1.578967928886413574e+00 2.600056886672973633e+00
-1.007818317413330078e+01 -2.228628396987915039e+00 2.924625873565673828e+00
-1.059346580505371094e+01 -2.759267807006835938e+00 2.986525774002075195e+00
-8.704032897949218750e+00 -1.584831595420837402e+00 2.246887207031250000e+00
-1.032797050476074219e+01 -2.280083656311035156e+00 2.572445631027221680e+00
-8.726035118103027344e+00 -1.590411305427551270e+00 1.904755949974060059e+00
-1.089084243774414062e+01 -2.822521209716796875e+00 2.190980195999145508e+00
-8.707739830017089844e+00 -1.585506558418273926e+00 1.563839673995971680e+00
-8.738845825195312500e+00 -1.589594602584838867e+00 1.237253665924072266e+00
-7.418247222900390625e+00 -2.204340219497680664e+00 8.557420969009399414e-01
-8.715182304382324219e+00 -1.582147598266601562e+00 9.075353741645812988e-01
-7.449106216430664062e+00 -1.633618593215942383e+00 7.087973952293395996e-01
-7.262700080871582031e+00 -1.871417284011840820e+00 6.258326172828674316e-01
-7.014994621276855469e+00 -2.080516576766967773e+00 5.411799550056457520e-01
-8.649127006530761719e+00 -1.567037463188171387e+00 5.792044401168823242e-01
-7.359688282012939453e+00 -1.611316561698913574e+00 4.251739680767059326e-01
-7.218652248382568359e+00 -1.857380390167236328e+00 3.502074182033538818e-01
-7.080120563507080078e+00 -2.095799207687377930e+00 2.772040665149688721e-01
-8.665327072143554688e+00 -1.568410634994506836e+00 2.613596320152282715e-01
-7.957468509674072266e+00 -1.739282846450805664e+00 1.649314314126968384e-01
-6.162763118743896484e+00 -1.582256913185119629e+00 6.774245947599411011e-02
-5.469009876251220703e+00 -1.616815328598022461e+00 6.967527326196432114e-03
-1.029510593414306641e+01 -1.807489871978759766e+00 3.080323696136474609e+00
-9.507502555847167969e+00 -2.041323661804199219e+00 2.755331039428710938e+00
-1.344064235687255859e+01 -3.412942171096801758e+00 3.783231258392333984e+00
-9.936436653137207031e+00 -1.746306896209716797e+00 2.562209606170654297e+00
-1.379440593719482422e+01 -2.956713676452636719e+00 3.431267023086547852e+00
-1.008564662933349609e+01 -1.774344801902770996e+00 2.199119806289672852e+00
-8.848809242248535156e+00 -2.225592136383056641e+00 1.096095442771911621e+00
-7.453586578369140625e+00 -2.165158510208129883e+00 8.582699894905090332e-01
-7.508657932281494141e+00 -1.598454475402832031e+00 7.135171890258789062e-01
-7.235385417938232422e+00 -1.817109584808349609e+00 6.225063800811767578e-01
-7.065941810607910156e+00 -2.048542022705078125e+00 5.441303253173828125e-01
-8.673323631286621094e+00 -1.516515970230102539e+00 5.801907777786254883e-01
-7.411429882049560547e+00 -1.575052380561828613e+00 4.275967478752136230e-01
-7.227006912231445312e+00 -1.812323689460754395e+00 3.500666320323944092e-01
-7.065969467163085938e+00 -2.044539928436279297e+00 2.761536240577697754e-01
-8.655093193054199219e+00 -1.511771798133850098e+00 2.607662975788116455e-01
-3.888637542724609375e+00 -8.249816894531250000e-01 8.049187809228897095e-02
-6.224737644195556641e+00 -1.557519912719726562e+00 6.831735372543334961e-02
-5.508609294891357422e+00 -1.591833710670471191e+00 7.005400955677032471e-03
-9.569251060485839844e+00 -1.619591474533081055e+00 2.860118865966796875e+00
-1.027054786682128906e+01 -2.139316320419311523e+00 2.972606182098388672e+00
-1.338828372955322266e+01 -3.312335252761840820e+00 3.762701511383056641e+00
-1.059200382232666016e+01 -1.794593453407287598e+00 2.728363275527954102e+00
-1.330332851409912109e+01 -2.766188144683837891e+00 3.304830551147460938e+00
-9.957535743713378906e+00 -1.688884019851684570e+00 2.168885469436645508e+00
-8.889300346374511719e+00 -2.177870273590087891e+00 1.099435091018676758e+00
-7.538444042205810547e+00 -2.139738559722900391e+00 8.665130138397216797e-01
-7.529050827026367188e+00 -1.554566860198974609e+00 7.145351171493530273e-01
-7.345133781433105469e+00 -1.796833276748657227e+00 6.309882998466491699e-01
-7.064945220947265625e+00 -2.001342296600341797e+00 5.430977344512939453e-01
-8.767086029052734375e+00 -1.477530241012573242e+00 5.858454108238220215e-01
-3.944674491882324219e+00 -8.130443096160888672e-01 2.272928506135940552e-01
-7.236049652099609375e+00 -1.767471432685852051e+00 3.499727547168731689e-01
-7.152424812316894531e+00 -2.022078514099121094e+00 2.790423333644866943e-01
-1.280410194396972656e+01 -2.155596256256103516e+00 3.853645324707031250e-01
-3.900481700897216797e+00 -8.025163412094116211e-01 8.063359558582305908e-02
-6.257493495941162109e+00 -1.524978637695312500e+00 6.857287138700485229e-02
-5.632795810699462891e+00 -1.590337395668029785e+00 7.150786928832530975e-03
-1.014420604705810547e+01 -1.652940869331359863e+00 3.028876543045043945e+00
-9.863805770874023438e+00 -1.991523504257202148e+00 2.851292133331298828e+00
-1.127367401123046875e+01 -2.715870857238769531e+00 3.163659334182739258e+00
-1.357723236083984375e+01 -2.736340284347534180e+00 3.368639707565307617e+00
-1.409181594848632812e+01 -2.301231145858764648e+00 3.066254138946533203e+00
-1.001580429077148438e+01 -2.014936208724975586e+00 2.089708805084228516e+00
-1.002077198028564453e+01 -2.401092767715454102e+00 2.006709814071655273e+00
-7.590701580047607422e+00 -2.104329824447631836e+00 8.710192441940307617e-01
-7.420972347259521484e+00 -1.767197847366333008e+00 6.365597248077392578e-01
-7.171286582946777344e+00 -1.984014868736267090e+00 5.503262281417846680e-01
-3.937839984893798828e+00 -7.864783406257629395e-01 2.266167104244232178e-01
-7.468330383300781250e+00 -1.775720953941345215e+00 3.606732785701751709e-01
-7.199374675750732422e+00 -1.987728238105773926e+00 2.803929150104522705e-01
-1.272335147857666016e+01 -2.061801433563232422e+00 3.825462162494659424e-01
-3.901410102844238281e+00 -7.777864336967468262e-01 8.055261522531509399e-02
-6.279381275177001953e+00 -1.489555001258850098e+00 6.871127337217330933e-02
-5.734030723571777344e+00 -1.580996632575988770e+00 7.266851607710123062e-03
-9.861330986022949219e+00 -1.544794321060180664e+00 2.941529750823974609e+00
-9.861675262451171875e+00 -1.928193449974060059e+00 2.847202777862548828e+00
-1.353781890869140625e+01 -3.173552989959716797e+00 3.793496131896972656e+00
-1.302466583251953125e+01 -3.566352605819702148e+00 3.550293445587158203e+00
-1.019957637786865234e+01 -1.599604964256286621e+00 2.622025012969970703e+00
-1.360425662994384766e+01 -2.655027627944946289e+00 3.371239185333251953e+00
-1.359210395812988281e+01 -3.178771495819091797e+00 3.253466129302978516e+00
-9.693614959716796875e+00 -2.645168542861938477e+00 2.246002912521362305e+00
-9.875128746032714844e+00 -1.550487518310546875e+00 2.146629810333251953e+00
-1.004432773590087891e+01 -1.956627011299133301e+00 2.093115568161010742e+00
-1.025804805755615234e+01 -2.391487360000610352e+00 2.051248311996459961e+00
-8.751251220703125000e+00 -1.698396325111389160e+00 1.154631972312927246e+00
-7.617862224578857422e+00 -2.061609506607055664e+00 8.726679086685180664e-01
-8.741133689880371094e+00 -1.693266630172729492e+00 8.275318145751953125e-01
-7.429734706878662109e+00 -1.721180677413940430e+00 6.363934278488159180e-01
-7.156367778778076172e+00 -1.932695031166076660e+00 5.482609272003173828e-01
-8.575283050537109375e+00 -1.658033967018127441e+00 4.928997755050659180e-01
-7.858635902404785156e+00 -1.817650318145751953e+00 3.789768218994140625e-01
-7.183454513549804688e+00 -1.935975193977355957e+00 2.793049514293670654e-01
-1.281082439422607422e+01 -1.995385169982910156e+00 3.848008811473846436e-01
-3.894329071044921875e+00 -7.515597939491271973e-01 8.030968159437179565e-02
-6.400451660156250000e+00 -1.476851820945739746e+00 6.993559747934341431e-02
-5.740725994110107422e+00 -1.545003890991210938e+00 7.263185922056436539e-03
-9.567088127136230469e+00 -1.438614130020141602e+00 2.851073265075683594e+00
-8.698241233825683594e+00 -1.645367741584777832e+00 2.508340835571289062e+00
-1.251389789581298828e+01 -2.852635622024536133e+00 3.501607656478881836e+00
-1.374986743927001953e+01 -3.674381256103515625e+00 3.741754531860351562e+00
-1.015073585510253906e+01 -1.528189659118652344e+00 2.607009649276733398e+00
-8.719278335571289062e+00 -1.646194815635681152e+00 2.158160209655761719e+00
-9.475786209106445312e+00 -2.523359537124633789e+00 2.191903352737426758e+00
-9.925061225891113281e+00 -1.495985984802246094e+00 2.155448198318481445e+00
-8.732334136962890625e+00 -1.645503163337707520e+00 1.817573666572570801e+00
-1.428720569610595703e+01 -2.150933742523193359e+00 2.552809715270996094e+00
-8.715914726257324219e+00 -1.639258861541748047e+00 1.477751851081848145e+00
-8.767356872558593750e+00 -1.645765542984008789e+00 1.155402779579162598e+00
-7.824491024017333984e+00 -2.066087007522583008e+00 8.948692083358764648e-01
-8.749401092529296875e+00 -1.639233469963073730e+00 8.273467421531677246e-01
-7.445016860961914062e+00 -1.676654934883117676e+00 6.368092298507690430e-01
-7.240418434143066406e+00 -1.907805681228637695e+00 5.537929534912109375e-01
-8.585294723510742188e+00 -1.605385780334472656e+00 4.928997755050659180e-01
-7.442780017852783203e+00 -1.673421621322631836e+00 3.584205508232116699e-01
-7.221292018890380859e+00 -1.898722887039184570e+00 2.803178727626800537e-01
-1.267552852630615234e+01 -1.894723892211914062e+00 3.803806006908416748e-01
-8.358927726745605469e+00 -1.560037016868591309e+00 1.721789389848709106e-01
-6.370365142822265625e+00 -1.428798079490661621e+00 6.950974464416503906e-02
-5.737524509429931641e+00 -1.506448984146118164e+00 7.247303612530231476e-03
-1.079857349395751953e+01 -1.556098222732543945e+00 3.215160369873046875e+00
-8.693030357360839844e+00 -1.589197039604187012e+00 2.503978967666625977e+00
-1.253116607666015625e+01 -2.775798082351684570e+00 3.501607656478881836e+00
-1.393873882293701172e+01 -3.633367300033569336e+00 3.787013769149780273e+00
-9.666842460632324219e+00 -1.394735455513000488e+00 2.480486869812011719e+00
-8.718700408935546875e+00 -1.590744972229003906e+00 2.155560731887817383e+00
-1.051855278015136719e+01 -2.324203968048095703e+00 2.510750770568847656e+00
-9.947601318359375000e+00 -1.437015891075134277e+00 2.158387422561645508e+00
-8.759615898132324219e+00 -1.595050811767578125e+00 1.821180701255798340e+00
-8.727749824523925781e+00 -1.586100935935974121e+00 1.478080511093139648e+00
-8.701177597045898438e+00 -1.578134536743164062e+00 1.145383715629577637e+00
-8.039155006408691406e+00 -2.070087671279907227e+00 9.179498553276062012e-01
-8.724021911621093750e+00 -1.579132676124572754e+00 8.240151405334472656e-01
-7.513575077056884766e+00 -1.643719911575317383e+00 6.417985558509826660e-01
-7.276135921478271484e+00 -1.869547843933105469e+00 5.556370019912719727e-01
-8.644109725952148438e+00 -1.561551690101623535e+00 4.957169890403747559e-01
-7.457787036895751953e+00 -1.628787755966186523e+00 3.586552143096923828e-01
-7.237646579742431641e+00 -1.855619072914123535e+00 2.805054485797882080e-01
-1.315295314788818359e+01 -1.883654594421386719e+00 3.943533897399902344e-01
-8.370309829711914062e+00 -1.509073019027709961e+00 1.722194254398345947e-01
-6.315505027770996094e+00 -1.375848174095153809e+00 6.881773471832275391e-02
-5.757316112518310547e+00 -1.473943948745727539e+00 7.260742597281932831e-03
-1.060551929473876953e+01 -1.461910486221313477e+00 3.154950380325317383e+00
-1.061558246612548828e+01 -1.873425602912902832e+00 3.054390907287597656e+00
-1.325062561035156250e+01 -2.849987268447875977e+00 3.697691440582275391e+00
-9.608968734741210938e+00 -1.326250791549682617e+00 2.463502168655395508e+00
-1.016084384918212891e+01 -1.789516687393188477e+00 2.509345769882202148e+00
-1.037549781799316406e+01 -2.225912094116210938e+00 2.473297119140625000e+00
-9.681175231933593750e+00 -1.337938785552978516e+00 2.098758935928344727e+00
-1.441694355010986328e+01 -2.533908128738403320e+00 2.994086980819702148e+00
-1.363162708282470703e+01 -1.881466746330261230e+00 2.431363344192504883e+00
-8.157751083374023438e+00 -2.047335386276245117e+00 9.300398230552673340e-01
-7.530343055725097656e+00 -1.599035501480102539e+00 6.423806548118591309e-01
-7.151065826416015625e+00 -1.790709853172302246e+00 5.452367663383483887e-01
-8.688937187194824219e+00 -1.514655590057373047e+00 4.977453947067260742e-01
-7.431485176086425781e+00 -1.575332641601562500e+00 3.569187223911285400e-01
-7.245018482208251953e+00 -1.810205936431884766e+00 2.803553938865661621e-01
-1.303948497772216797e+01 -1.785824894905090332e+00 3.906154632568359375e-01
-8.415857315063476562e+00 -1.464025497436523438e+00 1.729684770107269287e-01
-3.911303520202636719e+00 -8.269817829132080078e-01 4.256393760442733765e-02
-5.861337184906005859e+00 -1.462312340736389160e+00 7.380472496151924133e-03
-1.041362571716308594e+01 -1.370401978492736816e+00 3.095305681228637695e+00
-9.996132850646972656e+00 -1.700927615165710449e+00 2.873101234436035156e+00
-9.596038818359375000e+00 -2.002423048019409180e+00 2.674371242523193359e+00
-9.468943595886230469e+00 -1.247765898704528809e+00 2.425594568252563477e+00
-1.378218936920166016e+01 -2.340207576751708984e+00 3.400071382522583008e+00
-1.040993595123291016e+01 -2.166573047637939453e+00 2.478290796279907227e+00
-1.453461074829101562e+01 -2.462748765945434570e+00 3.015328645706176758e+00
